ply
            format ascii 1.0
            element vertex 29549
            property float x
            property float y
            property float z
            property float nx
            property float ny
            property float nz
end_header
0.08894736842105 -0.10736842105263 1.96842105263158 0.00000000000000 0.00000000000000 1.00000000000000
0.11641196013289 -0.10843853820598 1.98803986710963 0.00000000000000 0.00000000000000 1.00000000000000
0.14540540540541 -0.11027027027027 2.02162162162162 -0.89371470628033 -0.44685735314017 0.03990651228579
0.16900662251656 -0.10807947019868 1.98145695364238 -0.00000000000000 -0.00000000000000 -1.00000000000000
0.19421052631579 -0.10736842105263 1.96842105263158 -0.00000000000000 -0.00000000000000 -1.00000000000000
0.21766233766234 -0.10597402597403 1.94285714285714 0.67851778149036 -0.60312691688031 -0.41934656590445
0.24522875816993 -0.10666666666667 1.95555555555556 -0.00000000000000 -0.00000000000000 -1.00000000000000
0.27048859934853 -0.10631921824104 1.94918566775244 0.00000000000000 0.00000000000000 1.00000000000000
0.23895013123360 -0.08566929133858 1.57060367454068 -0.88890061967563 -0.44445030983782 0.11099374047822
0.25329923273657 -0.08347826086957 1.53043478260870 -0.88766794799247 -0.44383397399624 0.12270703986955
-0.41488372093023 -0.12589147286822 2.31937984496124 -0.98437547756471 0.00000000000000 -0.17608213756438
-0.36278388278388 -0.11897435897436 2.19194139194139 -0.00000000000000 -0.00000000000000 -1.00000000000000
-0.33347985347985 -0.11897435897436 2.19194139194139 -0.00000000000000 -0.00000000000000 -1.00000000000000
-0.30529411764706 -0.11941176470588 2.20000000000000 0.00000000000000 0.00000000000000 -1.00000000000000
-0.27588235294118 -0.11941176470588 2.20000000000000 0.00000000000000 0.00000000000000 -1.00000000000000
-0.24738007380074 -0.11985239852399 2.20811808118081 nan nan nan
-0.16131147540984 -0.08874316939891 1.63497267759563 -0.00000000000000 -0.00000000000000 1.00000000000000
-0.13945355191257 -0.08874316939891 1.63497267759563 -0.00000000000000 -0.00000000000000 1.00000000000000
-0.11296587926509 -0.08524934383202 1.57060367454068 -0.00000000000000 -0.00000000000000 1.00000000000000
-0.09626373626374 -0.08923076923077 1.64395604395604 -0.00000000000000 -0.00000000000000 -1.00000000000000
-0.07428571428571 -0.08923076923077 1.64395604395604 -0.00000000000000 -0.00000000000000 1.00000000000000
-0.07051851851852 -0.12029629629630 2.21629629629630 0.00000000000000 0.00000000000000 -1.00000000000000
-0.03729729729730 -0.10972972972973 2.02162162162162 -0.89368456627223 -0.44684228313612 -0.04074150228594
-0.01006622516556 -0.10754966887417 1.98145695364238 nan nan nan
0.01626229508197 -0.10649180327869 1.96196721311475 0.00000000000000 0.00000000000000 -1.00000000000000
0.04235294117647 -0.10614379084967 1.95555555555556 0.00000000000000 0.00000000000000 1.00000000000000
0.06872131147541 -0.10649180327869 1.96196721311475 -0.00000000000000 -0.00000000000000 -1.00000000000000
0.09557755775578 -0.10719471947195 1.97491749174917 0.00000000000000 0.00000000000000 1.00000000000000
0.12320000000000 -0.10826666666667 1.99466666666667 0.00000000000000 0.00000000000000 1.00000000000000
0.15036789297659 -0.10862876254181 2.00133779264214 0.00000000000000 0.00000000000000 -1.00000000000000
0.17536423841060 -0.10754966887417 1.98145695364238 -0.00000000000000 -0.00000000000000 -1.00000000000000
0.19986885245902 -0.10649180327869 1.96196721311475 -0.89243572422540 -0.44621786211270 0.06669406013930
0.22609836065574 -0.10649180327869 1.96196721311475 0.00000000000000 0.00000000000000 -1.00000000000000
0.25150326797386 -0.10614379084967 1.95555555555556 0.00000000000000 0.00000000000000 -1.00000000000000
0.22777479892761 -0.08707774798928 1.60428954423592 -0.88974587341284 -0.44487293670642 0.10217803546278
0.24271540469974 -0.08480417754569 1.56240208877285 -0.88860372703373 -0.44430186351687 0.11392660083227
0.25689567430025 -0.08264631043257 1.52264631043257 -0.88734106846644 -0.44367053423320 0.12562756570934
-0.38505494505495 -0.11838827838828 2.19194139194139 0.00000000000000 0.00000000000000 -1.00000000000000
-0.35575091575092 -0.11838827838828 2.19194139194139 0.00000000000000 0.00000000000000 -1.00000000000000
-0.32644688644689 -0.11838827838828 2.19194139194139 -0.00000000000000 -0.00000000000000 1.00000000000000
-0.29823529411765 -0.11882352941176 2.20000000000000 0.00000000000000 0.00000000000000 -1.00000000000000
-0.26882352941176 -0.11882352941176 2.20000000000000 nan nan nan
-0.24029520295203 -0.11926199261993 2.20811808118081 0.00000000000000 0.00000000000000 -1.00000000000000
-0.15606557377049 -0.08830601092896 1.63497267759563 0.00000000000000 0.00000000000000 -1.00000000000000
-0.14795180722892 -0.09734939759036 1.80240963855422 -0.26267936049313 0.52535872098626 -0.80931932378672
-0.10792650918635 -0.08482939632546 1.57060367454068 nan nan nan
-0.09098901098901 -0.08879120879121 1.64395604395604 -0.00000000000000 -0.00000000000000 -1.00000000000000
-0.06920110192837 -0.08903581267218 1.64848484848485 -0.89272948172209 -0.44636474086104 -0.06158401237548
-0.05923875432526 -0.11183391003460 2.07058823529412 nan nan nan
-0.03050167224080 -0.10809364548495 2.00133779264214 0.00000000000000 0.00000000000000 1.00000000000000
-0.00369636963696 -0.10666666666667 1.97491749174917 0.00000000000000 0.00000000000000 1.00000000000000
0.02255737704918 -0.10596721311475 1.96196721311475 0.00000000000000 0.00000000000000 1.00000000000000
0.04862745098039 -0.10562091503268 1.95555555555556 0.00000000000000 0.00000000000000 1.00000000000000
0.07501639344262 -0.10596721311475 1.96196721311475 nan nan nan
0.10225165562914 -0.10701986754967 1.98145695364238 0.00000000000000 0.00000000000000 1.00000000000000
0.13046979865772 -0.10845637583893 2.00805369127517 0.69025220419442 -0.61355751483949 -0.38353496657897
0.15626666666667 -0.10773333333333 1.99466666666667 -0.00000000000000 -0.00000000000000 1.00000000000000
0.18112211221122 -0.10666666666667 1.97491749174917 0.00000000000000 0.00000000000000 -1.00000000000000
0.20415584415584 -0.10493506493506 1.94285714285714 0.00000000000000 0.00000000000000 -1.00000000000000
0.23239344262295 -0.10596721311475 1.96196721311475 0.00000000000000 -0.00000000000000 -1.00000000000000
0.25777777777778 -0.10562091503268 1.95555555555556 0.00000000000000 0.00000000000000 -1.00000000000000
0.23168000000000 -0.08618666666667 1.59573333333333 0.00000000000000 0.00000000000000 1.00000000000000
0.24580310880829 -0.08373056994819 1.55025906735751 0.00000000000000 0.00000000000000 1.00000000000000
0.25979797979798 -0.08161616161616 1.51111111111111 0.00000000000000 0.00000000000000 1.00000000000000
-0.37802197802198 -0.11780219780220 2.19194139194139 0.00000000000000 0.00000000000000 -1.00000000000000
-0.34871794871795 -0.11780219780220 2.19194139194139 0.00000000000000 0.00000000000000 -1.00000000000000
-0.31941391941392 -0.11780219780220 2.19194139194139 -0.00000000000000 -0.00000000000000 -1.00000000000000
-0.29117647058824 -0.11823529411765 2.20000000000000 0.00000000000000 0.00000000000000 1.00000000000000
-0.26176470588235 -0.11823529411765 2.20000000000000 0.00000000000000 0.00000000000000 1.00000000000000
-0.17604456824513 -0.08958217270195 1.66685236768802 -0.18009152810713 -0.24012203747618 -0.95389121424947
-0.15081967213115 -0.08786885245902 1.63497267759563 0.00000000000000 0.00000000000000 -1.00000000000000
-0.17481481481481 -0.11911111111111 2.21629629629630 -0.00000000000000 -0.00000000000000 1.00000000000000
-0.12211838006231 -0.10018691588785 1.86417445482866 -0.89251764099349 0.41193121892007 -0.18364348993210
-0.08571428571429 -0.08835164835165 1.64395604395604 0.00000000000000 0.00000000000000 1.00000000000000
-0.07837837837838 -0.10864864864865 2.02162162162162 -0.44673487516990 -0.49444442494533 0.74562233198008
-0.05259515570934 -0.11128027681661 2.07058823529412 0.00000000000000 -0.00000000000000 -1.00000000000000
-0.02400000000000 -0.10720000000000 1.99466666666667 -0.00000000000000 -0.00000000000000 1.00000000000000
0.00264026402640 -0.10613861386139 1.97491749174917 0.00000000000000 0.00000000000000 1.00000000000000
0.02885245901639 -0.10544262295082 1.96196721311475 -0.00000000000000 -0.00000000000000 1.00000000000000
0.05490196078431 -0.10509803921569 1.95555555555556 0.00000000000000 0.00000000000000 1.00000000000000
0.08157894736842 -0.10578947368421 1.96842105263158 0.00000000000000 0.00000000000000 -1.00000000000000
0.10860927152318 -0.10649006622517 1.98145695364238 0.00000000000000 0.00000000000000 -1.00000000000000
0.13877551020408 -0.10938775510204 2.03537414965986 -0.00000000000000 0.00000000000000 1.00000000000000
0.16212624584718 -0.10684385382060 1.98803986710963 0.00000000000000 0.00000000000000 -1.00000000000000
0.18745874587459 -0.10613861386139 1.97491749174917 0.00000000000000 0.00000000000000 -1.00000000000000
0.20970873786408 -0.10407766990291 1.93656957928803 0.00000000000000 0.00000000000000 -1.00000000000000
0.23868852459016 -0.10544262295082 1.96196721311475 0.00000000000000 -0.00000000000000 -1.00000000000000
0.26319218241042 -0.10475570032573 1.94918566775244 nan nan nan
0.23492063492063 -0.08507936507937 1.58306878306878 0.00000000000000 0.00000000000000 -1.00000000000000
0.24948453608247 -0.08288659793814 1.54226804123711 0.00000000000000 0.00000000000000 1.00000000000000
0.26331658291457 -0.08080402010050 1.50351758793970 -0.88666503016298 -0.44333251508152 0.13145875915118
-0.37098901098901 -0.11721611721612 2.19194139194139 -0.00000000000000 -0.00000000000000 -1.00000000000000
-0.34168498168498 -0.11721611721612 2.19194139194139 -0.00000000000000 -0.00000000000000 -1.00000000000000
-0.31352941176471 -0.11764705882353 2.20000000000000 0.00000000000000 0.00000000000000 1.00000000000000
-0.28411764705882 -0.11764705882353 2.20000000000000 0.00000000000000 0.00000000000000 -1.00000000000000
-0.25470588235294 -0.11764705882353 2.20000000000000 0.00000000000000 0.00000000000000 -1.00000000000000
-0.16743169398907 -0.08743169398907 1.63497267759563 0.00000000000000 0.00000000000000 1.00000000000000
-0.14557377049180 -0.08743169398907 1.63497267759563 0.00000000000000 0.00000000000000 -1.00000000000000
-0.16770370370370 -0.11851851851852 2.21629629629630 0.00000000000000 0.00000000000000 1.00000000000000
-0.10560906515581 -0.09065155807365 1.69518413597734 0.87209303594809 -0.44783155900037 0.19723242992507
-0.08043956043956 -0.08791208791209 1.64395604395604 0.00000000000000 0.00000000000000 1.00000000000000
-0.07881481481481 -0.11851851851852 2.21629629629630 0.00000000000000 0.00000000000000 1.00000000000000
-0.04579310344828 -0.11034482758621 2.06344827586207 nan nan nan
-0.01754152823920 -0.10631229235880 1.98803986710963 0.00000000000000 0.00000000000000 -1.00000000000000
0.00894736842105 -0.10526315789474 1.96842105263158 nan nan nan
0.03514754098361 -0.10491803278689 1.96196721311475 -0.00000000000000 -0.00000000000000 1.00000000000000
0.06117647058824 -0.10457516339869 1.95555555555556 0.00000000000000 0.00000000000000 1.00000000000000
0.08789473684211 -0.10526315789474 1.96842105263158 -0.00000000000000 -0.00000000000000 -1.00000000000000
0.11534883720930 -0.10631229235880 1.98803986710963 -0.00000000000000 -0.00000000000000 -1.00000000000000
0.14432432432432 -0.10810810810811 2.02162162162162 -0.89371470628033 -0.44685735314017 0.03990651228578
0.16794701986755 -0.10596026490066 1.98145695364238 0.00000000000000 0.00000000000000 -1.00000000000000
0.19315789473684 -0.10526315789474 1.96842105263158 0.00000000000000 0.00000000000000 -1.00000000000000
0.21592233009709 -0.10355987055016 1.93656957928803 0.00000000000000 0.00000000000000 1.00000000000000
0.24418300653595 -0.10457516339869 1.95555555555556 0.00000000000000 0.00000000000000 1.00000000000000
0.26944625407166 -0.10423452768730 1.94918566775244 nan nan nan
0.23873684210526 -0.08421052631579 1.57473684210526 -0.88890061967563 -0.44445030983781 0.11099374047822
0.25248081841432 -0.08184143222506 1.53043478260870 -0.88766794799246 -0.44383397399624 0.12270703986955
0.26680000000000 -0.08000000000000 1.49600000000000 0.00000000000000 0.00000000000000 1.00000000000000
-0.36395604395604 -0.11663003663004 2.19194139194139 0.00000000000000 0.00000000000000 -1.00000000000000
-0.33465201465201 -0.11663003663004 2.19194139194139 nan nan nan
-0.30647058823529 -0.11705882352941 2.20000000000000 -0.00000000000000 -0.00000000000000 -1.00000000000000
-0.27705882352941 -0.11705882352941 2.20000000000000 -0.00000000000000 -0.00000000000000 -1.00000000000000
-0.24856088560886 -0.11749077490775 2.20811808118081 -0.00000000000000 -0.00000000000000 -1.00000000000000
-0.16218579234973 -0.08699453551913 1.63497267759563 0.00000000000000 0.00000000000000 1.00000000000000
-0.14032786885246 -0.08699453551913 1.63497267759563 -0.00000000000000 -0.00000000000000 -1.00000000000000
-0.11380577427822 -0.08356955380577 1.57060367454068 0.00000000000000 0.00000000000000 1.00000000000000
-0.09714285714286 -0.08747252747253 1.64395604395604 0.00000000000000 0.00000000000000 1.00000000000000
-0.07516483516484 -0.08747252747253 1.64395604395604 0.00000000000000 0.00000000000000 -1.00000000000000
-0.07170370370370 -0.11792592592593 2.21629629629630 nan nan nan
-0.03837837837838 -0.10756756756757 2.02162162162162 -0.89368456627223 -0.44684228313612 -0.04074150228594
-0.01112582781457 -0.10543046357616 1.98145695364238 0.00000000000000 0.00000000000000 1.00000000000000
0.01521311475410 -0.10439344262295 1.96196721311475 -0.00000000000000 0.00000000000000 1.00000000000000
0.04130718954248 -0.10405228758170 1.95555555555556 -0.00000000000000 -0.00000000000000 1.00000000000000
0.06767213114754 -0.10439344262295 1.96196721311475 0.00000000000000 0.00000000000000 -1.00000000000000
0.09452145214521 -0.10508250825083 1.97491749174917 nan nan nan
0.12213333333333 -0.10613333333333 1.99466666666667 0.00000000000000 -0.00000000000000 -1.00000000000000
0.14979865771812 -0.10684563758389 2.00805369127517 0.00000000000000 0.00000000000000 1.00000000000000
0.17430463576159 -0.10543046357616 1.98145695364238 0.00000000000000 0.00000000000000 -1.00000000000000
0.19947368421053 -0.10473684210526 1.96842105263158 0.00000000000000 0.00000000000000 1.00000000000000
0.22504918032787 -0.10439344262295 1.96196721311475 0.00000000000000 0.00000000000000 1.00000000000000
0.25045751633987 -0.10405228758170 1.95555555555556 -0.00000000000000 -0.00000000000000 -1.00000000000000
0.22752688172043 -0.08559139784946 1.60860215053763 -0.88974587341284 -0.44487293670642 0.10217803546278
0.24187989556136 -0.08313315926893 1.56240208877285 -0.88860372703373 -0.44430186351687 0.11392660083227
0.25608142493639 -0.08101781170483 1.52264631043257 -0.88734106846644 -0.44367053423320 0.12562756570934
-0.38622710622711 -0.11604395604396 2.19194139194139 0.00000000000000 0.00000000000000 -1.00000000000000
-0.35692307692308 -0.11604395604396 2.19194139194139 -0.00000000000000 -0.00000000000000 -1.00000000000000
-0.32761904761905 -0.11604395604396 2.19194139194139 0.00000000000000 0.00000000000000 1.00000000000000
-0.29941176470588 -0.11647058823529 2.20000000000000 nan nan nan
-0.27000000000000 -0.11647058823529 2.20000000000000 -0.00000000000000 -0.00000000000000 -1.00000000000000
-0.24147601476015 -0.11690036900369 2.20811808118081 -0.00000000000000 -0.00000000000000 1.00000000000000
-0.15693989071038 -0.08655737704918 1.63497267759563 0.00000000000000 0.00000000000000 -1.00000000000000
-0.14289017341040 -0.09156069364162 1.72947976878613 -0.22052099628419 -0.76179980534539 0.60912358907988
-0.10876640419948 -0.08314960629921 1.57060367454068 nan nan nan
-0.09186813186813 -0.08703296703297 1.64395604395604 -0.00000000000000 -0.00000000000000 1.00000000000000
-0.07166197183099 -0.08923943661972 1.68563380281690 0.00000000000000 0.00000000000000 1.00000000000000
-0.06055555555556 -0.11000000000000 2.07777777777778 -0.89332264605425 -0.44666132302712 -0.04968211507467
-0.03167785234899 -0.10630872483221 2.00805369127517 -0.89378935180779 -0.44689467590389 -0.03775901539723
-0.00475247524752 -0.10455445544554 1.97491749174917 -0.00000000000000 -0.00000000000000 1.00000000000000
0.02150819672131 -0.10386885245902 1.96196721311475 -0.00000000000000 -0.00000000000000 1.00000000000000
0.04758169934641 -0.10352941176471 1.95555555555556 -0.00000000000000 -0.00000000000000 1.00000000000000
0.07396721311475 -0.10386885245902 1.96196721311475 nan nan nan
0.10085808580858 -0.10455445544554 1.97491749174917 0.00000000000000 0.00000000000000 1.00000000000000
0.12896321070234 -0.10595317725753 2.00133779264214 nan nan nan
0.15520000000000 -0.10560000000000 1.99466666666667 0.00000000000000 0.00000000000000 1.00000000000000
0.18006600660066 -0.10455445544554 1.97491749174917 -0.00000000000000 -0.00000000000000 -1.00000000000000
0.20311688311688 -0.10285714285714 1.94285714285714 0.00000000000000 0.00000000000000 1.00000000000000
0.23058823529412 -0.10352941176471 1.95555555555556 0.00000000000000 0.00000000000000 -1.00000000000000
0.25589576547231 -0.10319218241042 1.94918566775244 0.00000000000000 0.00000000000000 -1.00000000000000
0.23082666666667 -0.08448000000000 1.59573333333333 -0.00000000000000 -0.00000000000000 -1.00000000000000
0.24561038961039 -0.08228571428571 1.55428571428571 -0.88829930170180 -0.44414965085091 0.11685648567843
0.25898989898990 -0.08000000000000 1.51111111111111 0.00000000000000 0.00000000000000 -1.00000000000000
-0.37919413919414 -0.11545787545788 2.19194139194139 -0.00000000000000 -0.00000000000000 -1.00000000000000
-0.34989010989011 -0.11545787545788 2.19194139194139 -0.00000000000000 -0.00000000000000 -1.00000000000000
-0.32058608058608 -0.11545787545788 2.19194139194139 0.00000000000000 0.00000000000000 -1.00000000000000
-0.29235294117647 -0.11588235294118 2.20000000000000 -0.00000000000000 -0.00000000000000 -1.00000000000000
-0.26294117647059 -0.11588235294118 2.20000000000000 -0.00000000000000 -0.00000000000000 -1.00000000000000
-0.23267399267399 -0.11545787545788 2.19194139194139 -0.73356761318232 -0.36678380659116 0.57214351006761
-0.15169398907104 -0.08612021857923 1.63497267759563 -0.00000000000000 -0.00000000000000 1.00000000000000
-0.17600000000000 -0.11674074074074 2.21629629629630 0.00000000000000 0.00000000000000 1.00000000000000
-0.11488372093023 -0.09162790697674 1.73953488372093 0.70152350605259 -0.62357644982452 -0.34498866891528
-0.08659340659341 -0.08659340659341 1.64395604395604 -0.00000000000000 -0.00000000000000 1.00000000000000
-0.08490974729242 -0.11379061371841 2.16028880866426 0.58759880391104 -0.19586626797037 -0.78508856233783
-0.05351724137931 -0.10868965517241 2.06344827586207 0.00000000000000 0.00000000000000 -1.00000000000000
-0.02506666666667 -0.10506666666667 1.99466666666667 0.00000000000000 0.00000000000000 1.00000000000000
0.00158415841584 -0.10402640264026 1.97491749174917 -0.00000000000000 -0.00000000000000 -1.00000000000000
0.02780327868852 -0.10334426229508 1.96196721311475 nan nan nan
0.05385620915033 -0.10300653594771 1.95555555555556 0.00000000000000 0.00000000000000 1.00000000000000
0.08026229508197 -0.10334426229508 1.96196721311475 0.00000000000000 0.00000000000000 -1.00000000000000
0.10754966887417 -0.10437086092715 1.98145695364238 0.00000000000000 0.00000000000000 -1.00000000000000
0.13722033898305 -0.10684745762712 2.02847457627119 0.00000000000000 0.00000000000000 -1.00000000000000
0.16106312292359 -0.10471760797342 1.98803986710963 -0.00000000000000 -0.00000000000000 -1.00000000000000
0.18640264026403 -0.10402640264026 1.97491749174917 0.00000000000000 0.00000000000000 1.00000000000000
0.20935064935065 -0.10233766233766 1.94285714285714 0.00000000000000 0.00000000000000 -1.00000000000000
0.23686274509804 -0.10300653594771 1.95555555555556 0.00000000000000 0.00000000000000 -1.00000000000000
0.26214983713355 -0.10267100977199 1.94918566775244 0.00000000000000 0.00000000000000 -1.00000000000000
0.23469496021220 -0.08360742705570 1.58726790450928 0.00000000000000 0.00000000000000 1.00000000000000
0.24865979381443 -0.08123711340206 1.54226804123711 0.00000000000000 0.00000000000000 -1.00000000000000
0.26251256281407 -0.07919597989950 1.50351758793970 -0.88666503016298 -0.44333251508152 0.13145875915120
-0.37216117216117 -0.11487179487179 2.19194139194139 0.00000000000000 0.00000000000000 1.00000000000000
-0.34285714285714 -0.11487179487179 2.19194139194139 0.00000000000000 0.00000000000000 -1.00000000000000
-0.31470588235294 -0.11529411764706 2.20000000000000 -0.00000000000000 -0.00000000000000 -1.00000000000000
-0.28529411764706 -0.11529411764706 2.20000000000000 -0.00000000000000 -0.00000000000000 -1.00000000000000
-0.25588235294118 -0.11529411764706 2.20000000000000 nan nan nan
-0.16969696969697 -0.08639118457300 1.64848484848485 0.65980756942303 -0.30452657050293 -0.68696254569649
-0.14644808743169 -0.08568306010929 1.63497267759563 -0.00000000000000 -0.00000000000000 -1.00000000000000
-0.16888888888889 -0.11614814814815 2.21629629629630 0.00000000000000 -0.00000000000000 -1.00000000000000
-0.11359516616314 -0.09474320241692 1.80785498489426 0.08761758963223 0.56259715448063 -0.82207517889627
-0.08131868131868 -0.08615384615385 1.64395604395604 0.00000000000000 0.00000000000000 -1.00000000000000
-0.08000000000000 -0.11614814814815 2.21629629629630 -0.00000000000000 -0.00000000000000 1.00000000000000
-0.04689655172414 -0.10813793103448 2.06344827586207 nan nan nan
-0.01860465116279 -0.10418604651163 1.98803986710963 0.00000000000000 0.00000000000000 1.00000000000000
0.00789473684211 -0.10315789473684 1.96842105263158 0.00000000000000 0.00000000000000 -1.00000000000000
0.03398692810458 -0.10248366013072 1.95555555555556 0.00000000000000 0.00000000000000 -1.00000000000000
0.06013071895425 -0.10248366013072 1.95555555555556 -0.00000000000000 -0.00000000000000 -1.00000000000000
0.08684210526316 -0.10315789473684 1.96842105263158 0.00000000000000 0.00000000000000 -1.00000000000000
0.11428571428571 -0.10418604651163 1.98803986710963 0.00000000000000 0.00000000000000 -1.00000000000000
0.14372881355932 -0.10630508474576 2.02847457627119 0.08018642902913 -0.96223714834961 0.26013420946803
0.16688741721854 -0.10384105960265 1.98145695364238 -0.00000000000000 -0.00000000000000 -1.00000000000000
0.19210526315789 -0.10315789473684 1.96842105263158 -0.00000000000000 -0.00000000000000 -1.00000000000000
0.21488673139159 -0.10148867313916 1.93656957928803 -0.00000000000000 -0.00000000000000 -1.00000000000000
0.24313725490196 -0.10248366013072 1.95555555555556 0.00000000000000 0.00000000000000 -1.00000000000000
0.26840390879479 -0.10214983713355 1.94918566775244 nan nan nan
0.23789473684211 -0.08252631578947 1.57473684210526 -0.88890061967563 -0.44445030983781 0.11099374047821
0.25230769230769 -0.08041025641026 1.53435897435897 -0.88766794799247 -0.44383397399624 0.12270703986955
0.26600000000000 -0.07840000000000 1.49600000000000 -0.00000000000000 -0.00000000000000 -1.00000000000000
-0.36512820512821 -0.11428571428571 2.19194139194139 -0.00000000000000 -0.00000000000000 -1.00000000000000
-0.33582417582418 -0.11428571428571 2.19194139194139 nan nan nan
-0.30764705882353 -0.11470588235294 2.20000000000000 0.00000000000000 0.00000000000000 -1.00000000000000
-0.27823529411765 -0.11470588235294 2.20000000000000 0.00000000000000 0.00000000000000 -1.00000000000000
-0.24974169741697 -0.11512915129151 2.20811808118081 -0.00000000000000 -0.00000000000000 1.00000000000000
-0.16306010928962 -0.08524590163934 1.63497267759563 -0.00000000000000 -0.00000000000000 -1.00000000000000
-0.14120218579235 -0.08524590163934 1.63497267759563 -0.00000000000000 -0.00000000000000 1.00000000000000
-0.11586206896552 -0.08275862068966 1.58726790450928 0.89093667094910 0.44546833547455 0.08825990283065
-0.09802197802198 -0.08571428571429 1.64395604395604 -0.00000000000000 -0.00000000000000 1.00000000000000
-0.07604395604396 -0.08571428571429 1.64395604395604 0.00000000000000 0.00000000000000 1.00000000000000
-0.07288888888889 -0.11555555555556 2.21629629629630 -0.00000000000000 -0.00000000000000 -1.00000000000000
-0.03959322033898 -0.10576271186441 2.02847457627119 0.71889463234834 0.69321982405018 -0.05134961659631
-0.01218543046358 -0.10331125827815 1.98145695364238 nan nan nan
0.01421052631579 -0.10263157894737 1.96842105263158 0.00000000000000 0.00000000000000 -1.00000000000000
0.04026143790850 -0.10196078431373 1.95555555555556 0.00000000000000 0.00000000000000 1.00000000000000
0.06662295081967 -0.10229508196721 1.96196721311475 0.00000000000000 0.00000000000000 1.00000000000000
0.09346534653465 -0.10297029702970 1.97491749174917 nan nan nan
0.12066445182724 -0.10365448504983 1.98803986710963 nan nan nan
0.14872483221477 -0.10469798657718 2.00805369127517 -0.00000000000000 -0.00000000000000 -1.00000000000000
0.17324503311258 -0.10331125827815 1.98145695364238 nan nan nan
0.19842105263158 -0.10263157894737 1.96842105263158 0.00000000000000 0.00000000000000 1.00000000000000
0.22326797385621 -0.10196078431373 1.95555555555556 0.00000000000000 0.00000000000000 -1.00000000000000
0.24941176470588 -0.10196078431373 1.95555555555556 0.00000000000000 0.00000000000000 -1.00000000000000
0.22789189189189 -0.08432432432432 1.61729729729730 -0.99912006097015 0.00000000000000 0.04194167100864
0.24167539267016 -0.08167539267016 1.56649214659686 -0.88860372703372 -0.44430186351688 0.11392660083228
0.25591836734694 -0.07959183673469 1.52653061224490 0.00000000000000 0.00000000000000 -1.00000000000000
-0.38739926739927 -0.11369963369963 2.19194139194139 -0.00000000000000 -0.00000000000000 -1.00000000000000
-0.35809523809524 -0.11369963369963 2.19194139194139 0.00000000000000 0.00000000000000 -1.00000000000000
-0.32879120879121 -0.11369963369963 2.19194139194139 -0.00000000000000 -0.00000000000000 1.00000000000000
-0.30058823529412 -0.11411764705882 2.20000000000000 -0.00000000000000 -0.00000000000000 -1.00000000000000
-0.27117647058824 -0.11411764705882 2.20000000000000 0.00000000000000 0.00000000000000 -1.00000000000000
-0.24265682656827 -0.11453874538745 2.20811808118081 0.00000000000000 0.00000000000000 1.00000000000000
-0.15781420765027 -0.08480874316940 1.63497267759563 0.00000000000000 0.00000000000000 -1.00000000000000
-0.13860724233983 -0.08646239554318 1.66685236768802 -0.70129555256484 0.49769361794924 0.51037790959775
-0.10960629921260 -0.08146981627297 1.57060367454068 nan nan nan
-0.09274725274725 -0.08527472527473 1.64395604395604 0.00000000000000 0.00000000000000 -1.00000000000000
-0.08256410256410 -0.09948717948718 1.91794871794872 -0.39998053877094 -0.91424123147643 -0.06464162183116
-0.06320284697509 -0.11046263345196 2.12953736654804 -0.07173761381998 -0.93258897965976 0.35373932461714
-0.03275167785235 -0.10416107382550 2.00805369127517 -0.00000000000000 0.00000000000000 1.00000000000000
-0.00580858085809 -0.10244224422442 1.97491749174917 0.00000000000000 0.00000000000000 1.00000000000000
0.02045901639344 -0.10177049180328 1.96196721311475 0.00000000000000 0.00000000000000 1.00000000000000
0.04653594771242 -0.10143790849673 1.95555555555556 0.00000000000000 0.00000000000000 1.00000000000000
0.07291803278689 -0.10177049180328 1.96196721311475 0.00000000000000 0.00000000000000 1.00000000000000
0.09980198019802 -0.10244224422442 1.97491749174917 0.00000000000000 0.00000000000000 1.00000000000000
0.12789297658863 -0.10381270903010 2.00133779264214 nan nan nan
0.15464882943144 -0.10381270903010 2.00133779264214 0.00000000000000 0.00000000000000 -1.00000000000000
0.17900990099010 -0.10244224422442 1.97491749174917 0.00000000000000 0.00000000000000 -1.00000000000000
0.20273615635179 -0.10110749185668 1.94918566775244 -0.89225427654405 -0.44612713827202 0.06966263335585
0.22954248366013 -0.10143790849673 1.95555555555556 0.00000000000000 0.00000000000000 -1.00000000000000
0.25485342019544 -0.10110749185668 1.94918566775244 -0.00000000000000 -0.00000000000000 1.00000000000000
0.22997333333333 -0.08277333333333 1.59573333333333 0.00000000000000 0.00000000000000 -1.00000000000000
0.24477922077922 -0.08062337662338 1.55428571428571 -0.88829930170180 -0.44414965085091 0.11685648567843
0.25883544303797 -0.07858227848101 1.51493670886076 -0.88700675394281 -0.44350337697140 0.12854482904732
-0.38036630036630 -0.11311355311355 2.19194139194139 nan nan nan
-0.35106227106227 -0.11311355311355 2.19194139194139 0.00000000000000 0.00000000000000 -1.00000000000000
-0.32175824175824 -0.11311355311355 2.19194139194139 -0.00000000000000 -0.00000000000000 -1.00000000000000
-0.29352941176471 -0.11352941176471 2.20000000000000 -0.00000000000000 -0.00000000000000 1.00000000000000
-0.26411764705882 -0.11352941176471 2.20000000000000 -0.00000000000000 -0.00000000000000 1.00000000000000
-0.23557195571956 -0.11394833948339 2.20811808118081 0.00000000000000 0.00000000000000 -1.00000000000000
-0.15256830601093 -0.08437158469945 1.63497267759563 -0.00000000000000 -0.00000000000000 -1.00000000000000
-0.17718518518519 -0.11437037037037 2.21629629629630 0.00000000000000 0.00000000000000 -1.00000000000000
-0.10855585831063 -0.08414168937330 1.63051771117166 -0.83376264579706 0.19617944606990 0.51609444427661
-0.08747252747253 -0.08483516483516 1.64395604395604 -0.00000000000000 -0.00000000000000 -1.00000000000000
-0.08829629629630 -0.11437037037037 2.21629629629630 0.00000000000000 0.00000000000000 -1.00000000000000
-0.05462068965517 -0.10648275862069 2.06344827586207 -0.00000000000000 0.00000000000000 1.00000000000000
-0.02622073578595 -0.10327759197324 2.00133779264214 0.00000000000000 0.00000000000000 1.00000000000000
0.00052805280528 -0.10191419141914 1.97491749174917 nan nan nan
0.02675409836066 -0.10124590163934 1.96196721311475 0.00000000000000 0.00000000000000 -1.00000000000000
0.05281045751634 -0.10091503267974 1.95555555555556 -0.00000000000000 -0.00000000000000 1.00000000000000
0.07921311475410 -0.10124590163934 1.96196721311475 0.00000000000000 0.00000000000000 -1.00000000000000
0.10649006622517 -0.10225165562914 1.98145695364238 -0.00000000000000 -0.00000000000000 -1.00000000000000
0.13613559322034 -0.10467796610169 2.02847457627119 0.89381726893607 0.44690863446803 -0.03692373477290
0.16000000000000 -0.10259136212625 1.98803986710963 0.00000000000000 0.00000000000000 1.00000000000000
0.18473684210526 -0.10157894736842 1.96842105263158 nan nan nan
0.20831168831169 -0.10025974025974 1.94285714285714 -0.00000000000000 -0.00000000000000 1.00000000000000
0.23581699346405 -0.10091503267974 1.95555555555556 0.00000000000000 0.00000000000000 -1.00000000000000
0.26110749185668 -0.10058631921824 1.94918566775244 -0.00000000000000 -0.00000000000000 -1.00000000000000
0.23384615384615 -0.08190981432361 1.58726790450928 0.00000000000000 0.00000000000000 1.00000000000000
0.24847545219638 -0.07979328165375 1.54625322997416 -0.88798736730158 -0.44399368365079 0.11978332267477
0.26236775818640 -0.07778337531486 1.50730478589421 0.00000000000000 0.00000000000000 -1.00000000000000
-0.37333333333333 -0.11252747252747 2.19194139194139 -0.00000000000000 -0.00000000000000 1.00000000000000
-0.34402930402930 -0.11252747252747 2.19194139194139 -0.00000000000000 -0.00000000000000 -1.00000000000000
-0.31588235294118 -0.11294117647059 2.20000000000000 0.00000000000000 0.00000000000000 -1.00000000000000
-0.28647058823529 -0.11294117647059 2.20000000000000 nan nan nan
-0.25705882352941 -0.11294117647059 2.20000000000000 nan nan nan
-0.20571428571429 -0.10205980066445 1.98803986710963 -0.77858939202487 -0.38929469601244 -0.49218715777936
-0.14732240437158 -0.08393442622951 1.63497267759563 0.00000000000000 0.00000000000000 -1.00000000000000
-0.17070631970260 -0.11420074349442 2.22453531598513 -0.89069866570807 -0.44534933285403 -0.09121325908187
-0.11739938080495 -0.09510835913313 1.85263157894737 0.84843516664831 -0.51550491138125 0.12005188185225
-0.08219780219780 -0.08439560439560 1.64395604395604 0.00000000000000 0.00000000000000 1.00000000000000
-0.08118518518519 -0.11377777777778 2.21629629629630 -0.00000000000000 -0.00000000000000 1.00000000000000
-0.04800000000000 -0.10593103448276 2.06344827586207 -0.00000000000000 -0.00000000000000 1.00000000000000
-0.01973333333333 -0.10240000000000 1.99466666666667 0.00000000000000 0.00000000000000 1.00000000000000
0.00684210526316 -0.10105263157895 1.96842105263158 -0.00000000000000 -0.00000000000000 -1.00000000000000
0.03304918032787 -0.10072131147541 1.96196721311475 0.00000000000000 0.00000000000000 -1.00000000000000
0.05908496732026 -0.10039215686275 1.95555555555556 0.00000000000000 0.00000000000000 -1.00000000000000
0.08578947368421 -0.10105263157895 1.96842105263158 -0.00000000000000 -0.00000000000000 -1.00000000000000
0.11284768211921 -0.10172185430464 1.98145695364238 0.00000000000000 0.00000000000000 -1.00000000000000
0.14312925170068 -0.10448979591837 2.03537414965986 0.72681355558086 -0.64605649384966 0.23313743195503
0.16582781456954 -0.10172185430464 1.98145695364238 0.00000000000000 0.00000000000000 -1.00000000000000
0.19105263157895 -0.10105263157895 1.96842105263158 0.00000000000000 0.00000000000000 -1.00000000000000
0.21385113268608 -0.09941747572816 1.93656957928803 0.00000000000000 0.00000000000000 1.00000000000000
0.24209150326797 -0.10039215686275 1.95555555555556 0.00000000000000 0.00000000000000 1.00000000000000
0.26736156351792 -0.10006514657980 1.94918566775244 -0.00000000000000 -0.00000000000000 1.00000000000000
0.23767810026385 -0.08105540897098 1.57889182058047 0.00000000000000 0.00000000000000 -1.00000000000000
0.25148717948718 -0.07876923076923 1.53435897435897 -0.88766794799247 -0.44383397399624 0.12270703986955
0.26520000000000 -0.07680000000000 1.49600000000000 0.00000000000000 0.00000000000000 -1.00000000000000
-0.36630036630037 -0.11194139194139 2.19194139194139 0.00000000000000 0.00000000000000 -1.00000000000000
-0.33699633699634 -0.11194139194139 2.19194139194139 0.00000000000000 0.00000000000000 -1.00000000000000
-0.30882352941176 -0.11235294117647 2.20000000000000 0.00000000000000 0.00000000000000 1.00000000000000
-0.28044280442804 -0.11276752767528 2.20811808118081 0.00000000000000 0.00000000000000 -1.00000000000000
-0.25092250922509 -0.11276752767528 2.20811808118081 nan nan nan
-0.16393442622951 -0.08349726775956 1.63497267759563 0.00000000000000 0.00000000000000 -1.00000000000000
-0.14207650273224 -0.08349726775956 1.63497267759563 0.00000000000000 0.00000000000000 1.00000000000000
-0.11764705882353 -0.08171122994652 1.60000000000000 -0.89093667094910 -0.44546833547455 -0.08825990283065
-0.09890109890110 -0.08395604395604 1.64395604395604 -0.00000000000000 -0.00000000000000 1.00000000000000
-0.08022922636103 -0.08756446991404 1.71461318051576 -0.55547725625886 -0.81942744185704 -0.14136366333240
-0.07407407407407 -0.11318518518519 2.21629629629630 0.00000000000000 0.00000000000000 -1.00000000000000
-0.04081632653061 -0.10394557823129 2.03537414965986 0.93866482144597 0.33606518298683 0.07725636390502
-0.01324503311258 -0.10119205298013 1.98145695364238 nan nan nan
0.01315789473684 -0.10052631578947 1.96842105263158 -0.00000000000000 -0.00000000000000 1.00000000000000
0.03921568627451 -0.09986928104575 1.95555555555556 -0.00000000000000 -0.00000000000000 1.00000000000000
0.06535947712418 -0.09986928104575 1.95555555555556 0.00000000000000 0.00000000000000 1.00000000000000
0.09210526315789 -0.10052631578947 1.96842105263158 0.00000000000000 0.00000000000000 -1.00000000000000
0.11960132890365 -0.10152823920266 1.98803986710963 nan nan nan
0.14765100671141 -0.10255033557047 2.00805369127517 0.00000000000000 0.00000000000000 -1.00000000000000
0.17218543046358 -0.10119205298013 1.98145695364238 nan nan nan
0.19736842105263 -0.10052631578947 1.96842105263158 -0.00000000000000 -0.00000000000000 -1.00000000000000
0.22149837133550 -0.09954397394137 1.94918566775244 -0.83972711304510 0.38756635986697 0.38032971526874
0.24755700325733 -0.09954397394137 1.94918566775244 0.00000000000000 0.00000000000000 1.00000000000000
0.23013698630137 -0.08372602739726 1.63945205479452 0.99029077998519 -0.00000000000000 -0.13901140628135
0.24083769633508 -0.08000000000000 1.56649214659686 -0.88860372703373 -0.44430186351688 0.11392660083228
0.25510204081633 -0.07795918367347 1.52653061224490 0.00000000000000 0.00000000000000 -1.00000000000000
-0.38857142857143 -0.11135531135531 2.19194139194139 0.00000000000000 0.00000000000000 -1.00000000000000
-0.35926739926740 -0.11135531135531 2.19194139194139 0.00000000000000 0.00000000000000 -1.00000000000000
-0.32996336996337 -0.11135531135531 2.19194139194139 -0.00000000000000 -0.00000000000000 -1.00000000000000
-0.30176470588235 -0.11176470588235 2.20000000000000 0.00000000000000 0.00000000000000 -1.00000000000000
-0.27235294117647 -0.11176470588235 2.20000000000000 -0.00000000000000 -0.00000000000000 1.00000000000000
-0.24116788321168 -0.11094890510949 2.18394160583942 -0.63475510982454 0.14935414348814 0.75814199881985
-0.15868852459016 -0.08306010928962 1.63497267759563 -0.00000000000000 -0.00000000000000 -1.00000000000000
-0.13683060109290 -0.08306010928962 1.63497267759563 0.00000000000000 0.00000000000000 1.00000000000000
-0.11015706806283 -0.07958115183246 1.56649214659686 0.89116696103059 0.44558348051530 0.08530421712538
-0.09362637362637 -0.08351648351648 1.64395604395604 0.00000000000000 0.00000000000000 1.00000000000000
-0.09281138790036 -0.10818505338078 2.12953736654804 0.07570829850709 0.98420788059219 -0.16000969132334
-0.07232000000000 -0.12160000000000 2.39360000000000 0.89193449479688 0.44596724739844 -0.07460610725195
-0.03393939393939 -0.10235690235690 2.01481481481481 0.23903905234351 -0.92627632783109 0.29132884504365
-0.00686468646865 -0.10033003300330 1.97491749174917 -0.00000000000000 -0.00000000000000 1.00000000000000
0.01940983606557 -0.09967213114754 1.96196721311475 0.00000000000000 0.00000000000000 1.00000000000000
0.04549019607843 -0.09934640522876 1.95555555555556 0.00000000000000 0.00000000000000 -1.00000000000000
0.07186885245902 -0.09967213114754 1.96196721311475 0.00000000000000 0.00000000000000 1.00000000000000
0.09874587458746 -0.10033003300330 1.97491749174917 -0.00000000000000 -0.00000000000000 1.00000000000000
0.12682274247492 -0.10167224080268 2.00133779264214 nan nan nan
0.15357859531773 -0.10167224080268 2.00133779264214 0.00000000000000 0.00000000000000 -1.00000000000000
0.17795379537954 -0.10033003300330 1.97491749174917 -0.00000000000000 -0.00000000000000 -1.00000000000000
0.20301639344262 -0.09967213114754 1.96196721311475 0.00000000000000 0.00000000000000 -1.00000000000000
0.22849673202614 -0.09934640522876 1.95555555555556 -0.00000000000000 -0.00000000000000 -1.00000000000000
0.25381107491857 -0.09902280130293 1.94918566775244 0.00000000000000 0.00000000000000 1.00000000000000
0.22973262032086 -0.08128342245989 1.60000000000000 -0.88947171512054 -0.44473585756027 0.10511938451424
0.24458333333333 -0.07916666666667 1.55833333333333 0.00000000000000 0.00000000000000 -1.00000000000000
0.25802531645570 -0.07696202531646 1.51493670886076 -0.88700675394281 -0.44350337697140 0.12854482904733
-0.38153846153846 -0.11076923076923 2.19194139194139 nan nan nan
-0.35223443223443 -0.11076923076923 2.19194139194139 -0.00000000000000 -0.00000000000000 -1.00000000000000
-0.32293040293040 -0.11076923076923 2.19194139194139 -0.00000000000000 -0.00000000000000 -1.00000000000000
-0.29470588235294 -0.11117647058824 2.20000000000000 0.00000000000000 0.00000000000000 1.00000000000000
-0.26529411764706 -0.11117647058824 2.20000000000000 0.00000000000000 0.00000000000000 1.00000000000000
-0.23675276752768 -0.11158671586716 2.20811808118081 0.00000000000000 -0.00000000000000 -1.00000000000000
-0.15344262295082 -0.08262295081967 1.63497267759563 -0.00000000000000 -0.00000000000000 -1.00000000000000
-0.18105263157895 -0.11368421052632 2.24962406015038 -0.19986868600135 -0.93272053467297 -0.30014148756122
-0.10540682414698 -0.07937007874016 1.57060367454068 -0.40461888059132 0.80923776118265 0.42593169328558
-0.08835164835165 -0.08307692307692 1.64395604395604 nan nan nan
-0.08948148148148 -0.11200000000000 2.21629629629630 -0.00000000000000 -0.00000000000000 1.00000000000000
-0.05553264604811 -0.10391752577320 2.05635738831615 0.00000000000000 0.00000000000000 -1.00000000000000
-0.02729096989967 -0.10113712374582 2.00133779264214 -0.00000000000000 0.00000000000000 1.00000000000000
-0.00052805280528 -0.09980198019802 1.97491749174917 -0.00000000000000 -0.00000000000000 1.00000000000000
0.02570491803279 -0.09914754098361 1.96196721311475 0.00000000000000 0.00000000000000 1.00000000000000
0.05176470588235 -0.09882352941176 1.95555555555556 0.00000000000000 0.00000000000000 1.00000000000000
0.07816393442623 -0.09914754098361 1.96196721311475 0.00000000000000 0.00000000000000 -1.00000000000000
0.10543046357616 -0.10013245033113 1.98145695364238 0.00000000000000 0.00000000000000 -1.00000000000000
0.13459459459459 -0.10216216216216 2.02162162162162 0.00000000000000 0.00000000000000 -1.00000000000000
0.15893687707641 -0.10046511627907 1.98803986710963 0.00000000000000 0.00000000000000 -1.00000000000000
0.18368421052632 -0.09947368421053 1.96842105263158 nan nan nan
0.20727272727273 -0.09818181818182 1.94285714285714 0.00000000000000 0.00000000000000 1.00000000000000
0.23477124183007 -0.09882352941176 1.95555555555556 0.00000000000000 0.00000000000000 -1.00000000000000
0.26006514657980 -0.09850162866450 1.94918566775244 -0.00000000000000 -0.00000000000000 -1.00000000000000
0.23299734748011 -0.08021220159151 1.58726790450928 0.00000000000000 0.00000000000000 -1.00000000000000
0.24764857881137 -0.07813953488372 1.54625322997416 -0.88798736730158 -0.44399368365079 0.11978332267477
0.26156171284635 -0.07617128463476 1.50730478589421 0.00000000000000 0.00000000000000 -1.00000000000000
-0.37450549450549 -0.11018315018315 2.19194139194139 0.00000000000000 0.00000000000000 1.00000000000000
-0.34520146520147 -0.11018315018315 2.19194139194139 0.00000000000000 0.00000000000000 -1.00000000000000
-0.31705882352941 -0.11058823529412 2.20000000000000 0.00000000000000 0.00000000000000 1.00000000000000
-0.28764705882353 -0.11058823529412 2.20000000000000 0.00000000000000 0.00000000000000 -1.00000000000000
-0.25918819188192 -0.11099630996310 2.20811808118081 0.00000000000000 0.00000000000000 1.00000000000000
-0.22966789667897 -0.11099630996310 2.20811808118081 0.00000000000000 0.00000000000000 -1.00000000000000
-0.14819672131148 -0.08218579234973 1.63497267759563 -0.00000000000000 -0.00000000000000 1.00000000000000
-0.17318352059925 -0.11265917602996 2.24119850187266 -0.19986868600135 -0.93272053467297 -0.30014148756121
-0.10622222222222 -0.08355555555556 1.66222222222222 0.50380406991745 -0.74244810303625 0.44153400031310
-0.08400000000000 -0.08355555555556 1.66222222222222 -0.65353741898488 -0.75672753777196 -0.01588318495056
-0.08237037037037 -0.11140740740741 2.21629629629630 0.00000000000000 0.00000000000000 1.00000000000000
-0.04910344827586 -0.10372413793103 2.06344827586207 0.00000000000000 0.00000000000000 1.00000000000000
-0.02080000000000 -0.10026666666667 1.99466666666667 0.00000000000000 -0.00000000000000 -1.00000000000000
0.00578947368421 -0.09894736842105 1.96842105263158 -0.00000000000000 -0.00000000000000 1.00000000000000
0.03200000000000 -0.09862295081967 1.96196721311475 0.00000000000000 0.00000000000000 1.00000000000000
0.05803921568627 -0.09830065359477 1.95555555555556 -0.00000000000000 -0.00000000000000 1.00000000000000
0.08473684210526 -0.09894736842105 1.96842105263158 -0.00000000000000 -0.00000000000000 1.00000000000000
0.11178807947020 -0.09960264900662 1.98145695364238 0.00000000000000 0.00000000000000 -1.00000000000000
0.14350515463918 -0.10336769759450 2.05635738831615 0.00000000000000 0.00000000000000 1.00000000000000
0.16476821192053 -0.09960264900662 1.98145695364238 -0.00000000000000 -0.00000000000000 -1.00000000000000
0.19000000000000 -0.09894736842105 1.96842105263158 -0.00000000000000 -0.00000000000000 1.00000000000000
0.21281553398058 -0.09734627831715 1.93656957928803 -0.00000000000000 -0.00000000000000 1.00000000000000
0.24026058631922 -0.09798045602606 1.94918566775244 0.00000000000000 0.00000000000000 -1.00000000000000
0.26631921824104 -0.09798045602606 1.94918566775244 0.00000000000000 0.00000000000000 1.00000000000000
0.23683377308707 -0.07936675461741 1.57889182058047 -0.00000000000000 -0.00000000000000 1.00000000000000
0.25131105398458 -0.07732647814910 1.53830334190231 -0.88766794799247 -0.44383397399623 0.12270703986954
0.26506265664160 -0.07538847117794 1.49974937343358 0.00000000000000 0.00000000000000 -1.00000000000000
-0.36747252747253 -0.10959706959707 2.19194139194139 0.00000000000000 0.00000000000000 -1.00000000000000
-0.33816849816850 -0.10959706959707 2.19194139194139 -0.00000000000000 -0.00000000000000 -1.00000000000000
-0.31000000000000 -0.11000000000000 2.20000000000000 -0.00000000000000 -0.00000000000000 -1.00000000000000
-0.28162361623616 -0.11040590405904 2.20811808118081 0.00000000000000 0.00000000000000 -1.00000000000000
-0.25210332103321 -0.11040590405904 2.20811808118081 0.00000000000000 0.00000000000000 1.00000000000000
-0.17899109792285 -0.08878338278932 1.77566765578635 -0.74829628911230 -0.55755409776995 0.35942466771313
-0.14295081967213 -0.08174863387978 1.63497267759563 nan nan nan
-0.11787234042553 -0.07957446808511 1.59148936170213 -0.89093667094910 -0.44546833547455 -0.08825990283065
-0.09978021978022 -0.08219780219780 1.64395604395604 0.00000000000000 0.00000000000000 1.00000000000000
-0.09135483870968 -0.09651612903226 1.93032258064516 0.39998053877094 0.91424123147643 0.06464162183116
-0.07525925925926 -0.11081481481481 2.21629629629630 0.00000000000000 0.00000000000000 1.00000000000000
-0.04204778156997 -0.10211604095563 2.04232081911263 0.51937770284761 0.84398876712736 -0.13390206401540
-0.01435215946844 -0.09940199335548 1.98803986710963 0.00000000000000 0.00000000000000 -1.00000000000000
0.01210526315789 -0.09842105263158 1.96842105263158 0.00000000000000 0.00000000000000 1.00000000000000
0.03816993464052 -0.09777777777778 1.95555555555556 0.00000000000000 0.00000000000000 1.00000000000000
0.06431372549020 -0.09777777777778 1.95555555555556 0.00000000000000 0.00000000000000 1.00000000000000
0.09105263157895 -0.09842105263158 1.96842105263158 0.00000000000000 0.00000000000000 -1.00000000000000
0.11853820598007 -0.09940199335548 1.98803986710963 nan nan nan
0.14707070707071 -0.10074074074074 2.01481481481481 0.00000000000000 0.00000000000000 -1.00000000000000
0.17056105610561 -0.09874587458746 1.97491749174917 0.00000000000000 0.00000000000000 -1.00000000000000
0.19631578947368 -0.09842105263158 1.96842105263158 0.00000000000000 0.00000000000000 -1.00000000000000
0.21902912621359 -0.09682847896440 1.93656957928803 0.00000000000000 0.00000000000000 1.00000000000000
0.24651465798046 -0.09745928338762 1.94918566775244 -0.00000000000000 -0.00000000000000 -1.00000000000000
0.23908571428571 -0.08548571428571 1.70971428571429 0.99036355028320 -0.00000000000000 -0.13849201518666
0.24062992125984 -0.07853018372703 1.57060367454068 -0.88860372703374 -0.44430186351686 0.11392660083227
0.25428571428571 -0.07632653061224 1.52653061224490 -0.00000000000000 -0.00000000000000 -1.00000000000000
-0.38974358974359 -0.10901098901099 2.19194139194139 -0.00000000000000 -0.00000000000000 -1.00000000000000
-0.36043956043956 -0.10901098901099 2.19194139194139 -0.00000000000000 -0.00000000000000 -1.00000000000000
-0.33113553113553 -0.10901098901099 2.19194139194139 0.00000000000000 0.00000000000000 -1.00000000000000
-0.30294117647059 -0.10941176470588 2.20000000000000 -0.00000000000000 -0.00000000000000 -1.00000000000000
-0.27352941176471 -0.10941176470588 2.20000000000000 0.00000000000000 0.00000000000000 1.00000000000000
-0.18495821727019 -0.08289693593315 1.66685236768802 -0.59339590562288 -0.79119454083051 0.14796113594453
