ply
            format ascii 1.0
            element vertex 29532
            property float x
            property float y
            property float z
            property float nx
            property float ny
            property float nz
end_header
-0.30705882352941 -0.08294117647059 2.20000000000000 nan nan nan
-0.27764705882353 -0.08294117647059 2.20000000000000 -0.00000000000000 -0.00000000000000 -1.00000000000000
-0.24823529411765 -0.08294117647059 2.20000000000000 nan nan nan
-0.16306849315068 -0.06180821917808 1.63945205479452 -0.88946059055854 -0.44473029527928 -0.10523698163693
-0.16947368421053 -0.07421052631579 1.96842105263158 -0.67846759896605 0.40929295372409 -0.61004999400464
-0.11362924281984 -0.05890339425587 1.56240208877285 -0.00000000000000 -0.00000000000000 1.00000000000000
-0.09372031662269 -0.05952506596306 1.57889182058047 -0.00000000000000 -0.00000000000000 -1.00000000000000
-0.10192592592593 -0.08355555555556 2.21629629629630 0.00000000000000 0.00000000000000 1.00000000000000
-0.07229629629630 -0.08355555555556 2.21629629629630 nan nan nan
-0.03931740614334 -0.07699658703072 2.04232081911263 -0.89390825545061 -0.44695412772531 -0.03405933861008
-0.01173333333333 -0.07520000000000 1.99466666666667 -0.00000000000000 -0.00000000000000 1.00000000000000
0.01488372093023 -0.07495016611296 1.98803986710963 0.00000000000000 0.00000000000000 1.00000000000000
0.04091803278689 -0.07396721311475 1.96196721311475 0.00000000000000 0.00000000000000 -1.00000000000000
0.06759075907591 -0.07445544554455 1.97491749174917 0.20311787932380 0.94788343684441 -0.24547936217742
0.09461794019934 -0.07495016611296 1.98803986710963 0.00000000000000 0.00000000000000 1.00000000000000
0.12324324324324 -0.07621621621622 2.02162162162162 -0.00000000000000 -0.00000000000000 -1.00000000000000
0.14876254180602 -0.07545150501672 2.00133779264214 -0.89332794021012 -0.44666397010506 0.04956298064000
0.17263157894737 -0.07421052631579 1.96842105263158 -0.00000000000000 -0.00000000000000 1.00000000000000
0.19764705882353 -0.07372549019608 1.95555555555556 -0.00000000000000 -0.00000000000000 1.00000000000000
0.22090322580645 -0.07277419354839 1.93032258064516 -0.00000000000000 -0.00000000000000 -1.00000000000000
0.24831168831169 -0.07324675324675 1.94285714285714 0.00000000000000 0.00000000000000 1.00000000000000
0.22648793565684 -0.06048257372654 1.60428954423592 0.00000000000000 0.00000000000000 -1.00000000000000
0.24146214099217 -0.05890339425587 1.56240208877285 0.00000000000000 0.00000000000000 -1.00000000000000
0.25567430025445 -0.05740458015267 1.52264631043257 -0.88658191686508 -0.44329095843252 0.13215759857012
-0.38540145985401 -0.08175182481752 2.18394160583942 -0.00000000000000 -0.00000000000000 1.00000000000000
-0.35750915750916 -0.08205128205128 2.19194139194139 -0.00000000000000 -0.00000000000000 1.00000000000000
-0.32820512820513 -0.08205128205128 2.19194139194139 0.00000000000000 0.00000000000000 1.00000000000000
-0.30000000000000 -0.08235294117647 2.20000000000000 -0.00000000000000 -0.00000000000000 -1.00000000000000
-0.27058823529412 -0.08235294117647 2.20000000000000 0.00000000000000 0.00000000000000 1.00000000000000
-0.24117647058824 -0.08235294117647 2.20000000000000 0.00000000000000 0.00000000000000 -1.00000000000000
-0.15867768595041 -0.06170798898072 1.64848484848485 0.31502377924456 0.94507133773368 -0.08717904051286
-0.16000000000000 -0.07225806451613 1.93032258064516 0.98938732488893 -0.01252389018847 -0.14476143659023
-0.10861618798956 -0.05848563968668 1.56240208877285 0.00000000000000 0.00000000000000 1.00000000000000
-0.10734824281150 -0.07156549520767 1.91182108626198 -0.78076206964665 0.53943561175587 -0.31530907276933
-0.09481481481481 -0.08296296296296 2.21629629629630 0.00000000000000 0.00000000000000 -1.00000000000000
-0.06132404181185 -0.07804878048780 2.08501742160279 0.00000000000000 0.00000000000000 -1.00000000000000
-0.03254237288136 -0.07593220338983 2.02847457627119 -0.89399524068767 -0.44699762034384 -0.03107470087952
-0.00533333333333 -0.07466666666667 1.99466666666667 -0.00000000000000 -0.00000000000000 -1.00000000000000
0.02119205298013 -0.07417218543046 1.98145695364238 -0.00000000000000 0.00000000000000 1.00000000000000
0.04721311475410 -0.07344262295082 1.96196721311475 0.00000000000000 0.00000000000000 -1.00000000000000
0.07417218543046 -0.07417218543046 1.98145695364238 0.00000000000000 0.00000000000000 -1.00000000000000
0.10133333333333 -0.07466666666667 1.99466666666667 0.00000000000000 0.00000000000000 -1.00000000000000
0.13105802047782 -0.07645051194539 2.04232081911263 -0.00000000000000 -0.00000000000000 1.00000000000000
0.15415282392027 -0.07441860465116 1.98803986710963 nan nan nan
0.17894736842105 -0.07368421052632 1.96842105263158 -0.00000000000000 -0.00000000000000 1.00000000000000
0.20392156862745 -0.07320261437908 1.95555555555556 -0.00000000000000 -0.00000000000000 -1.00000000000000
0.22783171521036 -0.07249190938511 1.93656957928803 -0.83978778010095 0.38759436004659 0.38016719539329
0.25454545454545 -0.07272727272727 1.94285714285714 0.00000000000000 0.00000000000000 -1.00000000000000
0.23040000000000 -0.05973333333333 1.59573333333333 -0.88883005366678 -0.44441502683339 0.11169789444476
0.24519480519481 -0.05818181818182 1.55428571428571 -0.88759017633604 -0.44379508816803 0.12340825981144
0.25858585858586 -0.05656565656566 1.51111111111111 -0.88623104213177 -0.44311552106588 0.13506729786501
-0.37839416058394 -0.08116788321168 2.18394160583942 0.00000000000000 0.00000000000000 -1.00000000000000
-0.35047619047619 -0.08146520146520 2.19194139194139 0.00000000000000 0.00000000000000 1.00000000000000
-0.32117216117216 -0.08146520146520 2.19194139194139 0.00000000000000 0.00000000000000 -1.00000000000000
-0.29294117647059 -0.08176470588235 2.20000000000000 0.00000000000000 0.00000000000000 -1.00000000000000
-0.26352941176471 -0.08176470588235 2.20000000000000 0.00000000000000 0.00000000000000 1.00000000000000
-0.23411764705882 -0.08176470588235 2.20000000000000 0.00000000000000 0.00000000000000 1.00000000000000
-0.18874576271186 -0.07538983050847 2.02847457627119 0.82137009670882 -0.50615795627444 0.26297392937823
-0.12514435695538 -0.05837270341207 1.57060367454068 -0.89099264488511 -0.44549632244256 -0.08755074785970
-0.10387434554974 -0.05821989528796 1.56649214659686 0.00000000000000 0.00000000000000 1.00000000000000
-0.11562043795620 -0.08116788321168 2.18394160583942 -0.99644291004194 -0.04442739089359 -0.07160819761409
-0.08770370370370 -0.08237037037037 2.21629629629630 0.00000000000000 0.00000000000000 1.00000000000000
-0.05444444444444 -0.07722222222222 2.07777777777778 -0.89371043865260 -0.44685521932630 -0.04002580173110
-0.02585858585859 -0.07488215488215 2.01481481481481 0.00000000000000 0.00000000000000 -1.00000000000000
0.00106312292359 -0.07388704318937 1.98803986710963 0.00000000000000 0.00000000000000 1.00000000000000
0.02745874587459 -0.07339933993399 1.97491749174917 -0.00000000000000 0.00000000000000 -1.00000000000000
0.05350819672131 -0.07291803278689 1.96196721311475 -0.00000000000000 -0.00000000000000 1.00000000000000
0.08052980132450 -0.07364238410596 1.98145695364238 -0.00000000000000 -0.00000000000000 -1.00000000000000
0.10809364548495 -0.07438127090301 2.00133779264214 0.00000000000000 0.00000000000000 -1.00000000000000
0.13903448275862 -0.07668965517241 2.06344827586207 0.00000000000000 0.00000000000000 1.00000000000000
0.16000000000000 -0.07364238410596 1.98145695364238 -0.00000000000000 -0.00000000000000 -1.00000000000000
0.18465573770492 -0.07291803278689 1.96196721311475 -0.00000000000000 -0.00000000000000 1.00000000000000
0.20951140065147 -0.07244299674267 1.94918566775244 0.00000000000000 0.00000000000000 1.00000000000000
0.23557003257329 -0.07244299674267 1.94918566775244 0.00000000000000 0.00000000000000 1.00000000000000
0.26077922077922 -0.07220779220779 1.94285714285714 0.00000000000000 0.00000000000000 -1.00000000000000
0.23427055702918 -0.05899204244032 1.58726790450928 0.00000000000000 0.00000000000000 -1.00000000000000
0.24824742268041 -0.05731958762887 1.54226804123711 -0.88726151009081 -0.44363075504541 0.12632800912390
0.26211055276382 -0.05587939698492 1.50351758793970 -0.88587281766981 -0.44293640883490 0.13797350703012
-0.37138686131387 -0.08058394160584 2.18394160583942 0.00000000000000 0.00000000000000 -1.00000000000000
-0.34344322344322 -0.08087912087912 2.19194139194139 0.00000000000000 0.00000000000000 -1.00000000000000
-0.31529411764706 -0.08117647058824 2.20000000000000 0.00000000000000 0.00000000000000 1.00000000000000
-0.28588235294118 -0.08117647058824 2.20000000000000 -0.00000000000000 -0.00000000000000 -1.00000000000000
-0.25647058823529 -0.08117647058824 2.20000000000000 0.00000000000000 0.00000000000000 -1.00000000000000
-0.17545454545455 -0.06272727272727 1.70000000000000 -0.66175960317621 -0.09598040046068 0.74354689854203
-0.19911111111111 -0.08177777777778 2.21629629629630 0.00000000000000 0.00000000000000 1.00000000000000
-0.11979057591623 -0.05780104712042 1.56649214659686 -0.89122108060541 -0.44561054030270 -0.08459451433554
-0.09910761154856 -0.05795275590551 1.57060367454068 0.00000000000000 0.00000000000000 -1.00000000000000
-0.11402298850575 -0.08459770114943 2.29272030651341 -0.54245041539720 -0.82785115659921 -0.14286360401711
-0.08059259259259 -0.08177777777778 2.21629629629630 -0.00000000000000 -0.00000000000000 1.00000000000000
-0.04728522336770 -0.07587628865979 2.05635738831615 -0.00000000000000 0.00000000000000 1.00000000000000
-0.01926421404682 -0.07384615384615 2.00133779264214 -0.00000000000000 -0.00000000000000 1.00000000000000
0.00744186046512 -0.07335548172757 1.98803986710963 -0.00000000000000 -0.00000000000000 1.00000000000000
0.03368421052632 -0.07263157894737 1.96842105263158 0.00000000000000 0.00000000000000 -1.00000000000000
0.06000000000000 -0.07263157894737 1.96842105263158 -0.89437540062130 -0.44718770031064 0.01076120134437
0.08717607973422 -0.07335548172757 1.98803986710963 0.00000000000000 0.00000000000000 -1.00000000000000
0.11489932885906 -0.07409395973154 2.00805369127517 nan nan nan
0.14565517241379 -0.07613793103448 2.06344827586207 0.00000000000000 0.00000000000000 1.00000000000000
0.16580858085809 -0.07287128712871 1.97491749174917 -0.00000000000000 -0.00000000000000 -1.00000000000000
0.19095081967213 -0.07239344262295 1.96196721311475 0.00000000000000 0.00000000000000 -1.00000000000000
0.21436893203883 -0.07145631067961 1.93656957928803 -0.89139825896887 -0.44569912948445 0.08222791426317
0.24103896103896 -0.07168831168831 1.94285714285714 0.00000000000000 0.00000000000000 -1.00000000000000
0.26701298701299 -0.07168831168831 1.94285714285714 0.00000000000000 0.00000000000000 -1.00000000000000
0.23747368421053 -0.05810526315789 1.57473684210526 -0.00000000000000 -0.00000000000000 1.00000000000000
0.25189743589744 -0.05661538461538 1.53435897435897 0.00000000000000 0.00000000000000 1.00000000000000
0.26560000000000 -0.05520000000000 1.49600000000000 nan nan nan
-0.36571428571429 -0.08029304029304 2.19194139194139 0.00000000000000 0.00000000000000 -1.00000000000000
-0.33641025641026 -0.08029304029304 2.19194139194139 0.00000000000000 0.00000000000000 -1.00000000000000
-0.30823529411765 -0.08058823529412 2.20000000000000 nan nan nan
-0.27882352941176 -0.08058823529412 2.20000000000000 0.00000000000000 0.00000000000000 -1.00000000000000
-0.24941176470588 -0.08058823529412 2.20000000000000 -0.00000000000000 -0.00000000000000 -1.00000000000000
-0.16622222222222 -0.06088888888889 1.66222222222222 -0.08259120141783 0.99109441701397 -0.10445357826373
-0.19200000000000 -0.08118518518519 2.21629629629630 -0.00000000000000 0.00000000000000 -1.00000000000000
-0.11446475195822 -0.05723237597911 1.56240208877285 0.00000000000000 0.00000000000000 1.00000000000000
-0.09456464379947 -0.05783641160950 1.57889182058047 0.00000000000000 0.00000000000000 -1.00000000000000
-0.10426966292135 -0.08209737827715 2.24119850187266 -0.08286426907645 0.99437122891743 -0.06602554060102
-0.07348148148148 -0.08118518518519 2.21629629629630 nan nan nan
-0.04054794520548 -0.07506849315068 2.04931506849315 0.00000000000000 0.00000000000000 1.00000000000000
-0.01280000000000 -0.07306666666667 1.99466666666667 nan nan nan
0.01382059800664 -0.07282392026578 1.98803986710963 0.00000000000000 -0.00000000000000 -1.00000000000000
0.03986885245902 -0.07186885245902 1.96196721311475 -0.00000000000000 -0.00000000000000 -1.00000000000000
0.06675496688742 -0.07258278145695 1.98145695364238 0.00000000000000 0.00000000000000 -1.00000000000000
0.09355481727575 -0.07282392026578 1.98803986710963 -0.00000000000000 -0.00000000000000 -1.00000000000000
0.12216216216216 -0.07405405405405 2.02162162162162 0.00000000000000 0.00000000000000 1.00000000000000
0.14818791946309 -0.07355704697987 2.00805369127517 -0.89332794021012 -0.44666397010507 0.04956298064000
0.17157894736842 -0.07210526315789 1.96842105263158 0.00000000000000 0.00000000000000 1.00000000000000
0.19660130718954 -0.07163398692810 1.95555555555556 -0.00000000000000 -0.00000000000000 -1.00000000000000
0.21987096774194 -0.07070967741935 1.93032258064516 -0.00000000000000 -0.00000000000000 1.00000000000000
0.24727272727273 -0.07116883116883 1.94285714285714 0.00000000000000 0.00000000000000 -1.00000000000000
0.22684636118598 -0.05908355795148 1.61293800539084 0.56977558377475 0.80718207701423 -0.15431422060566
0.24062663185379 -0.05723237597911 1.56240208877285 0.00000000000000 0.00000000000000 1.00000000000000
0.25486005089059 -0.05577608142494 1.52264631043257 -0.88658191686508 -0.44329095843252 0.13215759857011
-0.38656934306569 -0.07941605839416 2.18394160583942 0.00000000000000 0.00000000000000 1.00000000000000
-0.35868131868132 -0.07970695970696 2.19194139194139 0.00000000000000 0.00000000000000 1.00000000000000
-0.32937728937729 -0.07970695970696 2.19194139194139 0.00000000000000 0.00000000000000 1.00000000000000
-0.30117647058824 -0.08000000000000 2.20000000000000 -0.00000000000000 -0.00000000000000 1.00000000000000
-0.27176470588235 -0.08000000000000 2.20000000000000 -0.00000000000000 -0.00000000000000 1.00000000000000
-0.24235294117647 -0.08000000000000 2.20000000000000 0.00000000000000 0.00000000000000 1.00000000000000
-0.19972413793103 -0.07503448275862 2.06344827586207 -0.82137009670882 0.50615795627444 -0.26297392937823
-0.18420664206642 -0.08029520295203 2.20811808118081 0.08300983121532 -0.99611797458383 -0.02929758748776
-0.10973821989529 -0.05696335078534 1.56649214659686 nan nan nan
-0.09217391304348 -0.05913043478261 1.62608695652174 0.69624284797375 -0.61888253153222 -0.36363485642836
-0.09600000000000 -0.08059259259259 2.21629629629630 -0.00000000000000 -0.00000000000000 -1.00000000000000
-0.06243902439024 -0.07581881533101 2.08501742160279 -0.00000000000000 0.00000000000000 1.00000000000000
-0.03374149659864 -0.07401360544218 2.03537414965986 -0.89399524068767 -0.44699762034383 -0.03107470087952
-0.00640000000000 -0.07253333333333 1.99466666666667 0.00000000000000 0.00000000000000 1.00000000000000
0.02019933554817 -0.07229235880399 1.98803986710963 0.00000000000000 0.00000000000000 -1.00000000000000
0.04616393442623 -0.07134426229508 1.96196721311475 -0.00000000000000 -0.00000000000000 1.00000000000000
0.07311258278146 -0.07205298013245 1.98145695364238 0.00000000000000 0.00000000000000 -1.00000000000000
0.09993355481728 -0.07229235880399 1.98803986710963 0.00000000000000 0.00000000000000 1.00000000000000
0.12996587030717 -0.07426621160410 2.04232081911263 0.00000000000000 0.00000000000000 1.00000000000000
0.15308970099668 -0.07229235880399 1.98803986710963 nan nan nan
0.17731147540984 -0.07134426229508 1.96196721311475 0.00000000000000 0.00000000000000 -1.00000000000000
0.20287581699346 -0.07111111111111 1.95555555555556 0.00000000000000 0.00000000000000 -1.00000000000000
0.22606451612903 -0.07019354838710 1.93032258064516 0.00000000000000 0.00000000000000 -1.00000000000000
0.25350649350649 -0.07064935064935 1.94285714285714 -0.00000000000000 -0.00000000000000 -1.00000000000000
0.23016042780749 -0.05818181818182 1.60000000000000 0.00000000000000 0.00000000000000 -1.00000000000000
0.24436363636364 -0.05651948051948 1.55428571428571 -0.88759017633604 -0.44379508816803 0.12340825981143
0.25843037974684 -0.05508860759494 1.51493670886076 -0.88623104213176 -0.44311552106590 0.13506729786501
-0.37956204379562 -0.07883211678832 2.18394160583942 0.00000000000000 0.00000000000000 1.00000000000000
-0.35164835164835 -0.07912087912088 2.19194139194139 -0.00000000000000 -0.00000000000000 1.00000000000000
-0.32234432234432 -0.07912087912088 2.19194139194139 -0.00000000000000 -0.00000000000000 1.00000000000000
-0.29411764705882 -0.07941176470588 2.20000000000000 0.00000000000000 0.00000000000000 1.00000000000000
-0.26470588235294 -0.07941176470588 2.20000000000000 0.00000000000000 0.00000000000000 1.00000000000000
-0.23529411764706 -0.07941176470588 2.20000000000000 0.00000000000000 -0.00000000000000 -1.00000000000000
-0.20817843866171 -0.08029739776952 2.22453531598513 0.89000189513974 0.44500094756986 0.09935181583445
-0.12631578947368 -0.05684210526316 1.57473684210526 -0.94502688988394 -0.28335971109550 -0.16319145665186
-0.10471204188482 -0.05654450261780 1.56649214659686 0.00000000000000 0.00000000000000 -1.00000000000000
-0.09090909090909 -0.06136363636364 1.70000000000000 -0.42634239800784 0.54815451172436 -0.71955457815037
-0.08888888888889 -0.08000000000000 2.21629629629630 -0.00000000000000 -0.00000000000000 1.00000000000000
-0.05574912891986 -0.07526132404181 2.08501742160279 0.00000000000000 0.00000000000000 1.00000000000000
-0.02702702702703 -0.07297297297297 2.02162162162162 -0.89407426763739 -0.44703713381870 -0.02808923167042
0.00000000000000 -0.07176079734219 1.98803986710963 nan nan nan
0.02649006622517 -0.07152317880795 1.98145695364238 0.00000000000000 0.00000000000000 1.00000000000000
0.05245901639344 -0.07081967213115 1.96196721311475 0.00000000000000 0.00000000000000 1.00000000000000
0.07947019867550 -0.07152317880795 1.98145695364238 -0.00000000000000 -0.00000000000000 1.00000000000000
0.10702341137124 -0.07224080267559 2.00133779264214 0.00000000000000 0.00000000000000 1.00000000000000
0.13793103448276 -0.07448275862069 2.06344827586207 -0.00000000000000 -0.00000000000000 -1.00000000000000
0.15894039735099 -0.07152317880795 1.98145695364238 0.00000000000000 0.00000000000000 -1.00000000000000
0.18360655737705 -0.07081967213115 1.96196721311475 -0.00000000000000 -0.00000000000000 -1.00000000000000
0.20846905537459 -0.07035830618893 1.94918566775244 0.00000000000000 0.00000000000000 -1.00000000000000
0.23452768729642 -0.07035830618893 1.94918566775244 -0.00000000000000 -0.00000000000000 -1.00000000000000
0.25974025974026 -0.07012987012987 1.94285714285714 -0.00000000000000 -0.00000000000000 -1.00000000000000
0.23342175066313 -0.05729442970822 1.58726790450928 0.00000000000000 0.00000000000000 -1.00000000000000
0.24806201550388 -0.05581395348837 1.54625322997416 nan nan nan
0.26130653266332 -0.05427135678392 1.50351758793970 -0.88587281766981 -0.44293640883490 0.13797350703012
-0.37255474452555 -0.07824817518248 2.18394160583942 0.00000000000000 0.00000000000000 -1.00000000000000
-0.34461538461538 -0.07853479853480 2.19194139194139 0.00000000000000 0.00000000000000 -1.00000000000000
-0.31531135531136 -0.07853479853480 2.19194139194139 0.00000000000000 0.00000000000000 -1.00000000000000
-0.28705882352941 -0.07882352941176 2.20000000000000 0.00000000000000 0.00000000000000 -1.00000000000000
-0.25764705882353 -0.07882352941176 2.20000000000000 0.00000000000000 0.00000000000000 1.00000000000000
-0.22739926739927 -0.07853479853480 2.19194139194139 0.00000000000000 0.00000000000000 1.00000000000000
-0.20029629629630 -0.07940740740741 2.21629629629630 -0.00000000000000 -0.00000000000000 -1.00000000000000
-0.12062827225131 -0.05612565445026 1.56649214659686 -0.89122108060541 -0.44561054030270 -0.08459451433554
-0.10021052631579 -0.05642105263158 1.57473684210526 0.00000000000000 0.00000000000000 -1.00000000000000
-0.09488958990536 -0.06763406940063 1.88769716088328 0.78076206964665 -0.53943561175587 0.31530907276933
-0.08177777777778 -0.07940740740741 2.21629629629630 0.00000000000000 0.00000000000000 -1.00000000000000
-0.04855172413793 -0.07393103448276 2.06344827586207 -0.71272455403476 0.63353293691979 -0.30109753887029
-0.02033444816054 -0.07170568561873 2.00133779264214 0.00000000000000 0.00000000000000 1.00000000000000
0.00637873754153 -0.07122923588040 1.98803986710963 0.00000000000000 0.00000000000000 1.00000000000000
0.03263157894737 -0.07052631578947 1.96842105263158 -0.00000000000000 0.00000000000000 1.00000000000000
0.05894736842105 -0.07052631578947 1.96842105263158 -0.89437540062130 -0.44718770031064 0.01076120134437
0.08582781456954 -0.07099337748344 1.98145695364238 0.00000000000000 0.00000000000000 -1.00000000000000
0.11382550335570 -0.07194630872483 2.00805369127517 nan nan nan
0.14555555555556 -0.07444444444444 2.07777777777778 0.00000000000000 0.00000000000000 -1.00000000000000
0.16475247524752 -0.07075907590759 1.97491749174917 0.00000000000000 0.00000000000000 1.00000000000000
0.18990163934426 -0.07029508196721 1.96196721311475 -0.00000000000000 -0.00000000000000 -1.00000000000000
0.21333333333333 -0.06938511326861 1.93656957928803 -0.89139825896887 -0.44569912948445 0.08222791426318
0.24000000000000 -0.06961038961039 1.94285714285714 -0.00000000000000 -0.00000000000000 -1.00000000000000
0.26597402597403 -0.06961038961039 1.94285714285714 nan nan nan
0.23663157894737 -0.05642105263158 1.57473684210526 0.00000000000000 0.00000000000000 1.00000000000000
0.25107692307692 -0.05497435897436 1.53435897435897 -0.00000000000000 -0.00000000000000 -1.00000000000000
0.26480000000000 -0.05360000000000 1.49600000000000 nan nan nan
-0.36554744525547 -0.07766423357664 2.18394160583942 0.00000000000000 0.00000000000000 -1.00000000000000
-0.33758241758242 -0.07794871794872 2.19194139194139 -0.00000000000000 -0.00000000000000 -1.00000000000000
-0.30827838827839 -0.07794871794872 2.19194139194139 0.00000000000000 0.00000000000000 -1.00000000000000
-0.28000000000000 -0.07823529411765 2.20000000000000 -0.00000000000000 -0.00000000000000 1.00000000000000
-0.25058823529412 -0.07823529411765 2.20000000000000 0.00000000000000 0.00000000000000 -1.00000000000000
-0.22036630036630 -0.07794871794872 2.19194139194139 0.00000000000000 0.00000000000000 -1.00000000000000
-0.20780876494024 -0.08478087649402 2.38406374501992 0.73600797112942 -0.28038398900168 -0.61617942609719
-0.11560209424084 -0.05570680628272 1.56649214659686 -0.89144177874568 -0.44572088937284 -0.08163604524609
-0.09540897097625 -0.05614775725594 1.57889182058047 0.00000000000000 0.00000000000000 1.00000000000000
-0.09449664429530 -0.07140939597315 2.00805369127517 0.80706464199791 -0.58007771143600 -0.11025657500556
-0.07466666666667 -0.07881481481481 2.21629629629630 0.00000000000000 0.00000000000000 1.00000000000000
-0.04178694158076 -0.07312714776632 2.05635738831615 0.00000000000000 0.00000000000000 1.00000000000000
-0.01386666666667 -0.07093333333333 1.99466666666667 nan nan nan
0.01271523178808 -0.07046357615894 1.98145695364238 0.00000000000000 0.00000000000000 -1.00000000000000
0.03881967213115 -0.06977049180328 1.96196721311475 0.00000000000000 0.00000000000000 -1.00000000000000
0.06569536423841 -0.07046357615894 1.98145695364238 0.00000000000000 0.00000000000000 -1.00000000000000
0.09249169435216 -0.07069767441860 1.98803986710963 0.00000000000000 0.00000000000000 -1.00000000000000
0.12108108108108 -0.07189189189189 2.02162162162162 0.00000000000000 0.00000000000000 -1.00000000000000
0.14711409395973 -0.07140939597315 2.00805369127517 0.89332794021012 0.44666397010507 -0.04956298064000
0.17052631578947 -0.07000000000000 1.96842105263158 -0.00000000000000 -0.00000000000000 1.00000000000000
0.19555555555556 -0.06954248366013 1.95555555555556 0.00000000000000 0.00000000000000 -1.00000000000000
0.21883870967742 -0.06864516129032 1.93032258064516 0.00000000000000 0.00000000000000 1.00000000000000
0.24623376623377 -0.06909090909091 1.94285714285714 0.00000000000000 0.00000000000000 -1.00000000000000
0.22720867208672 -0.05766937669377 1.62168021680217 0.98764113530007 -0.15594333715264 -0.01570552326047
0.24041884816754 -0.05570680628272 1.56649214659686 -0.88791138836909 -0.44395569418454 0.12048530203137
0.25469387755102 -0.05428571428571 1.52653061224490 0.00000000000000 0.00000000000000 1.00000000000000
-0.38632727272727 -0.07680000000000 2.17600000000000 0.00000000000000 0.00000000000000 -1.00000000000000
-0.35985347985348 -0.07736263736264 2.19194139194139 0.00000000000000 0.00000000000000 -1.00000000000000
-0.33054945054945 -0.07736263736264 2.19194139194139 -0.00000000000000 -0.00000000000000 1.00000000000000
-0.30235294117647 -0.07764705882353 2.20000000000000 0.00000000000000 0.00000000000000 1.00000000000000
-0.27294117647059 -0.07764705882353 2.20000000000000 0.00000000000000 0.00000000000000 1.00000000000000
-0.24263736263736 -0.07736263736264 2.19194139194139 0.00000000000000 0.00000000000000 1.00000000000000
-0.21333333333333 -0.07736263736264 2.19194139194139 0.00000000000000 0.00000000000000 1.00000000000000
-0.14072829131653 -0.05915966386555 1.67619047619048 -0.90649250365149 -0.00000000000000 -0.42222190945479
-0.11057591623037 -0.05528795811518 1.56649214659686 nan nan nan
-0.09279132791328 -0.05723577235772 1.62168021680217 0.89242861663246 0.44621430831623 0.06681283760885
-0.09718518518519 -0.07822222222222 2.21629629629630 0.00000000000000 0.00000000000000 -1.00000000000000
-0.06377622377622 -0.07384615384615 2.09230769230769 0.00000000000000 0.00000000000000 -1.00000000000000
-0.03482993197279 -0.07183673469388 2.03537414965986 -0.00000000000000 0.00000000000000 1.00000000000000
-0.00746666666667 -0.07040000000000 1.99466666666667 -0.00000000000000 -0.00000000000000 1.00000000000000
0.01913621262458 -0.07016611295681 1.98803986710963 -0.00000000000000 -0.00000000000000 1.00000000000000
0.04511475409836 -0.06924590163934 1.96196721311475 0.00000000000000 0.00000000000000 1.00000000000000
0.07205298013245 -0.06993377483444 1.98145695364238 -0.00000000000000 -0.00000000000000 1.00000000000000
0.09887043189369 -0.07016611295681 1.98803986710963 -0.00000000000000 -0.00000000000000 -1.00000000000000
0.12843537414966 -0.07183673469388 2.03537414965986 0.00000000000000 0.00000000000000 1.00000000000000
0.15253333333333 -0.07040000000000 1.99466666666667 nan nan nan
0.17684210526316 -0.06947368421053 1.96842105263158 0.00000000000000 -0.00000000000000 -1.00000000000000
0.20183006535948 -0.06901960784314 1.95555555555556 -0.00000000000000 -0.00000000000000 -1.00000000000000
0.22503225806452 -0.06812903225806 1.93032258064516 0.00000000000000 0.00000000000000 -1.00000000000000
0.25246753246753 -0.06857142857143 1.94285714285714 0.00000000000000 0.00000000000000 -1.00000000000000
0.22930481283422 -0.05647058823529 1.60000000000000 0.00000000000000 0.00000000000000 -1.00000000000000
0.24416666666667 -0.05500000000000 1.55833333333333 nan nan nan
0.25762025316456 -0.05346835443038 1.51493670886076 -0.88623104213175 -0.44311552106590 0.13506729786502
-0.37934545454545 -0.07621818181818 2.17600000000000 0.00000000000000 0.00000000000000 1.00000000000000
-0.35282051282051 -0.07677655677656 2.19194139194139 0.00000000000000 0.00000000000000 1.00000000000000
-0.32470588235294 -0.07705882352941 2.20000000000000 0.00000000000000 -0.00000000000000 -1.00000000000000
-0.29529411764706 -0.07705882352941 2.20000000000000 -0.00000000000000 -0.00000000000000 -1.00000000000000
-0.26588235294118 -0.07705882352941 2.20000000000000 0.00000000000000 0.00000000000000 -1.00000000000000
-0.23560439560440 -0.07677655677656 2.19194139194139 0.00000000000000 0.00000000000000 -1.00000000000000
-0.20859259259259 -0.07762962962963 2.21629629629630 0.00000000000000 0.00000000000000 -1.00000000000000
-0.12749340369393 -0.05530343007916 1.57889182058047 0.67956520626723 -0.60405796112643 0.41629930342335
-0.10582677165354 -0.05501312335958 1.57060367454068 0.00000000000000 0.00000000000000 -1.00000000000000
-0.08854794520548 -0.05742465753425 1.63945205479452 0.00000000000000 0.00000000000000 -1.00000000000000
-0.09007407407407 -0.07762962962963 2.21629629629630 -0.00000000000000 -0.00000000000000 -1.00000000000000
-0.05686411149826 -0.07303135888502 2.08501742160279 0.00000000000000 0.00000000000000 1.00000000000000
-0.02810810810811 -0.07081081081081 2.02162162162162 -0.89407426763739 -0.44703713381870 -0.02808923167043
-0.00106312292359 -0.06963455149502 1.98803986710963 nan nan nan
0.02543046357616 -0.06940397350993 1.98145695364238 -0.00000000000000 -0.00000000000000 -1.00000000000000
0.05140983606557 -0.06872131147541 1.96196721311475 0.00000000000000 0.00000000000000 -1.00000000000000
0.07841059602649 -0.06940397350993 1.98145695364238 0.00000000000000 0.00000000000000 1.00000000000000
0.10560000000000 -0.06986666666667 1.99466666666667 nan nan nan
0.13682758620690 -0.07227586206897 2.06344827586207 0.00000000000000 0.00000000000000 -1.00000000000000
0.15788079470199 -0.06940397350993 1.98145695364238 -0.00000000000000 -0.00000000000000 -1.00000000000000
0.18255737704918 -0.06872131147541 1.96196721311475 0.00000000000000 0.00000000000000 -1.00000000000000
0.20810457516340 -0.06849673202614 1.95555555555556 0.00000000000000 0.00000000000000 1.00000000000000
0.23348534201954 -0.06827361563518 1.94918566775244 0.00000000000000 0.00000000000000 -1.00000000000000
0.25870129870130 -0.06805194805195 1.94285714285714 0.00000000000000 0.00000000000000 1.00000000000000
0.23257294429708 -0.05559681697613 1.58726790450928 0.00000000000000 0.00000000000000 1.00000000000000
0.24723514211886 -0.05416020671835 1.54625322997416 nan nan nan
0.26115869017632 -0.05279596977330 1.50730478589421 0.00000000000000 0.00000000000000 -1.00000000000000
-0.37372262773723 -0.07591240875912 2.18394160583942 -0.00000000000000 -0.00000000000000 -1.00000000000000
-0.34578754578755 -0.07619047619048 2.19194139194139 -0.00000000000000 -0.00000000000000 -1.00000000000000
-0.31648351648352 -0.07619047619048 2.19194139194139 0.00000000000000 0.00000000000000 -1.00000000000000
-0.28823529411765 -0.07647058823529 2.20000000000000 0.00000000000000 0.00000000000000 1.00000000000000
-0.25787545787546 -0.07619047619048 2.19194139194139 0.00000000000000 0.00000000000000 -1.00000000000000
-0.22857142857143 -0.07619047619048 2.19194139194139 -0.00000000000000 -0.00000000000000 -1.00000000000000
-0.20148148148148 -0.07703703703704 2.21629629629630 0.00000000000000 0.00000000000000 -1.00000000000000
-0.12178477690289 -0.05459317585302 1.57060367454068 0.89364585373481 0.44015392795894 0.08753061067365
-0.10105263157895 -0.05473684210526 1.57473684210526 -0.00000000000000 -0.00000000000000 1.00000000000000
-0.08328767123288 -0.05698630136986 1.63945205479452 -0.40861165979964 0.81722331959927 0.40642657070981
-0.08296296296296 -0.07703703703704 2.21629629629630 nan nan nan
-0.05017421602787 -0.07247386759582 2.08501742160279 0.00000000000000 0.00000000000000 1.00000000000000
-0.02147651006711 -0.06979865771812 2.00805369127517 nan nan nan
0.00531561461794 -0.06910299003322 1.98803986710963 -0.00000000000000 -0.00000000000000 1.00000000000000
0.03168316831683 -0.06864686468647 1.97491749174917 -0.00000000000000 0.00000000000000 -1.00000000000000
0.05808580858086 -0.06864686468647 1.97491749174917 0.00000000000000 0.00000000000000 1.00000000000000
0.08476821192053 -0.06887417218543 1.98145695364238 0.00000000000000 0.00000000000000 -1.00000000000000
0.11275167785235 -0.06979865771812 2.00805369127517 nan nan nan
0.14444444444444 -0.07222222222222 2.07777777777778 -0.00000000000000 -0.00000000000000 1.00000000000000
0.16369636963696 -0.06864686468647 1.97491749174917 -0.00000000000000 -0.00000000000000 1.00000000000000
0.18885245901639 -0.06819672131148 1.96196721311475 -0.00000000000000 -0.00000000000000 1.00000000000000
0.21298701298701 -0.06753246753247 1.94285714285714 0.79268562468264 0.59520712552656 -0.13182555952436
0.23896103896104 -0.06753246753247 1.94285714285714 -0.00000000000000 -0.00000000000000 1.00000000000000
0.26493506493506 -0.06753246753247 1.94285714285714 -0.00000000000000 -0.00000000000000 -1.00000000000000
0.23641160949868 -0.05488126649077 1.57889182058047 -0.88822512137094 -0.44411256068549 0.11755920724028
0.25025641025641 -0.05333333333333 1.53435897435897 0.00000000000000 0.00000000000000 -1.00000000000000
0.26466165413534 -0.05213032581454 1.49974937343358 0.00000000000000 0.00000000000000 1.00000000000000
-0.36671532846715 -0.07532846715328 2.18394160583942 -0.00000000000000 -0.00000000000000 1.00000000000000
-0.33875457875458 -0.07560439560440 2.19194139194139 0.00000000000000 0.00000000000000 -1.00000000000000
-0.30945054945055 -0.07560439560440 2.19194139194139 0.00000000000000 0.00000000000000 -1.00000000000000
-0.28117647058824 -0.07588235294118 2.20000000000000 0.00000000000000 0.00000000000000 1.00000000000000
-0.25084249084249 -0.07560439560440 2.19194139194139 0.00000000000000 0.00000000000000 -1.00000000000000
-0.22153846153846 -0.07560439560440 2.19194139194139 0.00000000000000 0.00000000000000 -1.00000000000000
-0.15759759759760 -0.06198198198198 1.79699699699700 -0.95404994579062 0.29736621686981 0.03690574482987
-0.11643979057592 -0.05403141361257 1.56649214659686 -0.89144177874568 -0.44572088937284 -0.08163604524610
-0.09650793650794 -0.05460317460317 1.58306878306878 0.00000000000000 0.00000000000000 1.00000000000000
-0.07802739726027 -0.05654794520548 1.63945205479452 0.00000000000000 0.00000000000000 1.00000000000000
-0.07585185185185 -0.07644444444444 2.21629629629630 -0.00000000000000 -0.00000000000000 1.00000000000000
-0.04288659793814 -0.07092783505155 2.05635738831615 0.00000000000000 -0.00000000000000 -1.00000000000000
-0.01498327759197 -0.06903010033445 2.00133779264214 0.00000000000000 0.00000000000000 -1.00000000000000
0.01165562913907 -0.06834437086093 1.98145695364238 -0.00000000000000 -0.00000000000000 1.00000000000000
0.03789473684211 -0.06789473684211 1.96842105263158 0.00000000000000 0.00000000000000 -1.00000000000000
0.06463576158940 -0.06834437086093 1.98145695364238 -0.00000000000000 -0.00000000000000 1.00000000000000
0.09142857142857 -0.06857142857143 1.98803986710963 -0.00000000000000 -0.00000000000000 -1.00000000000000
0.11959595959596 -0.06949494949495 2.01481481481481 0.00000000000000 0.00000000000000 1.00000000000000
0.14702702702703 -0.06972972972973 2.02162162162162 -0.99265758908073 0.09453881800769 0.07545411009438
0.16947368421053 -0.06789473684211 1.96842105263158 0.00000000000000 0.00000000000000 1.00000000000000
0.19450980392157 -0.06745098039216 1.95555555555556 -0.00000000000000 -0.00000000000000 -1.00000000000000
0.21780645161290 -0.06658064516129 1.93032258064516 -0.00000000000000 -0.00000000000000 -1.00000000000000
0.24519480519481 -0.06701298701299 1.94285714285714 -0.00000000000000 -0.00000000000000 -1.00000000000000
0.25777777777778 -0.06370370370370 1.84691358024691 0.99039983726967 0.00000000000000 -0.13823227675261
0.23958115183246 -0.05403141361257 1.56649214659686 -0.88791138836910 -0.44395569418454 0.12048530203136
0.25387755102041 -0.05265306122449 1.52653061224490 -0.00000000000000 -0.00000000000000 -1.00000000000000
-0.38749090909091 -0.07447272727273 2.17600000000000 0.00000000000000 0.00000000000000 -1.00000000000000
-0.35970802919708 -0.07474452554745 2.18394160583942 0.00000000000000 0.00000000000000 1.00000000000000
-0.33172161172161 -0.07501831501832 2.19194139194139 0.00000000000000 0.00000000000000 1.00000000000000
-0.30241758241758 -0.07501831501832 2.19194139194139 0.00000000000000 0.00000000000000 1.00000000000000
-0.27411764705882 -0.07529411764706 2.20000000000000 0.00000000000000 0.00000000000000 -1.00000000000000
-0.24380952380952 -0.07501831501832 2.19194139194139 0.00000000000000 0.00000000000000 1.00000000000000
-0.21450549450549 -0.07501831501832 2.19194139194139 0.00000000000000 0.00000000000000 1.00000000000000
-0.13852054794521 -0.05610958904110 1.63945205479452 nan nan nan
-0.11141361256545 -0.05361256544503 1.56649214659686 nan nan nan
-0.09290322580645 -0.05505376344086 1.60860215053763 0.89242861663246 0.44621430831623 0.06681283760885
-0.09385159010601 -0.07236749116608 2.11448763250883 -0.25234540470723 -0.91475209206371 0.31551609592572
-0.06489510489510 -0.07160839160839 2.09230769230769 0.00000000000000 0.00000000000000 -1.00000000000000
-0.03604095563140 -0.06989761092150 2.04232081911263 0.95109777790732 -0.21351174606083 0.22321682542723
-0.00853333333333 -0.06826666666667 1.99466666666667 0.00000000000000 0.00000000000000 -1.00000000000000
0.01807308970100 -0.06803986710963 1.98803986710963 0.00000000000000 0.00000000000000 1.00000000000000
0.04406557377049 -0.06714754098361 1.96196721311475 0.00000000000000 0.00000000000000 -1.00000000000000
0.07099337748344 -0.06781456953642 1.98145695364238 nan nan nan
0.09780730897010 -0.06803986710963 1.98803986710963 0.00000000000000 0.00000000000000 1.00000000000000
0.12734693877551 -0.06965986394558 2.03537414965986 0.00000000000000 0.00000000000000 1.00000000000000
0.15146666666667 -0.06826666666667 1.99466666666667 nan nan nan
0.17521311475410 -0.06714754098361 1.96196721311475 0.00000000000000 0.00000000000000 1.00000000000000
0.20078431372549 -0.06692810457516 1.95555555555556 0.00000000000000 0.00000000000000 -1.00000000000000
0.22400000000000 -0.06606451612903 1.93032258064516 -0.00000000000000 -0.00000000000000 -1.00000000000000
0.25142857142857 -0.06649350649351 1.94285714285714 -0.00000000000000 -0.00000000000000 -1.00000000000000
0.22844919786096 -0.05475935828877 1.60000000000000 0.00000000000000 0.00000000000000 1.00000000000000
0.24333333333333 -0.05333333333333 1.55833333333333 nan nan nan
0.25746192893401 -0.05197969543147 1.51878172588832 nan nan nan
-0.38050909090909 -0.07389090909091 2.17600000000000 -0.00000000000000 -0.00000000000000 -1.00000000000000
-0.35270072992701 -0.07416058394161 2.18394160583942 nan nan nan
-0.32468864468864 -0.07443223443223 2.19194139194139 0.00000000000000 0.00000000000000 1.00000000000000
-0.29647058823529 -0.07470588235294 2.20000000000000 0.00000000000000 0.00000000000000 -1.00000000000000
-0.26608058608059 -0.07443223443223 2.19194139194139 0.00000000000000 0.00000000000000 1.00000000000000
-0.23677655677656 -0.07443223443223 2.19194139194139 -0.00000000000000 -0.00000000000000 1.00000000000000
-0.20977777777778 -0.07525925925926 2.21629629629630 -0.00000000000000 0.00000000000000 1.00000000000000
-0.13145945945946 -0.05491891891892 1.61729729729730 0.69721311573149 -0.67670684762174 0.23656228277945
-0.10666666666667 -0.05333333333333 1.57060367454068 -0.00000000000000 -0.00000000000000 1.00000000000000
-0.08942465753425 -0.05567123287671 1.63945205479452 0.00000000000000 0.00000000000000 -1.00000000000000
-0.09125925925926 -0.07525925925926 2.21629629629630 0.00000000000000 0.00000000000000 -1.00000000000000
-0.05797909407666 -0.07080139372822 2.08501742160279 -0.00000000000000 -0.00000000000000 1.00000000000000
-0.02928813559322 -0.06888135593220 2.02847457627119 0.63173943219668 0.76799695678812 -0.10528990536611
-0.00212624584718 -0.06750830564784 1.98803986710963 0.00000000000000 0.00000000000000 1.00000000000000
0.02445182724252 -0.06750830564784 1.98803986710963 0.00000000000000 0.00000000000000 -1.00000000000000
0.05052631578947 -0.06684210526316 1.96842105263158 nan nan nan
0.07735099337748 -0.06728476821192 1.98145695364238 -0.00000000000000 -0.00000000000000 1.00000000000000
0.10453333333333 -0.06773333333333 1.99466666666667 nan nan nan
0.13572413793103 -0.07006896551724 2.06344827586207 -0.00000000000000 -0.00000000000000 -1.00000000000000
0.15682119205298 -0.06728476821192 1.98145695364238 0.00000000000000 0.00000000000000 -1.00000000000000
0.18150819672131 -0.06662295081967 1.96196721311475 nan nan nan
0.20705882352941 -0.06640522875817 1.95555555555556 -0.00000000000000 -0.00000000000000 -1.00000000000000
0.23093851132686 -0.06576051779935 1.93656957928803 -0.83978778010094 0.38759436004659 0.38016719539329
0.25766233766234 -0.06597402597403 1.94285714285714 0.00000000000000 0.00000000000000 -1.00000000000000
0.23234042553191 -0.05404255319149 1.59148936170213 -0.88853135105392 -0.44426567552697 0.11463004729506
0.24640826873385 -0.05250645994832 1.54625322997416 nan nan nan
0.26035264483627 -0.05118387909320 1.50730478589421 0.00000000000000 0.00000000000000 -1.00000000000000
-0.37489051094891 -0.07357664233577 2.18394160583942 0.00000000000000 0.00000000000000 -1.00000000000000
-0.34695970695971 -0.07384615384615 2.19194139194139 0.00000000000000 0.00000000000000 -1.00000000000000
-0.31765567765568 -0.07384615384615 2.19194139194139 -0.00000000000000 -0.00000000000000 -1.00000000000000
-0.28835164835165 -0.07384615384615 2.19194139194139 0.00000000000000 0.00000000000000 -1.00000000000000
-0.25904761904762 -0.07384615384615 2.19194139194139 0.00000000000000 0.00000000000000 -1.00000000000000
-0.22974358974359 -0.07384615384615 2.19194139194139 nan nan nan
-0.20266666666667 -0.07466666666667 2.21629629629630 0.00000000000000 0.00000000000000 1.00000000000000
-0.12294736842105 -0.05305263157895 1.57473684210526 -0.91995362381226 -0.37327614664037 -0.11979252223742
-0.10189473684211 -0.05305263157895 1.57473684210526 0.00000000000000 0.00000000000000 1.00000000000000
-0.08393442622951 -0.05508196721311 1.63497267759563 0.89276862467759 0.44638431233880 0.06087058804620
-0.08414814814815 -0.07466666666667 2.21629629629630 0.00000000000000 0.00000000000000 1.00000000000000
-0.05128919860627 -0.07024390243902 2.08501742160279 0.00000000000000 -0.00000000000000 -1.00000000000000
-0.02255033557047 -0.06765100671141 2.00805369127517 nan nan nan
0.00425249169435 -0.06697674418605 1.98803986710963 0.00000000000000 0.00000000000000 1.00000000000000
0.03072847682119 -0.06675496688742 1.98145695364238 0.00000000000000 0.00000000000000 1.00000000000000
0.05702970297030 -0.06653465346535 1.97491749174917 0.00000000000000 0.00000000000000 1.00000000000000
0.08370860927152 -0.06675496688742 1.98145695364238 -0.00000000000000 -0.00000000000000 1.00000000000000
0.11167785234899 -0.06765100671141 2.00805369127517 nan nan nan
0.14333333333333 -0.07000000000000 2.07777777777778 0.00000000000000 0.00000000000000 1.00000000000000
0.16264026402640 -0.06653465346535 1.97491749174917 0.00000000000000 0.00000000000000 1.00000000000000
0.18780327868852 -0.06609836065574 1.96196721311475 0.00000000000000 0.00000000000000 1.00000000000000
0.21263843648208 -0.06566775244300 1.94918566775244 0.00000000000000 0.00000000000000 -1.00000000000000
0.23869706840391 -0.06566775244300 1.94918566775244 0.00000000000000 0.00000000000000 1.00000000000000
0.26389610389610 -0.06545454545455 1.94285714285714 -0.00000000000000 -0.00000000000000 1.00000000000000
0.23556728232190 -0.05319261213720 1.57889182058047 -0.88822512137094 -0.44411256068549 0.11755920724028
0.25007712082262 -0.05182519280206 1.53830334190231 -0.88692541497852 -0.44346270748926 0.12924447892068
0.26385964912281 -0.05052631578947 1.49974937343358 -0.00000000000000 -0.00000000000000 -1.00000000000000
-0.36788321167883 -0.07299270072993 2.18394160583942 0.00000000000000 0.00000000000000 1.00000000000000
-0.33992673992674 -0.07326007326007 2.19194139194139 0.00000000000000 0.00000000000000 1.00000000000000
-0.31062271062271 -0.07326007326007 2.19194139194139 -0.00000000000000 -0.00000000000000 -1.00000000000000
-0.28235294117647 -0.07352941176471 2.20000000000000 0.00000000000000 0.00000000000000 -1.00000000000000
-0.25201465201465 -0.07326007326007 2.19194139194139 -0.00000000000000 -0.00000000000000 1.00000000000000
-0.22271062271062 -0.07326007326007 2.19194139194139 -0.00000000000000 -0.00000000000000 -1.00000000000000
-0.14465753424658 -0.05479452054795 1.63945205479452 0.00000000000000 0.00000000000000 -1.00000000000000
-0.11758530183727 -0.05249343832021 1.57060367454068 -0.89144177874568 -0.44572088937284 -0.08163604524610
-0.09735449735450 -0.05291005291005 1.58306878306878 -0.00000000000000 -0.00000000000000 -1.00000000000000
-0.07890410958904 -0.05479452054795 1.63945205479452 0.00000000000000 -0.00000000000000 -1.00000000000000
-0.07703703703704 -0.07407407407407 2.21629629629630 0.00000000000000 0.00000000000000 1.00000000000000
-0.04413793103448 -0.06896551724138 2.06344827586207 0.00000000000000 0.00000000000000 1.00000000000000
-0.01605351170569 -0.06688963210702 2.00133779264214 -0.00000000000000 -0.00000000000000 1.00000000000000
0.01059602649007 -0.06622516556291 1.98145695364238 0.00000000000000 0.00000000000000 1.00000000000000
0.03684210526316 -0.06578947368421 1.96842105263158 -0.00000000000000 0.00000000000000 1.00000000000000
0.06357615894040 -0.06622516556291 1.98145695364238 0.00000000000000 0.00000000000000 1.00000000000000
0.09036544850498 -0.06644518272425 1.98803986710963 -0.00000000000000 -0.00000000000000 -1.00000000000000
0.11851851851852 -0.06734006734007 2.01481481481481 0.00000000000000 0.00000000000000 1.00000000000000
0.14794520547945 -0.06849315068493 2.04931506849315 -0.98952478095422 0.09424045532898 -0.10935924495394
0.16842105263158 -0.06578947368421 1.96842105263158 -0.00000000000000 -0.00000000000000 -1.00000000000000
0.19346405228758 -0.06535947712418 1.95555555555556 -0.00000000000000 -0.00000000000000 -1.00000000000000
0.21677419354839 -0.06451612903226 1.93032258064516 0.00000000000000 0.00000000000000 -1.00000000000000
0.24415584415584 -0.06493506493506 1.94285714285714 0.00000000000000 0.00000000000000 -1.00000000000000
0.27012987012987 -0.06493506493506 1.94285714285714 0.00000000000000 0.00000000000000 -1.00000000000000
0.23937007874016 -0.05249343832021 1.57060367454068 -0.88791138836909 -0.44395569418455 0.12048530203136
0.25306122448980 -0.05102040816327 1.52653061224490 0.00000000000000 0.00000000000000 -1.00000000000000
-0.38865454545455 -0.07214545454545 2.17600000000000 0.00000000000000 0.00000000000000 1.00000000000000
-0.36087591240876 -0.07240875912409 2.18394160583942 -0.00000000000000 -0.00000000000000 -1.00000000000000
-0.33289377289377 -0.07267399267399 2.19194139194139 0.00000000000000 0.00000000000000 -1.00000000000000
-0.30358974358974 -0.07267399267399 2.19194139194139 0.00000000000000 0.00000000000000 1.00000000000000
-0.27428571428571 -0.07267399267399 2.19194139194139 0.00000000000000 0.00000000000000 1.00000000000000
-0.24498168498168 -0.07267399267399 2.19194139194139 0.00000000000000 0.00000000000000 1.00000000000000
-0.21567765567766 -0.07267399267399 2.19194139194139 0.00000000000000 0.00000000000000 1.00000000000000
-0.13939726027397 -0.05435616438356 1.63945205479452 nan nan nan
-0.11254593175853 -0.05207349081365 1.57060367454068 -0.89165472188154 -0.44582736094077 -0.07867541663661
-0.09326203208556 -0.05304812834225 1.60000000000000 0.00000000000000 0.00000000000000 1.00000000000000
-0.07859649122807 -0.05801169590643 1.74970760233918 -0.85036648986498 0.08098728474905 0.51992104460551
-0.06601398601399 -0.06937062937063 2.09230769230769 0.00000000000000 0.00000000000000 1.00000000000000
-0.03726027397260 -0.06794520547945 2.04931506849315 0.84412743948970 0.53613499535156 -0.00285178189017
-0.00960000000000 -0.06613333333333 1.99466666666667 -0.00000000000000 -0.00000000000000 -1.00000000000000
0.01695364238411 -0.06569536423841 1.98145695364238 0.00000000000000 0.00000000000000 -1.00000000000000
0.04315789473684 -0.06526315789474 1.96842105263158 0.00000000000000 0.00000000000000 1.00000000000000
0.06993377483444 -0.06569536423841 1.98145695364238 0.00000000000000 0.00000000000000 1.00000000000000
0.09674418604651 -0.06591362126246 1.98803986710963 0.00000000000000 0.00000000000000 -1.00000000000000
0.12625850340136 -0.06748299319728 2.03537414965986 0.00000000000000 0.00000000000000 -1.00000000000000
