2.146108128039350957e-06 -8.584432512157337761e-06 8.033559837580984071e-08
-3.048729826541480585e-05 4.690353579294671196e-06 1.248148235238784727e-05
3.030548926728445476e-05 8.265133436532107392e-06 -1.003418138197212924e-05
3.994883917237615088e-05 -6.145975257288695544e-06 -1.142510507387670300e-05
-1.833826330805560234e-19 6.810144895924574726e-19 -2.265813133905253407e-20
2.157941949414246099e-05 6.782103269587621208e-05 2.469104319889340779e-05
0.000000000000000000e+00 0.000000000000000000e+00 -8.470329472543003391e-22
0.000000000000000000e+00 -0.000000000000000000e+00 1.050894491835039802e-05
1.647184986595197137e-05 2.562287756925801490e-05 3.552017892216589352e-05
-2.146108128039350957e-06 8.584432512157337761e-06 -8.033559837580359384e-08
0.000000000000000000e+00 0.000000000000000000e+00 -1.104526763465377482e-05
1.639008752937071156e-19 -4.946672411965113980e-19 4.235164736271501695e-21
7.881198310916012132e-05 1.871942813432003749e-19 -1.057850682374270421e-05
2.721548808685723283e-06 -1.088619523474304899e-05 2.837978704244349116e-07
-6.264671373021979391e-06 2.505868549208796161e-05 -5.695155793656582840e-07
-0.000000000000000000e+00 0.000000000000000000e+00 8.470329472543003391e-22
-2.258819195093767121e-06 9.035276780375170127e-06 1.039419207154083909e-05
-1.637165944583514362e-05 -1.391591052895989257e-04 3.314823292876624265e-05
-6.456511741135330519e-06 2.582604696454118994e-05 -2.416876052831453099e-07
-2.509068328085888006e-06 1.003627331234340464e-05 -3.622718976380507815e-07
0.000000000000000000e+00 0.000000000000000000e+00 1.355252715606880543e-20
0.000000000000000000e+00 0.000000000000000000e+00 -1.678251821019775808e-05
2.705004439027944514e-06 -1.082001775611193222e-05 2.820726554066372575e-07
0.000000000000000000e+00 0.000000000000000000e+00 4.065758146820641628e-20
0.000000000000000000e+00 -0.000000000000000000e+00 -1.376428539288238051e-20
2.173174872665527290e-05 -8.692699490662120004e-05 1.394550720427081339e-06
-1.504717045997818652e-03 -3.283019009449753890e-04 6.536484995730766460e-04
0.000000000000000000e+00 -0.000000000000000000e+00 1.038952605904170705e-05
-3.515186731105346407e-20 7.115076756936122848e-20 2.858736196983263644e-21
-0.000000000000000000e+00 0.000000000000000000e+00 -1.376428539288238051e-20
2.474005167958666967e-05 2.544691029900349091e-04 -1.149278405315614726e-03
2.696782541037027031e-06 -1.078713016414804883e-05 2.812152917124111859e-07
2.885691138459169615e-05 -1.154276455383667439e-04 2.623355580417438550e-06
0.000000000000000000e+00 0.000000000000000000e+00 1.355252715606880543e-20
2.173174872665527290e-05 -8.692699490662120004e-05 1.394550720427081339e-06
-1.776184101485304414e-03 1.192069866768638594e-05 1.452954675846217248e-05
-2.220390140618129676e-06 8.881560562472518702e-06 -8.311620847234477452e-08
1.706771388717415183e-19 -4.099639464710813641e-19 -5.717472393966527289e-21
0.000000000000000000e+00 0.000000000000000000e+00 -1.397604362969595559e-20
0.000000000000000000e+00 -0.000000000000000000e+00 -1.821860741916287319e-04
2.680438404424701651e-06 -1.072175361769874901e-05 2.795109566111383675e-07
-0.000000000000000000e+00 0.000000000000000000e+00 -4.065758146820641628e-20
2.885663133188046981e-06 -1.154265253275227093e-05 2.237546279744653792e-07
3.439406610396925247e-05 3.057250320352823496e-05 -5.272530632694098681e-06
1.410988294439870282e-04 5.209802933316450956e-04 2.109807671858894719e-05
0.000000000000000000e+00 0.000000000000000000e+00 0.000000000000000000e+00
-2.561968742825285059e-06 1.024787497130121478e-05 -3.699099254346906920e-07
-2.832445176695950386e-06 1.132978070678380154e-05 -3.710957584441318779e-07
0.000000000000000000e+00 0.000000000000000000e+00 -1.644377641602752773e-05
2.672315863805214366e-06 -1.068926345522089643e-05 2.786639537123085202e-07
3.595399627894990875e-05 5.992332713158313607e-06 1.262155105558974797e-05
-2.771998598714020071e-05 -2.771998598714020071e-05 -2.321734120446900765e-05
7.387711324933185269e-05 8.208568138814688886e-06 -4.417043684321934229e-06
-8.445204637265103350e-06 3.378081854906041340e-05 2.363979875602340559e-05
-0.000000000000000000e+00 0.000000000000000000e+00 0.000000000000000000e+00
-0.000000000000000000e+00 0.000000000000000000e+00 -1.124457671483381998e-05
0.000000000000000000e+00 0.000000000000000000e+00 1.226888017713190331e-05
0.000000000000000000e+00 0.000000000000000000e+00 1.644377641602752773e-05
2.656168940156826099e-06 -1.062467576062734336e-05 2.769801835992344757e-07
3.285418894777202762e-05 1.792046669878476575e-05 1.231033842075635948e-05
-5.380134359933128101e-05 -3.842953114237949611e-05 -2.109205844277130720e-05
-2.389395559837970574e-05 -5.376140009635431080e-05 2.070348962207376072e-04
8.445204637265103350e-06 -3.378081854906041340e-05 -2.363979875602340220e-05
0.000000000000000000e+00 0.000000000000000000e+00 0.000000000000000000e+00
-3.149115955687526748e-05 -2.624263296406215680e-06 9.807657814309716533e-06
0.000000000000000000e+00 0.000000000000000000e+00 -1.234520273137608246e-05
1.867430702276556991e-05 8.092199709865069565e-05 6.532096172629158566e-05
0.000000000000000000e+00 0.000000000000000000e+00 1.672890070827243170e-20
0.000000000000000000e+00 0.000000000000000000e+00 3.750000000000003737e-05
-9.546083452654554525e-06 -8.114170934756365333e-05 -1.625597191052180804e-04
-2.173174872665527290e-05 8.692699490662120004e-05 -1.394550720427080069e-06
-8.519889564324096187e-05 -1.333547931807249826e-04 2.099743719899468811e-04
-1.706771388717415183e-19 5.454892180317694184e-19 9.529120656610878815e-21
-3.421849059604069700e-05 5.264383168621680551e-06 9.751073369151373228e-06
2.858889053581767485e-06 -1.143555621432706994e-05 3.745603305494919446e-07
-2.729871587917225150e-06 1.091948635166886164e-05 -3.211613632843901668e-07
0.000000000000000000e+00 -0.000000000000000000e+00 1.672890070827243170e-20
0.000000000000000000e+00 0.000000000000000000e+00 -4.235164736271501695e-22
-2.987582256372268947e-05 4.596280394418886771e-06 -4.218070423460846689e-05
3.095361871286896993e-05 -2.063574580857934491e-05 -5.685313497636497736e-05
2.238515636690107812e-04 -2.729897117914768657e-05 1.140498461695658243e-05
-2.265310054849793412e-06 9.061240219399243105e-06 -8.479770258796108485e-08
3.505817303348119512e-05 -5.393565082073899901e-06 -9.954300261769139505e-06
0.000000000000000000e+00 -0.000000000000000000e+00 6.776263578034402713e-21
2.729871587917225150e-06 -1.091948635166886164e-05 3.211613632843903786e-07
-0.000000000000000000e+00 0.000000000000000000e+00 1.503483481376383102e-20
-0.000000000000000000e+00 0.000000000000000000e+00 4.235164736271501695e-22
-2.245911656835932895e-06 8.983646627343816284e-06 -1.741482300755093800e-07
6.528302021984914256e-04 3.983370725278943532e-04 3.760297231008269923e-04
-2.177712357353083481e-04 -1.050425960605608146e-04 -1.613966404385567177e-05
-2.278366596952502128e-06 9.113466387810077968e-06 -8.528645015331151227e-08
-1.071496678276689929e-19 4.201283418381329682e-19 -1.461131834013668085e-20
-2.850038003880271504e-06 1.140015201552108602e-05 -3.734007010431461612e-07
1.279019750353993512e-19 -4.658681209898651865e-19 1.789357101074709466e-20
-0.000000000000000000e+00 0.000000000000000000e+00 0.000000000000000000e+00
0.000000000000000000e+00 0.000000000000000000e+00 4.235164736271501695e-22
2.245911656835932895e-06 -8.983646627343816284e-06 1.741482300755092741e-07
-2.160068593344856552e-03 -1.961897162762760941e-03 1.457685988815808110e-03
1.113161454567861315e-03 5.983242818302247521e-04 1.388717280545703997e-04
-2.970412243404372361e-05 4.569864989852964737e-06 1.219139784391940660e-05
1.905824131322175763e-19 -5.793705359219414319e-19 6.988021814847977797e-21
-4.328494699782099568e-05 2.885663133188063668e-05 3.493272683291177258e-05
1.694065894508600678e-21 1.473837328222482590e-19 9.952637130238028984e-21
-0.000000000000000000e+00 0.000000000000000000e+00 -1.334076891925523034e-20
-7.251685223055478449e-05 -1.282990462540561536e-04 -9.352839389649195124e-05
2.245911656835933319e-06 -8.983646627343817978e-06 1.741482300755093800e-07
-1.410988294439870282e-04 -5.209802933316450956e-04 -2.109807671858895736e-05
1.805845409617802175e-04 2.512480569903087165e-04 4.114312893137846519e-04
3.048729826541480246e-05 -4.690353579294672043e-06 -1.248148235238784727e-05
-1.918529625530990268e-19 5.133019660361060055e-19 6.352747104407252543e-22
-3.994883917237615088e-05 6.145975257288696391e-06 1.142510507387670300e-05
0.000000000000000000e+00 -0.000000000000000000e+00 1.151882460973370201e-05
0.000000000000000000e+00 -0.000000000000000000e+00 -1.334076891925523034e-20
2.338418582885736286e-05 -2.127960910425982788e-04 1.568713100434227620e-04
-2.987582256372268947e-05 4.596280394418885924e-06 3.244740457583948054e-05
-1.931664152554986205e-06 7.726656610219844869e-06 -9.437264009487899064e-06
1.028895481700764801e-04 5.612157172913267847e-05 1.707081159320613609e-04
-3.048729826541480585e-05 4.690353579294671196e-06 1.248148235238784727e-05
-2.780527825171615574e-06 1.112211130068638268e-05 -4.014665843830479962e-07
7.805900237881571052e-05 -2.219226321806266888e-19 -1.047743828721024578e-05
2.656168940156826099e-06 -1.062467576062734336e-05 3.124904635478488398e-07
-0.000000000000000000e+00 0.000000000000000000e+00 -2.678741695691724822e-20
-2.189029101210462411e-06 1.094514550605224260e-05 -6.657809097932613224e-07
-1.458606219163154191e-04 -2.966656716942003822e-05 -2.111032729774089077e-05
1.805945374981132870e-06 -9.029726874905783147e-06 -2.100497962882354712e-08
4.440780281236293233e-06 -1.998351126556326661e-05 4.883077247749823251e-07
-3.010881993703032743e-05 -2.509068328085924852e-06 9.369089234193237354e-06
-0.000000000000000000e+00 0.000000000000000000e+00 2.423668639053551577e-07
-3.203522590013661695e-06 1.601761295006843723e-05 -7.653335385500873440e-07
0.000000000000000000e+00 0.000000000000000000e+00 -2.336597876981757055e-07
0.000000000000000000e+00 0.000000000000000000e+00 -2.689329607532403577e-20
2.201502201502174339e-06 -1.100751100751080139e-05 4.797391161029054530e-08
-4.086950137364253166e-05 1.634780054945700724e-04 -9.441510477761323142e-05
1.805945374981133082e-06 -9.029726874905783147e-06 -2.100497962882354712e-08
-4.453468224896947478e-06 2.004060701203629923e-05 -4.897028897029028222e-07
3.019842952017629374e-05 2.516535793348027726e-06 -9.396973428342629642e-06
-3.367591713270640731e-05 -5.612652855451086803e-06 1.080135532810431400e-05
0.000000000000000000e+00 0.000000000000000000e+00 2.663891779396679884e-07
-0.000000000000000000e+00 0.000000000000000000e+00 2.336597876981754937e-07
0.000000000000000000e+00 0.000000000000000000e+00 2.350780532598709683e-07
0.000000000000000000e+00 0.000000000000000000e+00 2.066115702479209314e-07
1.604075442247565459e-05 -6.645455403597064984e-05 1.937083464730948985e-06
-1.805945374981133082e-06 9.029726874905783147e-06 2.100497962882354712e-08
-4.440780281236293233e-06 1.998351126556326661e-05 -4.883077247749823251e-07
-1.651714247145885661e-19 -2.546718928879524872e-06 2.924641122871594159e-07
-5.595383154357321186e-06 2.517922419460814058e-05 -1.120198699685844408e-06
0.000000000000000000e+00 -0.000000000000000000e+00 2.663891779396682001e-07
0.000000000000000000e+00 -0.000000000000000000e+00 2.336597876981924344e-07
0.000000000000000000e+00 -0.000000000000000000e+00 2.350780532598709683e-07
0.000000000000000000e+00 -0.000000000000000000e+00 2.066115702479207197e-07
4.316492819212114059e-05 -6.361147312523295918e-05 4.518346261911943538e-05
4.439787720794866987e-05 5.549734650993598134e-06 1.868880563153375897e-05
0.000000000000000000e+00 -0.000000000000000000e+00 2.089795918367381166e-07
-1.960881272893705285e-19 5.675120746603812272e-19 -5.929230630780102373e-21
1.369122713571960209e-05 -5.476490854287840835e-05 1.973147440147831748e-06
0.000000000000000000e+00 0.000000000000000000e+00 -2.663891779396679884e-07
0.000000000000000000e+00 0.000000000000000000e+00 -2.336597876981924344e-07
-0.000000000000000000e+00 0.000000000000000000e+00 2.117582368135750848e-22
0.000000000000000000e+00 0.000000000000000000e+00 -2.066115702479207197e-07
-4.309498272877642505e-05 -2.872998848585167961e-05 3.084248763922220856e-05
-2.639138883911931489e-05 1.131059521676544608e-05 1.004495775734938366e-05
-2.239494766387854880e-06 8.957979065551419518e-06 -1.131723291035630440e-07
1.545835128739098119e-19 -5.387129544537350156e-19 1.545835128739098119e-20
1.562775787684184126e-19 -4.946672411965113980e-19 3.049318610115481221e-20
-1.867430702276556652e-05 -8.092199709865069565e-05 -6.532096172629158566e-05
0.000000000000000000e+00 0.000000000000000000e+00 -1.334076891925523034e-20
0.000000000000000000e+00 -0.000000000000000000e+00 1.058791184067875424e-22
0.000000000000000000e+00 0.000000000000000000e+00 0.000000000000000000e+00
-4.069834662966902823e-05 -2.219909816163760679e-05 -7.571831431781239937e-06
-2.362748412602476699e-05 -3.937914021004855150e-06 2.024603736707941053e-05
-2.045584567619135319e-19 6.132518538121134455e-19 1.418780186650953068e-20
-2.608501955286616986e-06 1.043400782114646795e-05 -4.108041849368511393e-07
2.696782541036988491e-06 -1.078713016414803020e-05 3.886539544435511578e-07
-6.154921469793108108e-05 -3.357229892614424391e-05 -7.368850317773391182e-05
0.000000000000000000e+00 -0.000000000000000000e+00 -1.334076891925523034e-20
0.000000000000000000e+00 0.000000000000000000e+00 0.000000000000000000e+00
0.000000000000000000e+00 -0.000000000000000000e+00 0.000000000000000000e+00
-1.936941923463322542e-06 1.045948638670351788e-04 4.471332029522821669e-05
-1.026071017351845894e-05 4.104284069407340886e-05 -6.556977891633916514e-07
2.270048298641524909e-19 -6.420509740187596570e-19 -2.032879073410320814e-20
-0.000000000000000000e+00 0.000000000000000000e+00 -1.161271592393663808e-05
-2.696782541036988491e-06 1.078713016414803020e-05 -3.886539544435511578e-07
-2.705004439027979243e-05 -2.434503995125184876e-05 -1.167021367003648459e-05
0.000000000000000000e+00 -0.000000000000000000e+00 1.694065894508600678e-21
-9.486769009248163798e-20 2.083701050245578834e-19 -2.043466985250999568e-20
-0.000000000000000000e+00 0.000000000000000000e+00 -1.111730743271269195e-20
2.710505431213761085e-20 -5.421010862427522170e-19 2.710505431213761085e-20
1.389660567742790348e-05 4.367504641477308472e-05 -2.104767793435294580e-05
-2.350516428630683441e-19 7.487771253728014997e-19 1.079967007749232932e-20
-3.474010622946786553e-05 5.344631727610428732e-06 9.873278236914540009e-06
0.000000000000000000e+00 0.000000000000000000e+00 2.032879073410320814e-20
3.216526085309626566e-05 5.360876808849364339e-06 1.242963723206884168e-05
0.000000000000000000e+00 0.000000000000000000e+00 -1.694065894508600678e-21
2.624263296406291066e-06 -1.049705318562507956e-05 2.729514498133927502e-07
0.000000000000000000e+00 -0.000000000000000000e+00 -1.111730743271269195e-20
-3.049318610115481221e-20 5.285485590866834116e-19 -2.710505431213761085e-20
-2.012771208222777478e-06 8.051084832891021822e-06 -1.286236146430985720e-07
2.535260442990875626e-05 1.382869332540468744e-05 -1.244582399286380263e-05
-2.583450489125616034e-20 -2.066760391300492827e-19 3.134021904840911255e-20
-0.000000000000000000e+00 0.000000000000000000e+00 -2.075230720773035831e-20
0.000000000000000000e+00 -0.000000000000000000e+00 1.175390266299358907e-05
3.820146677289569439e-05 -1.528058670915824252e-04 6.168413311270461640e-05
2.608501955286654679e-06 -1.043400782114653401e-05 2.713121017664529132e-07
0.000000000000000000e+00 -0.000000000000000000e+00 0.000000000000000000e+00
-1.221078863681454812e-04 -1.899456010171147503e-04 3.065031289139792393e-05
-2.456395547037470983e-20 3.438953765852459377e-19 -3.176373552203626272e-20
-1.736440367898456718e-04 5.033160486662169239e-06 -2.906852045772742725e-06
-1.046085689859060919e-19 5.980052607615360394e-19 -3.726944967918921492e-20
5.543997197428056235e-06 -2.217598878971214701e-05 7.989878313940730822e-07
0.000000000000000000e+00 0.000000000000000000e+00 1.151882460973370201e-05
-2.428842504743822790e-06 9.715370018975272526e-06 -2.850967538990888451e-07
0.000000000000000000e+00 0.000000000000000000e+00 0.000000000000000000e+00
0.000000000000000000e+00 -0.000000000000000000e+00 0.000000000000000000e+00
-4.271847775747833649e-04 -3.450338588104017151e-04 3.837809766447232527e-05
-1.026071017351846063e-05 4.104284069407340886e-05 -6.556977891633908044e-07
1.233173758071980358e-04 -9.735582300568109413e-06 3.029570909307550044e-06
-3.548833064292376940e-05 8.189614763751597523e-06 9.772429346210670820e-06
0.000000000000000000e+00 -0.000000000000000000e+00 -6.776263578034402713e-21
2.648144260579299957e-06 -1.059257704231731333e-05 3.462413217709030385e-07
2.428842504743822790e-06 -9.715370018975272526e-06 2.850967538990887392e-07
0.000000000000000000e+00 -0.000000000000000000e+00 0.000000000000000000e+00
-0.000000000000000000e+00 0.000000000000000000e+00 -1.111730743271269195e-20
-1.931664152554984511e-06 7.726656610219844869e-06 -9.437264009487899064e-06
4.616520723745761172e-05 2.518102212952233397e-05 3.725983327935186804e-05
-6.828664462638156865e-04 7.152127516131544281e-04 1.185171126526030701e-04
-0.000000000000000000e+00 0.000000000000000000e+00 -5.806357961968360547e-05
0.000000000000000000e+00 -0.000000000000000000e+00 -1.037615360386517915e-20
2.632191584310802159e-06 -1.052876633724332214e-05 3.441555306759259033e-07
-3.148235739286710586e-05 4.843439598902638056e-06 -1.138467313207306758e-05
0.000000000000000000e+00 0.000000000000000000e+00 0.000000000000000000e+00
0.000000000000000000e+00 -0.000000000000000000e+00 -2.530510929922222263e-20
-1.942219694372286530e-06 7.768878777489052946e-06 -1.500806127469098688e-07
8.342009475154001270e-05 -6.585796954068789530e-06 -1.138750033934161123e-05
3.010881993703032743e-05 2.509068328085924852e-06 -9.369089234193305116e-06
2.509068328085814738e-06 -1.003627331234347918e-05 3.951447179793311703e-07
0.000000000000000000e+00 0.000000000000000000e+00 1.016439536705160407e-20
0.000000000000000000e+00 0.000000000000000000e+00 6.776263578034402713e-21
-2.443171959049095927e-06 9.772687836196363380e-06 -2.867787406477353192e-07
2.577355942482086408e-06 -1.030942376992824399e-05 2.680725833223392256e-07
0.000000000000000000e+00 0.000000000000000000e+00 2.519923018081543509e-20
6.653041078056304964e-05 1.631068135265416439e-04 2.353239275228674539e-05
-2.265310054849827717e-06 9.061240219399309173e-06 -1.447617922751626459e-07
-5.675120746603812272e-20 9.486769009248163798e-20 5.717472393966527289e-21
-2.509068328085814738e-06 1.003627331234347918e-05 -3.951447179793308526e-07
-4.209489641588299728e-05 2.806326427725535863e-05 1.004724889498554468e-05
-0.000000000000000000e+00 0.000000000000000000e+00 -6.670384459627615170e-21
-1.265779943818345044e-05 5.063119775273368654e-05 -5.834433275797869901e-05
2.561968742825321905e-06 -1.024787497130118598e-05 2.664721499890634219e-07
2.207774287546286133e-06 -8.831097150185312244e-06 2.001164394326593681e-07
-1.487907295468451561e-05 -3.347791414804164540e-05 2.922255895842762113e-05
-2.265310054849827717e-06 9.061240219399310867e-06 -1.447617922751626459e-07
1.228197773518735492e-19 -4.302927372051845722e-19 1.376428539288238051e-20
-2.516535793348027726e-06 1.006614317339203636e-05 -3.963207439256713668e-07
8.497416978361696494e-05 -5.664944652241136417e-05 -8.012715831645912489e-06
0.000000000000000000e+00 -0.000000000000000000e+00 -8.364450354136215848e-21
-7.872789889218798236e-06 3.149115955687524038e-05 -9.241055511676313034e-07
2.561968742825321905e-06 -1.024787497130118767e-05 2.664721499890634219e-07
-2.490765928453208882e-05 3.831947582235696786e-06 -1.593127084389934448e-05
-2.538720592287654177e-05 3.905723988133909898e-06 2.948508317673760555e-05
-2.278366596952536433e-06 9.113466387810145730e-06 -1.455961541902833625e-07
-1.147729643529576959e-19 6.318865786517080529e-19 -3.981054852095211594e-20
2.516535793348027726e-06 -1.006614317339203636e-05 3.963207439256713668e-07
1.934906756862002451e-03 -2.197089244241687798e-03 2.605331912886100706e-03
-0.000000000000000000e+00 0.000000000000000000e+00 1.694065894508600678e-21
-2.632191584310840276e-06 1.052876633724328487e-05 -3.089658036129360846e-07
4.529804551720404565e-05 7.046362636009511737e-05 8.816027812929248130e-06
4.069834662966902823e-05 2.219909816163760679e-05 7.571831431781239937e-06
-3.402858651477424801e-05 -6.405380991016335415e-05 1.283805763966482189e-05
-2.284932494926448064e-06 9.139729979705724493e-06 -1.460157396490355894e-07
8.427977825180288374e-20 -5.217722955086490089e-19 3.621065849512133950e-20
-2.585095750117143038e-06 1.034038300046857384e-05 -4.071180205398537220e-07
1.613710822458691400e-03 5.629223799274505995e-04 -1.167557207864859063e-04
0.000000000000000000e+00 -0.000000000000000000e+00 1.503483481376383102e-20
2.632191584310840276e-06 -1.052876633724328487e-05 3.089658036129609662e-07
1.514091845012311332e-04 -2.129191657048680930e-05 -1.433178134135496072e-04
4.069834662966902823e-05 2.219909816163760679e-05 7.571831431781239937e-06
-2.444023494727839182e-05 3.760036145735100227e-06 1.016315652332538040e-05
-2.298140197209442962e-06 9.192560788837702391e-06 -1.468597612655137661e-07
-2.608501955286654679e-06 1.043400782114654418e-05 -4.456772057294419343e-07
0.000000000000000000e+00 0.000000000000000000e+00 -6.776263578034402713e-21
-6.469451464248657290e-06 2.587780585699437166e-05 -1.425182101977101828e-05
0.000000000000000000e+00 0.000000000000000000e+00 -1.503483481376383102e-20
9.867933835512598950e-20 -3.167903222731083268e-19 1.630538423464528153e-20
-3.330585210927201163e-05 2.220390140618136367e-05 -3.138230557033976173e-05
1.221078863681454812e-04 1.899456010171147503e-04 -3.065031289139792393e-05
-1.885099202794210731e-06 7.540396811176903064e-06 -1.456667565795714333e-07
-2.304782220900792674e-06 9.219128883603240154e-06 -1.472842114425982813e-07
-2.624263296406291066e-06 1.049705318562508803e-05 -4.483701193592463059e-07
-0.000000000000000000e+00 0.000000000000000000e+00 6.670384459627615170e-21
0.000000000000000000e+00 0.000000000000000000e+00 -1.182546354893244692e-05
2.608501955286655103e-06 -1.043400782114652554e-05 3.410581433516485852e-07
2.600668616081567594e-06 -1.040267446432627885e-05 3.052656477165185823e-07
0.000000000000000000e+00 0.000000000000000000e+00 2.202285662861180882e-20
-2.990483910921142062e-04 1.265204731543558665e-04 6.380611367938706258e-05
1.885099202794210731e-06 -7.540396811176903064e-06 1.456667565795713274e-07
0.000000000000000000e+00 0.000000000000000000e+00 1.069197099802873508e-05
4.023406499457926611e-20 -2.270048298641524909e-19 1.461131834013668085e-20
0.000000000000000000e+00 -0.000000000000000000e+00 1.334076891925523034e-20
2.680438404424701651e-06 -1.072175361769872868e-05 3.862984759318025075e-07
-1.665694153473401909e-05 -5.235038768059245426e-05 -4.215007879270584102e-05
2.585095750117143038e-06 -1.034038300046857893e-05 3.034377097062692239e-07
-0.000000000000000000e+00 0.000000000000000000e+00 -2.202285662861180882e-20
8.758075688819312392e-05 -1.512758528068743849e-04 -4.413844489405246898e-05
-3.576080707529726357e-04 5.821526733187935485e-05 -3.456781658929425371e-05
0.000000000000000000e+00 -0.000000000000000000e+00 1.081665765278530737e-05
-8.046812998915853221e-21 1.101142831430590441e-19 -1.058791184067875424e-20
-0.000000000000000000e+00 0.000000000000000000e+00 6.670384459627615170e-21
-3.187402728188199451e-05 -5.312337880313652198e-06 -1.231709570297871360e-05
0.000000000000000000e+00 0.000000000000000000e+00 2.498747194400186000e-20
0.000000000000000000e+00 0.000000000000000000e+00 -1.334076891925523034e-20
-4.403004403004348678e-06 1.761201761201729307e-05 -4.579595488686211775e-07
1.006313244603683553e-04 -2.780602386404910529e-04 -1.020152529972229079e-04
-1.782900438462609342e-05 -1.782900438462583592e-05 -5.653796577584549031e-06
-0.000000000000000000e+00 0.000000000000000000e+00 -1.081665765278532092e-05
2.414043899674755966e-20 -7.115076756936122848e-20 1.058791184067875424e-21
0.000000000000000000e+00 -0.000000000000000000e+00 -1.334076891925523034e-20
2.648144260579299957e-06 -1.059257704231723710e-05 3.816443199070100980e-07
-0.000000000000000000e+00 0.000000000000000000e+00 -2.498747194400186000e-20
0.000000000000000000e+00 -0.000000000000000000e+00 -1.334076891925523034e-20
0.000000000000000000e+00 -0.000000000000000000e+00 0.000000000000000000e+00
0.000000000000000000e+00 -0.000000000000000000e+00 1.871198475474457410e-04
5.051043183393081958e-05 -2.059271451691236656e-04 -3.923134436171262516e-04
-2.095164735128319763e-04 -4.988487464591225631e-06 -9.669529378222933960e-06
-3.516505770736374202e-05 5.410008878055889029e-06 9.994051160023791064e-06
-0.000000000000000000e+00 0.000000000000000000e+00 -9.952637130238028984e-21
-0.000000000000000000e+00 0.000000000000000000e+00 -1.144932959721064387e-05
0.000000000000000000e+00 0.000000000000000000e+00 -2.498747194400186000e-20
0.000000000000000000e+00 -0.000000000000000000e+00 8.470329472543003391e-22
0.000000000000000000e+00 0.000000000000000000e+00 0.000000000000000000e+00
4.668610916434900798e-05 2.334305458217363324e-05 8.001237652839265847e-05
6.030258869570820877e-06 1.266354362609871571e-04 5.238384300769239384e-04
-1.233173758071980358e-04 9.735582300568109413e-06 -3.029570909307550891e-06
-8.016947591415681215e-06 3.206779036566265032e-05 -1.369740510939727553e-06
0.000000000000000000e+00 0.000000000000000000e+00 -9.952637130238028984e-21
0.000000000000000000e+00 0.000000000000000000e+00 1.016439536705160407e-20
2.838874088810126943e-05 2.365728407341769629e-06 -1.049934303990961297e-05
0.000000000000000000e+00 0.000000000000000000e+00 -8.470329472543003391e-22
1.998351126556316835e-05 3.108546196865388068e-05 -3.251862287759724093e-05
-7.499857043374854535e-06 -6.374878486868652274e-05 3.003903303355515784e-05
-4.616520723745761172e-05 -2.518102212952233059e-05 -3.725983327935186804e-05
0.000000000000000000e+00 0.000000000000000000e+00 -1.127068125985085331e-05
2.531559887636686360e-05 2.531559887636682633e-05 -1.098927133042262364e-05
-5.217051241928058467e-06 2.086820496771230502e-05 -8.216158239293253842e-07
-0.000000000000000000e+00 0.000000000000000000e+00 -1.005851624864481653e-20
-3.148235739286710586e-05 4.843439598902638056e-06 -1.138467313207306588e-05
2.244799592938321380e-05 3.491910477904052167e-05 1.201027803601498271e-05
4.341025886558790719e-05 3.906923297902913680e-05 1.802280199292547082e-05
-1.572844662615689802e-04 -1.875314790041784213e-04 -1.906936666999946078e-05
-7.902956344882728701e-05 -1.317159390813838035e-05 3.514244647389118658e-05
-2.509068328085814738e-06 1.003627331234347918e-05 -4.622321064308147148e-07
1.363723045079423546e-19 -6.318865786517080529e-19 3.366955965335843848e-20
3.538079425771603755e-05 1.306367787977205685e-04 -1.491276463848980572e-05
0.000000000000000000e+00 -0.000000000000000000e+00 -1.005851624864481653e-20
-3.651902737401286736e-05 1.565101173171979933e-05 3.416091370801776009e-05
-6.306623192701712414e-05 -8.108515533473685424e-05 -1.956426289515902599e-05
9.859512958966437486e-06 8.380586015121445690e-05 1.991259135617166475e-04
2.160068593344856552e-03 1.961897162762760941e-03 -1.457685988815807894e-03
-2.506203256647769408e-05 -1.139183298476257882e-05 1.195868328381764512e-05
2.710505431213761085e-20 -2.032879073410320814e-20 -5.717472393966527289e-21
-1.761828530288944705e-19 8.029872339970767214e-19 -4.213988912590144187e-20
3.880798038199631149e-05 -1.663199159228413059e-05 -1.036090064476526503e-05
-0.000000000000000000e+00 0.000000000000000000e+00 -8.364450354136215848e-21
2.672315863805214366e-06 -1.068926345522088118e-05 1.190323796126502621e-05
0.000000000000000000e+00 -0.000000000000000000e+00 1.018173553786087507e-05
4.663241708892402343e-06 9.326483417788494361e-06 -2.233992024017572537e-05
-2.522573653549176325e-04 -5.291252053786028777e-04 4.547492581693897895e-04
0.000000000000000000e+00 0.000000000000000000e+00 6.564505341220827628e-21
9.783230540787168916e-20 -3.913292216314867566e-19 1.799945012915388221e-20
-2.585095750117139311e-05 -2.585095750117143038e-05 1.122166564255350231e-05
1.783004353970302214e-19 -5.844527336054672340e-19 1.291725244562808017e-20
0.000000000000000000e+00 -0.000000000000000000e+00 -1.164670302474662966e-20
2.656168940156826099e-06 -1.062467576062732981e-05 1.206568292094246839e-05
-0.000000000000000000e+00 0.000000000000000000e+00 -1.018173553786087338e-05
-5.022364085241776013e-05 7.726713977295020995e-06 3.896205852882537215e-05
-5.608223276219689336e-04 -3.595014920653650430e-04 -9.041366402049946403e-06
-0.000000000000000000e+00 0.000000000000000000e+00 -6.352747104407252543e-21
-2.248872474960167400e-19 5.675120746603812272e-19 -1.058791184067875424e-21
0.000000000000000000e+00 0.000000000000000000e+00 3.734814690121467172e-05
-2.806326427725504014e-06 1.122530571090213464e-05 -4.419588946337970943e-07
0.000000000000000000e+00 -0.000000000000000000e+00 1.694065894508600678e-21
0.000000000000000000e+00 -0.000000000000000000e+00 -3.483814777181012262e-05
0.000000000000000000e+00 0.000000000000000000e+00 -1.270549420881450509e-20
2.758724632438790448e-05 1.018606018131248644e-04 -1.409605019409245193e-05
-5.296626929794138951e-05 7.222673086082899426e-06 -2.169537786842340850e-05
0.000000000000000000e+00 0.000000000000000000e+00 -6.352747104407252543e-21
1.732182377135044193e-19 -5.387129544537350156e-19 1.334076891925523034e-20
-8.762207016685654641e-05 -1.265652124632372759e-04 -3.875962013515789854e-05
2.806326427725504014e-06 -1.122530571090213464e-05 4.419588946337969884e-07
0.000000000000000000e+00 0.000000000000000000e+00 -1.694065894508600678e-21
-2.561968742825285059e-06 1.024787497130119614e-05 -3.349739880325079087e-07
0.000000000000000000e+00 -0.000000000000000000e+00 -1.259961509040771754e-20
-2.347493624648047509e-05 9.389974498592203590e-05 -2.441644438470852166e-06
-2.444023494727839182e-05 3.760036145735100227e-06 1.016315652332538040e-05
1.046085689859060919e-19 -4.319868030996931729e-19 9.740878893424453899e-21
-6.606856988583542645e-20 4.167402100491157668e-19 -3.049318610115481221e-20
-1.972995507515493564e-04 -1.294778301807043125e-04 3.506814875991819905e-05
-1.108799439485611247e-05 4.435197757942433469e-05 -1.746210881970624673e-06
4.982556057918963345e-05 3.796233186985872898e-05 1.028928911425853902e-05
2.561968742825285059e-06 -1.024787497130119614e-05 3.349739880325079087e-07
0.000000000000000000e+00 0.000000000000000000e+00 1.249373597200093000e-20
4.054466031200542860e-04 1.755541992890953377e-04 8.925569784711613781e-05
4.226721375687881563e-05 2.305484386738829673e-05 -1.191372413040262783e-05
6.988021814847977797e-20 -1.829591166069288732e-19 -6.564505341220827628e-21
3.134021904840911255e-20 -3.472835083742631390e-19 3.303428494291771322e-20
5.154711884964135547e-06 -2.061884753985654219e-05 8.807114691155222557e-07
0.000000000000000000e+00 0.000000000000000000e+00 -3.738556603170832971e-05
0.000000000000000000e+00 0.000000000000000000e+00 1.122318655111947949e-20
2.554321074936273636e-06 -1.021728429974507252e-05 3.339740656801790447e-07
-4.378058202420923976e-06 1.751223280968356377e-05 -5.138950670755825118e-07
-1.456387558748095386e-04 -3.640968896870247273e-05 1.022537882574233218e-04
-6.603595989338497925e-05 6.992042812240755573e-05 9.931359680725714711e-06
0.000000000000000000e+00 -0.000000000000000000e+00 1.038399134667391357e-05
-2.541098841762901017e-20 1.948175778684890780e-19 -1.609362599783170644e-20
5.154711884964135547e-06 -2.061884753985654219e-05 8.807114691155221498e-07
-2.585095750117143038e-06 1.034038300046860942e-05 1.064105590188558870e-05
-0.000000000000000000e+00 0.000000000000000000e+00 -1.122318655111947949e-20
2.539116782823665070e-06 -1.015646713129463826e-05 3.319861248130525452e-07
-2.004060701203626534e-05 -3.117427757427863573e-05 3.261153322867616275e-05
-1.269178765074646361e-04 -8.076592141383942319e-05 -2.754360608745886715e-05
-4.616520723745761172e-05 -2.518102212952233397e-05 -3.725983327935187482e-05
0.000000000000000000e+00 0.000000000000000000e+00 1.081665765278532769e-05
-2.680438404424701651e-06 1.340219202212343160e-05 -8.195404586790391679e-07
0.000000000000000000e+00 -0.000000000000000000e+00 -4.589623148911941264e-07
-2.600668616081567594e-06 1.040267446432630934e-05 -1.059807229350267211e-05
-0.000000000000000000e+00 0.000000000000000000e+00 2.150808653644186726e-07
2.784715876400359130e-05 -0.000000000000000000e+00 9.910312383659956756e-06
0.000000000000000000e+00 0.000000000000000000e+00 2.066115702479337301e-05
-2.990483910921142062e-04 1.265204731543558665e-04 6.380611367938706258e-05
-5.101932066887999989e-05 2.040772826755187375e-06 2.167011541586626394e-05
4.762297828501191994e-04 2.323072111463991425e-05 -1.752863502286491844e-05
0.000000000000000000e+00 0.000000000000000000e+00 1.466357480067625898e-05
0.000000000000000000e+00 -0.000000000000000000e+00 2.294811574455918751e-07
0.000000000000000000e+00 0.000000000000000000e+00 9.580051295625317850e-06
0.000000000000000000e+00 0.000000000000000000e+00 2.150808653644187785e-07
1.487703958348483419e-05 6.198766493118746388e-05 4.175217292196685523e-05
-2.164364181400381168e-05 -1.947927763260343830e-05 -4.114925061512481893e-05
2.769376295264388936e-04 2.469984263343922778e-04 6.142840056004662060e-05
1.332247559792480165e-04 1.127286396747478723e-04 -2.913161236514527522e-05
-6.511460889341274806e-06 2.604584355736440127e-05 -1.363924722114910986e-05
2.068076600093714430e-05 4.394662775199142994e-05 1.076443547177756040e-05
-0.000000000000000000e+00 0.000000000000000000e+00 -1.323488980084844280e-20
-0.000000000000000000e+00 0.000000000000000000e+00 -9.580051295625319544e-06
2.838874088810126943e-05 2.365728407341769629e-06 -1.049934303990961466e-05
4.267302017853673480e-05 4.941086546988498411e-05 8.334030031490739069e-06
-2.080553655354425174e-05 -1.716456765667399430e-04 -3.899716896588576343e-05
-1.947526305559068948e-05 3.895052611118150432e-06 7.764589503259570590e-06
-1.332247559792480436e-04 -1.127286396747478723e-04 2.913161236514527522e-05
6.511460889341274806e-06 -2.604584355736440127e-05 1.363924722114910986e-05
1.672890070827243170e-19 -5.844527336054672340e-19 3.536362554786703916e-20
0.000000000000000000e+00 0.000000000000000000e+00 -1.334076891925523034e-20
0.000000000000000000e+00 0.000000000000000000e+00 -1.672890070827243170e-20
-2.086801564229305109e-05 -4.434453323987278396e-05 3.542854801382888284e-05
0.000000000000000000e+00 0.000000000000000000e+00 -1.018173553786087338e-05
-2.268240960847943725e-04 9.294255644450080938e-04 2.349864500837264630e-04
-1.947526305559068948e-05 3.895052611118150432e-06 7.764589503259570590e-06
2.506203256647769408e-05 1.139183298476257882e-05 -1.195868328381755195e-05
-2.727457256972256109e-05 1.487703958348487654e-05 6.395668487606114072e-06
-3.065185289923524805e-05 -2.554321074936199520e-06 -1.251583178041330567e-05
0.000000000000000000e+00 -0.000000000000000000e+00 8.668300289596798418e-06
-0.000000000000000000e+00 0.000000000000000000e+00 1.662302158986564415e-20
-2.412394563982223821e-05 -5.360876808849374503e-06 -5.366610366933748913e-06
0.000000000000000000e+00 0.000000000000000000e+00 1.018173553786087507e-05
4.587148930559596812e-05 -2.110088508057412853e-04 5.316922624057720832e-06
1.055103689415816357e-05 6.119601398611737380e-05 9.621445405657305877e-05
0.000000000000000000e+00 0.000000000000000000e+00 0.000000000000000000e+00
-7.284483346386982916e-20 1.558540622947912624e-19 2.752857078576476102e-21
8.762207016685654641e-05 1.265652124632372759e-04 3.875962013515790532e-05
-0.000000000000000000e+00 0.000000000000000000e+00 -4.637505386217294356e-20
-0.000000000000000000e+00 0.000000000000000000e+00 -1.334076891925523034e-20
1.237005557371684944e-04 6.328865642366785773e-05 -1.554910293636910772e-05
-1.966102878288001715e-05 -9.830514391440425316e-06 -3.155621404450145034e-05
4.587148930559597490e-05 -2.110088508057412853e-04 5.316922624057720832e-06
5.608223276219689336e-04 3.595014920653650430e-04 9.041366402049932850e-06
-0.000000000000000000e+00 0.000000000000000000e+00 0.000000000000000000e+00
3.684593320556206475e-20 3.049318610115481221e-20 -1.482307657695025593e-20
-2.747906385199852530e-03 -2.712019548079708329e-03 7.005301143299645390e-04
5.108642149872584541e-06 -2.043456859949011455e-05 8.714742490958950505e-07
0.000000000000000000e+00 -0.000000000000000000e+00 -2.509335106240864754e-20
6.211348615244907103e-04 -9.695763692089560395e-04 5.379172105843614245e-04
1.618980228928200188e-04 -8.468511966701352828e-04 -2.419080124869928193e-04
2.080553655354424835e-05 1.716456765667399701e-04 3.899716896588576343e-05
-8.955134536529866119e-04 1.791026907305952732e-04 6.151985872916110277e-04
0.000000000000000000e+00 0.000000000000000000e+00 0.000000000000000000e+00
-2.539116782823591378e-06 1.015646713129466028e-05 -5.010342742577524167e-07
2.971280144498756139e-04 1.041877453265797752e-04 -2.743378479550724093e-04
0.000000000000000000e+00 -0.000000000000000000e+00 -7.284483346386982916e-20
-0.000000000000000000e+00 0.000000000000000000e+00 -2.509335106240864754e-20
2.427104286933316323e-05 5.393565082074022721e-06 -2.710122240772121414e-05
6.969784545545035280e-05 2.323261515181174273e-05 2.004185772595345029e-04
2.239494766387854880e-06 -8.957979065551419518e-06 8.226251096427110400e-06
1.014279108965868945e-04 1.612443711689349459e-04 8.940968393905409739e-05
0.000000000000000000e+00 0.000000000000000000e+00 8.125897958501779772e-06
-2.554321074936199520e-06 1.021728429974509454e-05 -5.040344794928071462e-07
-8.762207016685654641e-05 -1.265652124632372759e-04 -3.875962013515790532e-05
0.000000000000000000e+00 -0.000000000000000000e+00 2.975203227230729941e-20
0.000000000000000000e+00 0.000000000000000000e+00 -2.519923018081543509e-20
0.000000000000000000e+00 0.000000000000000000e+00 8.212073958565400725e-06
2.942002974906723369e-04 -8.499119705286167434e-04 -2.762796594448734249e-04
-2.239494766387854880e-06 8.957979065551419518e-06 -8.226251096427112094e-06
0.000000000000000000e+00 0.000000000000000000e+00 -2.494384991412330719e-05
-2.092376279816875209e-05 0.000000000000000000e+00 8.817072237944938753e-06
-1.914294460794718766e-19 -2.569662342653031189e-06 3.218948683243833994e-07
2.026849112943631716e-04 -2.533561391179540187e-04 -2.068623520908658748e-05
0.000000000000000000e+00 0.000000000000000000e+00 -2.985791139071408695e-20
1.444559390576468063e-05 1.035267563246505839e-04 -5.950664136622390633e-05
-0.000000000000000000e+00 0.000000000000000000e+00 -8.212073958565400725e-06
0.000000000000000000e+00 -0.000000000000000000e+00 -9.861245977417370343e-06
-1.572844662615689531e-04 -1.875314790041783942e-04 -1.906936666999945739e-05
7.863802141011471195e-04 1.312989885566629572e-02 3.709018530823181108e-03
2.579694468612023884e-05 9.380707158589203479e-06 -1.445042757150347376e-05
-3.619134050163999914e-05 2.068076600093714430e-05 1.163431327967113314e-05
0.000000000000000000e+00 -0.000000000000000000e+00 1.627996146976031189e-05
-2.305771868542775188e-05 2.561968742825285059e-06 9.388519413046338624e-06
2.318143277253756731e-06 -1.854514621803005385e-05 1.528301037092134502e-05
0.000000000000000000e+00 0.000000000000000000e+00 1.655328798185939698e-05
1.820563868241906801e-05 -2.518446684401253366e-04 -8.011414018681507689e-05
-4.587148930559597490e-05 2.110088508057412853e-04 -5.316922624057720832e-06
3.236625795972512755e-04 -9.925652440982292001e-04 -4.203344188794520299e-04
6.167299860993594185e-05 -2.852376185709541495e-04 -2.477669432624389273e-04
3.442587538753116329e-05 -2.118515408463455212e-05 -2.000481812677763489e-05
-0.000000000000000000e+00 0.000000000000000000e+00 -1.795583985635329643e-05
2.361836966765646755e-05 7.872789889218798236e-06 -1.720962399446730040e-05
-2.318143277253756731e-06 1.854514621803005385e-05 -1.678422508148514827e-05
-0.000000000000000000e+00 0.000000000000000000e+00 -1.655328798185939698e-05
-2.271838325901223579e-05 1.363102995540511547e-05 -2.716669129659843646e-05
2.990483910921142062e-04 -1.265204731543558665e-04 -6.380611367938704903e-05
0.000000000000000000e+00 -0.000000000000000000e+00 1.445739105880795447e-05
1.118804149627623595e-04 -7.831629047393338060e-04 -3.090621676972650674e-04
-5.312337880313652198e-06 2.921785834172520229e-05 -1.566003345733977426e-07
0.000000000000000000e+00 0.000000000000000000e+00 6.843394965471151742e-07
0.000000000000000000e+00 0.000000000000000000e+00 -1.658984492657062713e-05
-4.359095639012365949e-05 -6.538643458518550618e-05 1.031176708348995204e-04
1.356282778073707185e-04 -1.145825105613988178e-04 1.538007288507618601e-04
-1.986996858791691570e-05 -2.207774287546320014e-06 1.786319621077452432e-05
0.000000000000000000e+00 0.000000000000000000e+00 1.015793458114706024e-04
0.000000000000000000e+00 -0.000000000000000000e+00 6.378260761239257851e-07
-2.450378955978409739e-06 9.801515823913711803e-06 -5.084208742885811504e-07
2.696782541037026607e-06 -1.078713016414795735e-05 5.234930814954557666e-07
0.000000000000000000e+00 -0.000000000000000000e+00 6.843394965471149624e-07
0.000000000000000000e+00 -0.000000000000000000e+00 7.009793630945283869e-07
-2.427104286933316323e-05 -5.393565082074024415e-06 2.710122240772121414e-05
3.897611571034331925e-05 -7.308021695689361093e-05 -3.489938596049328728e-05
2.258819195093835307e-06 -9.035276780375170127e-06 2.874860793755356633e-07
1.947526305559068948e-05 -3.895052611118150432e-06 -7.764589503259570590e-06
0.000000000000000000e+00 0.000000000000000000e+00 8.079130297569088795e-06
0.000000000000000000e+00 0.000000000000000000e+00 -6.564505341220827628e-21
-5.344631727610428732e-06 2.939547450185747238e-05 -2.043892922036014549e-06
0.000000000000000000e+00 -0.000000000000000000e+00 3.282252670610413814e-21
0.000000000000000000e+00 -0.000000000000000000e+00 0.000000000000000000e+00
1.237005557371684944e-04 6.328865642366785773e-05 -1.554910293636910433e-05
2.181362392557276836e-04 -1.106960020103692324e-04 4.422529875851521864e-05
-2.258819195093835307e-06 9.035276780375170127e-06 -2.874860793755357692e-07
-2.857081957457278164e-05 -6.530473045616637547e-05 2.398246381371128941e-04
0.000000000000000000e+00 0.000000000000000000e+00 2.562274665444258526e-20
-0.000000000000000000e+00 0.000000000000000000e+00 6.564505341220827628e-21
0.000000000000000000e+00 0.000000000000000000e+00 -4.730185419573100572e-07
-0.000000000000000000e+00 0.000000000000000000e+00 3.282252670610413814e-21
0.000000000000000000e+00 0.000000000000000000e+00 0.000000000000000000e+00
-6.421462105969132951e-04 1.834703458848321997e-04 -9.965530324805987883e-04
1.764289103565202686e-04 -1.764289103565196994e-04 1.705086354234329883e-04
1.590286828130898180e-05 1.135919162950556732e-05 -7.768289954755910412e-06
0.000000000000000000e+00 0.000000000000000000e+00 -2.494384991412330719e-05
-0.000000000000000000e+00 0.000000000000000000e+00 -2.562274665444258526e-20
-0.000000000000000000e+00 0.000000000000000000e+00 4.455234465415005813e-07
-0.000000000000000000e+00 0.000000000000000000e+00 4.730185419573100572e-07
-0.000000000000000000e+00 0.000000000000000000e+00 4.562263310314089161e-07
0.000000000000000000e+00 0.000000000000000000e+00 8.825664102191918669e-06
2.715777444034860478e-03 1.777737324089642538e-04 3.658363547181641556e-04
1.342833099579220015e-04 2.319438990182332017e-04 7.628591100344261054e-05
2.338379175764300570e-06 -9.353516703057054895e-06 -6.584975796564160714e-06
1.854514621803005385e-05 3.709029243606014835e-05 1.329895244833067102e-05
0.000000000000000000e+00 0.000000000000000000e+00 -2.562274665444258526e-20
0.000000000000000000e+00 0.000000000000000000e+00 4.455234465415004754e-07
0.000000000000000000e+00 0.000000000000000000e+00 4.730185419573100572e-07
0.000000000000000000e+00 -0.000000000000000000e+00 2.281131655156662357e-07
6.721369814338690055e-05 -1.551085341770483720e-05 1.313929646243978777e-05
0.000000000000000000e+00 0.000000000000000000e+00 -1.003697928269101691e-05
3.897611571034331925e-05 -7.308021695689361093e-05 -3.489938596049329406e-05
1.572844662615689802e-04 1.875314790041784213e-04 1.906936666999945400e-05
-5.296626929794138951e-05 7.222673086082899426e-06 -2.169537786842340511e-05
2.092376279816875209e-05 0.000000000000000000e+00 -1.267733863653755730e-05
6.924494343803905272e-20 -5.929230630780102373e-20 3.197549375884983780e-20
-0.000000000000000000e+00 0.000000000000000000e+00 1.915289584677678131e-05
0.000000000000000000e+00 0.000000000000000000e+00 1.003697928269101013e-05
0.000000000000000000e+00 0.000000000000000000e+00 2.150808653644509657e-07
-0.000000000000000000e+00 0.000000000000000000e+00 -6.649208635946257662e-20
0.000000000000000000e+00 0.000000000000000000e+00 -7.314285714285731379e-06
-1.615611003312596920e-04 -2.369562804858494709e-04 9.200199093997456950e-05
5.296626929794139629e-05 -7.222673086082900273e-06 2.169537786842340511e-05
-2.365728407341769629e-06 1.182864203670884814e-05 -1.009008467639352311e-05
0.000000000000000000e+00 0.000000000000000000e+00 -4.403126908093062261e-07
-5.510088957688097006e-06 2.755044478844040880e-05 -7.963109843930664176e-07
-0.000000000000000000e+00 0.000000000000000000e+00 -1.812901143820146909e-05
0.000000000000000000e+00 -0.000000000000000000e+00 2.150808653644508598e-07
0.000000000000000000e+00 0.000000000000000000e+00 -6.649208635946257662e-20
-4.583072692137321664e-06 9.166145384269954154e-06 -1.049082495116993766e-05
-4.341287731571430051e-04 -4.217250939240820722e-04 -7.914807617567023177e-05
1.332247559792480436e-04 1.127286396747478588e-04 -2.913161236514528199e-05
2.365728407341769629e-06 -1.182864203670884814e-05 1.009008467639352141e-05
-0.000000000000000000e+00 0.000000000000000000e+00 4.403126908093064379e-07
0.000000000000000000e+00 0.000000000000000000e+00 2.082877423336976924e-05
0.000000000000000000e+00 0.000000000000000000e+00 -6.270866598925821970e-06
-0.000000000000000000e+00 0.000000000000000000e+00 4.301617307288742970e-07
0.000000000000000000e+00 0.000000000000000000e+00 -1.655328798185940037e-05
-3.814622608695602754e-04 1.017232695652160084e-03 -1.307352537549407129e-04
-2.094217427640218373e-04 5.180432584162627131e-04 3.000748923196234786e-05
0.000000000000000000e+00 0.000000000000000000e+00 -1.637086928717950863e-05
-4.762297828501191994e-04 -2.323072111463991425e-05 1.752863502286491844e-05
0.000000000000000000e+00 0.000000000000000000e+00 4.403126908093064379e-07
5.510088957688097006e-06 -2.755044478844040880e-05 7.963109843930664176e-07
-2.656168940156826438e-05 5.312337880313652198e-06 -1.908535506118580322e-05
0.000000000000000000e+00 0.000000000000000000e+00 4.301617307288744029e-07
0.000000000000000000e+00 0.000000000000000000e+00 1.655328798185940037e-05
-1.998351126556320223e-05 -2.220390140618129676e-06 -3.204693839451669169e-05
-1.939771143310958226e-04 -6.465903811036511609e-05 2.037451240991050444e-05
0.000000000000000000e+00 0.000000000000000000e+00 1.615826059513822841e-05
9.514830445062842212e-05 -1.667893807428686998e-03 -5.340860794349168916e-04
-5.145885099331566544e-05 9.801685903488964067e-06 1.540489565259537733e-05
-5.412447479212329323e-05 3.350562725226686285e-05 -6.946491114442654739e-05
0.000000000000000000e+00 0.000000000000000000e+00 -1.986108195434509294e-05
-1.237005557371684944e-04 -6.328865642366785773e-05 1.554910293636910094e-05
7.594679662909996739e-06 -5.063119775273369332e-05 3.506278133143860901e-07
0.000000000000000000e+00 -4.032990455008832555e-04 -1.956647374495577613e-04
9.918160123838543779e-05 7.714124540763312430e-05 -4.387253637548433564e-04
0.000000000000000000e+00 0.000000000000000000e+00 7.484379698620041370e-06
2.201502201502160617e-05 6.604506604506523016e-06 -1.203850862941778448e-05
-3.037871865164020718e-05 1.265779943818345044e-05 1.337902325109152434e-05
0.000000000000000000e+00 -0.000000000000000000e+00 -7.983960793049656138e-06
0.000000000000000000e+00 0.000000000000000000e+00 -1.191664917260704018e-05
