ply
    format ascii 1.0
    element vertex 19546
    property float x
    property float y
    property float z
    property float nx
    property float ny
    property float nz
end_header
0.04918108419839 0.01359477124183 2.99084967320261 0.00000000000000 -0.00000000000000 1.00000000000000
0.04997803163445 0.01359402460457 2.99068541300527 0.00000000000000 0.00000000000000 -1.00000000000000
0.05077768014060 0.01359402460457 2.99068541300527 0.00000000000000 -0.00000000000000 1.00000000000000
0.05157732864675 0.01359402460457 2.99068541300527 0.00000000000000 0.00000000000000 1.00000000000000
0.05237697715290 0.01359402460457 2.99068541300527 0.00000000000000 0.00000000000000 -1.00000000000000
0.05317662565905 0.01359402460457 2.99068541300527 0.00000000000000 -0.00000000000000 1.00000000000000
0.05399110036807 0.01359775861122 2.99150689446794 0.00000000000000 0.00000000000000 1.00000000000000
0.05479096852167 0.01359775861122 2.99150689446794 0.00000000000000 0.00000000000000 -1.00000000000000
0.05558472946993 0.01359626476243 2.99117824773414 nan nan nan
0.05638760711931 0.01359701164579 2.99134256207427 nan nan nan
0.05719057298248 0.01359775861122 2.99150689446794 -0.20050090315483 0.00000000000000 0.97969351729717
0.05799681336190 0.01359925278831 2.99183561342783 nan nan nan
-0.05957708573626 0.01439446366782 2.99084967320261 0.00000000000000 0.00000000000000 -1.00000000000000
-0.05877739331027 0.01439446366782 2.99084967320261 0.00000000000000 0.00000000000000 1.00000000000000
-0.05797770088428 0.01439446366782 2.99084967320261 0.00000000000000 0.00000000000000 -1.00000000000000
-0.05717800845829 0.01439446366782 2.99084967320261 0.00000000000000 0.00000000000000 1.00000000000000
-0.05637831603230 0.01439446366782 2.99084967320261 0.00000000000000 0.00000000000000 -1.00000000000000
-0.05557862360631 0.01439446366782 2.99084967320261 0.00000000000000 0.00000000000000 1.00000000000000
-0.05477893118032 0.01439446366782 2.99084967320261 nan nan nan
-0.05397923875433 0.01439446366782 2.99084967320261 nan nan nan
-0.05317954632834 0.01439446366782 2.99084967320261 0.00000000000000 -0.00000000000000 1.00000000000000
-0.05236259814418 0.01438972162741 2.98986438258387 nan nan nan
-0.05156316916488 0.01438972162741 2.98986438258387 0.00000000000000 0.00000000000000 -1.00000000000000
-0.05076374018558 0.01438972162741 2.98986438258387 0.00000000000000 0.00000000000000 1.00000000000000
-0.04996156802460 0.01438893159108 2.98970023059185 0.00000000000000 0.00000000000000 -1.00000000000000
-0.04916218293620 0.01438893159108 2.98970023059185 -0.00000000000000 -0.00000000000000 -1.00000000000000
-0.04836279784781 0.01438893159108 2.98970023059185 0.00000000000000 0.99998841851456 -0.00481277848483
-0.04756863606413 0.01439051175049 2.99002855260268 0.00000000000000 0.00000000000000 -1.00000000000000
-0.04676916318911 0.01439051175049 2.99002855260268 0.00000000000000 0.99998841851456 -0.00481277848482
-0.04597221459557 0.01439130196035 2.99019274065125 nan nan nan
-0.04517517847337 0.01439209225700 2.99035694673256 -0.20178307696711 0.00000000000000 0.97943023735725
-0.04437318104442 0.01439130196035 2.99019274065125 -0.20176175356685 0.00000000000000 0.97943463018092
-0.04357605711148 0.01439209225700 2.99035694673256 -0.00044549304882 -0.99997557323171 0.00697527604096
-0.04277884562579 0.01439288264045 2.99052117084958 -0.18679727798709 -0.37359455597490 0.90858895254264
-0.04198615840932 0.01439525431177 2.99101395144458 0.00000000000000 -0.99998841851456 0.00481277848483
-0.04117963644352 0.01439288264045 2.99052117084958 -0.52137764187822 -0.00000000000000 -0.85332605406697
-0.04038890414721 0.01439604504257 2.99117824773414 0.00000000000000 0.99998841851456 -0.00481277848483
-0.03958912386707 0.01439604504257 2.99117824773414 nan nan nan
-0.03878934358693 0.01439604504257 2.99117824773414 0.00000000000000 -0.37940495409847 0.92523071760807
-0.03797913234487 0.01439209225700 2.99035694673256 0.27674468769361 -0.69186171923455 -0.66688810102683
-0.03718365553603 0.01439367311072 2.99068541300527 0.33058812319042 0.49588218478626 -0.80300208693193
-0.03636802810716 0.01438735177866 2.98937198067633 0.00000000000000 -0.20130967188080 -0.97952764943479
-0.03556873078612 0.01438735177866 2.98937198067633 0.00000000000000 0.99998841851456 -0.00481277848483
-0.03477134230030 0.01438814164150 2.98953609662366 0.00000000000000 0.00000000000000 -1.00000000000000
-0.03397200109800 0.01438814164150 2.98953609662366 0.00000000000000 0.00000000000000 1.00000000000000
-0.03314900153610 0.01437788018433 2.98740399385561 -0.00000000000000 0.38027926521398 0.92487171026490
-0.03235023041475 0.01437788018433 2.98740399385561 nan nan nan
-0.03155145929339 0.01437788018433 2.98740399385561 nan nan nan
-0.03075268817204 0.01437788018433 2.98740399385561 0.00000000000000 0.99998841851456 -0.00481277848483
-0.02996213576250 0.01438182516600 2.98822367337979 -0.47269840206286 0.75631744330023 0.45226114762052
-0.02919358382773 0.01439683586025 2.99134256207427 0.00000000000000 -0.00000000000000 1.00000000000000
-0.02836882546652 0.01438419319429 2.98871569703622 -0.56999718659607 0.42749788994745 -0.70167568104007
-0.02756365232660 0.01438103599649 2.98805970149254 -0.00000000000000 -0.99998841851456 0.00481277848483
-0.02676764350785 0.01438261442213 2.98838766326419 0.00218266844889 -0.99999750052322 -0.00048467077907
-0.02597145993414 0.01438419319429 2.98871569703622 -0.00000000000000 0.99998841851456 -0.00481277848483
-0.02517648350442 0.01438656200253 2.98920788274688 0.00000000000000 0.00000000000000 -1.00000000000000
-0.02437723005983 0.01438656200253 2.98920788274688 0.00000000000000 0.00000000000000 1.00000000000000
-0.02357797661525 0.01438656200253 2.98920788274688 0.00000000000000 0.00000000000000 -1.00000000000000
-0.02278497693828 0.01439051175049 2.99002855260268 0.00000000000000 -0.20135213618734 -0.97951892133475
-0.02198550406325 0.01439051175049 2.99002855260268 0.00000000000000 0.20135213618734 0.97951892133475
-0.02118021628150 0.01438656200253 2.98920788274688 0.00000000000000 0.00000000000000 -1.00000000000000
-0.02038096283691 0.01438656200253 2.98920788274688 0.00000000000000 0.00000000000000 1.00000000000000
-0.01958170939233 0.01438656200253 2.98920788274688 nan nan nan
-0.01878245594774 0.01438656200253 2.98920788274688 0.00000000000000 0.00000000000000 -1.00000000000000
-0.01798320250316 0.01438656200253 2.98920788274688 0.00000000000000 -0.00000000000000 1.00000000000000
-0.01718394905857 0.01438656200253 2.98920788274688 nan nan nan
-0.01638469561399 0.01438656200253 2.98920788274688 0.00000000000000 0.00000000000000 1.00000000000000
-0.01558544216940 0.01438656200253 2.98920788274688 nan nan nan
-0.01478618872482 0.01438656200253 2.98920788274688 0.00000000000000 -0.00000000000000 1.00000000000000
-0.01398693528023 0.01438656200253 2.98920788274688 0.00000000000000 0.00000000000000 -1.00000000000000
-0.01318768183565 0.01438656200253 2.98920788274688 nan nan nan
-0.01238842839106 0.01438656200253 2.98920788274688 0.00000000000000 -0.00000000000000 1.00000000000000
-0.01158917494648 0.01438656200253 2.98920788274688 0.00000000000000 0.00000000000000 -1.00000000000000
-0.01078992150189 0.01438656200253 2.98920788274688 0.00000000000000 0.00000000000000 1.00000000000000
-0.00999066805731 0.01438656200253 2.98920788274688 0.00000000000000 0.00000000000000 -1.00000000000000
-0.00919141461272 0.01438656200253 2.98920788274688 0.00000000000000 -0.00000000000000 1.00000000000000
-0.00839216116814 0.01438656200253 2.98920788274688 0.00000000000000 0.00000000000000 1.00000000000000
-0.00759290772355 0.01438656200253 2.98920788274688 0.00000000000000 0.00000000000000 -1.00000000000000
-0.00679365427897 0.01438656200253 2.98920788274688 0.00000000000000 0.00000000000000 1.00000000000000
-0.00599440083439 0.01438656200253 2.98920788274688 0.00000000000000 0.00000000000000 -1.00000000000000
-0.00519514738980 0.01438656200253 2.98920788274688 0.00000000000000 -0.00000000000000 1.00000000000000
-0.00439589394522 0.01438656200253 2.98920788274688 0.00000000000000 0.00000000000000 1.00000000000000
-0.00359664050063 0.01438656200253 2.98920788274688 0.00000000000000 0.00000000000000 -1.00000000000000
-0.00279738705605 0.01438656200253 2.98920788274688 0.00000000000000 -0.00000000000000 1.00000000000000
-0.00199813361146 0.01438656200253 2.98920788274688 0.00000000000000 0.00000000000000 1.00000000000000
-0.00119888016688 0.01438656200253 2.98920788274688 0.00000000000000 -0.00000000000000 1.00000000000000
-0.00039962672229 0.01438656200253 2.98920788274688 0.00000000000000 -0.00000000000000 1.00000000000000
0.00039962672229 0.01438656200253 2.98920788274688 0.00000000000000 0.00000000000000 -1.00000000000000
0.00119888016688 0.01438656200253 2.98920788274688 0.00000000000000 -0.00000000000000 1.00000000000000
0.00199824330259 0.01438735177866 2.98937198067633 0.00000000000000 0.00000000000000 1.00000000000000
0.00279754062363 0.01438735177866 2.98937198067633 -0.00000000000000 -0.00000000000000 -1.00000000000000
0.00359683794466 0.01438735177866 2.98937198067633 -0.00000000000000 -0.00000000000000 -1.00000000000000
0.00439637661268 0.01438814164150 2.98953609662366 0.99999891868687 0.00000000000000 -0.00147058664513
0.00519543258674 0.01438735177866 2.98937198067633 0.00000000000000 0.00000000000000 1.00000000000000
0.00599472990777 0.01438735177866 2.98937198067633 -0.00000000000000 -0.00000000000000 -1.00000000000000
0.00679402722881 0.01438735177866 2.98937198067633 -0.00000000000000 0.00000000000000 1.00000000000000
0.00759332454985 0.01438735177866 2.98937198067633 -0.00000000000000 -0.00000000000000 -1.00000000000000
0.00839216116814 0.01438656200253 2.98920788274688 0.99999605903271 0.00000000000000 -0.00280747556681
0.00919191919192 0.01438735177866 2.98937198067633 -0.00000000000000 0.00000000000000 1.00000000000000
0.00999121651296 0.01438735177866 2.98937198067633 -0.00000000000000 -0.00000000000000 -1.00000000000000
0.01079051383399 0.01438735177866 2.98937198067633 0.00000000000000 0.00000000000000 -1.00000000000000
0.01158981115503 0.01438735177866 2.98937198067633 0.00000000000000 0.00000000000000 1.00000000000000
0.01238910847606 0.01438735177866 2.98937198067633 0.00000000000000 0.00000000000000 -1.00000000000000
0.01318840579710 0.01438735177866 2.98937198067633 0.00000000000000 0.00000000000000 1.00000000000000
0.01398770311814 0.01438735177866 2.98937198067633 0.00000000000000 0.00000000000000 -1.00000000000000
0.01478700043917 0.01438735177866 2.98937198067633 0.00000000000000 0.00000000000000 1.00000000000000
0.01558629776021 0.01438735177866 2.98937198067633 -0.00000000000000 -0.00000000000000 -1.00000000000000
0.01638559508125 0.01438735177866 2.98937198067633 -0.00000000000000 -0.00000000000000 -1.00000000000000
0.01718489240228 0.01438735177866 2.98937198067633 -0.00000000000000 -0.00000000000000 -1.00000000000000
0.01798418972332 0.01438735177866 2.98937198067633 0.00000000000000 0.00000000000000 -1.00000000000000
0.01878348704436 0.01438735177866 2.98937198067633 0.00000000000000 0.00000000000000 -1.00000000000000
0.01958385945649 0.01438814164150 2.98953609662366 0.00000000000000 0.00000000000000 -1.00000000000000
0.02038320065880 0.01438814164150 2.98953609662366 0.00000000000000 0.00000000000000 -1.00000000000000
0.02118254186110 0.01438814164150 2.98953609662366 0.00000000000000 0.00000000000000 1.00000000000000
0.02198188306341 0.01438814164150 2.98953609662366 nan nan nan
0.02278122426572 0.01438814164150 2.98953609662366 0.00000000000000 0.00000000000000 1.00000000000000
0.02358056546802 0.01438814164150 2.98953609662366 0.00000000000000 0.00000000000000 1.00000000000000
0.02438124519600 0.01438893159108 2.98970023059185 nan nan nan
0.02518477843062 0.01439130196035 2.99019274065125 0.00000000000000 0.00000000000000 -1.00000000000000
0.02598429520619 0.01439130196035 2.99019274065125 0.00000000000000 0.00000000000000 -1.00000000000000
0.02678087080657 0.01438972162741 2.98986438258387 0.00000000000000 0.00000000000000 -1.00000000000000
0.02758029978587 0.01438972162741 2.98986438258387 0.00000000000000 0.00000000000000 1.00000000000000
0.02837972876517 0.01438972162741 2.98986438258387 -0.00000000000000 -0.00000000000000 -1.00000000000000
0.02917915774447 0.01438972162741 2.98986438258387 0.00000000000000 0.00000000000000 1.00000000000000
0.02997858672377 0.01438972162741 2.98986438258387 nan nan nan
0.03077970568856 0.01439051175049 2.99002855260268 nan nan nan
0.03157917856358 0.01439051175049 2.99002855260268 nan nan nan
0.03237865143861 0.01439051175049 2.99002855260268 nan nan nan
0.03318541300527 0.01439367311072 2.99068541300527 -0.00000000000000 0.20139461803392 0.97951018770964
0.03398506151142 0.01439367311072 2.99068541300527 nan nan nan
0.03478471001757 0.01439367311072 2.99068541300527 0.00000000000000 -0.00000000000000 1.00000000000000
0.03558631295656 0.01439446366782 2.99084967320261 0.00000000000000 0.00000000000000 -1.00000000000000
0.03638600538255 0.01439446366782 2.99084967320261 0.00000000000000 0.00000000000000 1.00000000000000
0.03716732542819 0.01438735177866 2.98937198067633 0.00000000000000 -0.85232272864866 0.52301621985260
0.03796662274923 0.01438735177866 2.98937198067633 0.00000000000000 0.00000000000000 1.00000000000000
0.03877656361540 0.01439130196035 2.99019274065125 0.17219910784726 -0.51659732354176 0.83873397007997
0.03957390731386 0.01439051175049 2.99002855260268 0.20168715639055 -0.00000000000000 0.97944999410235
0.04037559716655 0.01439130196035 2.99019274065125 -0.19689652051342 0.19689652051343 0.96044964491607
0.04118189806678 0.01439367311072 2.99068541300527 0.00000000000000 0.00000000000000 1.00000000000000
0.04198154657293 0.01439367311072 2.99068541300527 0.00000000000000 0.00000000000000 1.00000000000000
0.04278119507909 0.01439367311072 2.99068541300527 nan nan nan
0.04358084358524 0.01439367311072 2.99068541300527 -0.00000000000000 -0.00000000000000 -1.00000000000000
0.04438049209139 0.01439367311072 2.99068541300527 -0.00000000000000 -0.00000000000000 -1.00000000000000
0.04518262206844 0.01439446366782 2.99084967320261 0.00000000000000 0.00000000000000 -1.00000000000000
0.04598231449443 0.01439446366782 2.99084967320261 0.00000000000000 0.00000000000000 -1.00000000000000
0.04678200692042 0.01439446366782 2.99084967320261 0.00000000000000 0.00000000000000 -1.00000000000000
0.04758169934641 0.01439446366782 2.99084967320261 -0.00000000000000 0.00000000000000 1.00000000000000
0.04838139177240 0.01439446366782 2.99084967320261 -0.00000000000000 -0.00000000000000 -1.00000000000000
0.04918108419839 0.01439446366782 2.99084967320261 -0.00000000000000 -0.00000000000000 -1.00000000000000
0.04997803163445 0.01439367311072 2.99068541300527 nan nan nan
0.05077768014060 0.01439367311072 2.99068541300527 nan nan nan
0.05157732864675 0.01439367311072 2.99068541300527 nan nan nan
0.05237697715290 0.01439367311072 2.99068541300527 0.00000000000000 0.00000000000000 -1.00000000000000
0.05317662565905 0.01439367311072 2.99068541300527 nan nan nan
0.05399110036807 0.01439762676482 2.99150689446794 0.00000000000000 0.00000000000000 -1.00000000000000
0.05479096852167 0.01439762676482 2.99150689446794 0.00000000000000 0.00000000000000 1.00000000000000
0.05558472946993 0.01439604504257 2.99117824773414 nan nan nan
0.05638760711931 0.01439683586025 2.99134256207427 -0.99982238104381 0.00000000000000 0.01884691921489
0.05719057298248 0.01439762676482 2.99150689446794 nan nan nan
0.05799681336190 0.01439920883468 2.99183561342783 nan nan nan
-0.05957708573626 0.01519415609381 2.99084967320261 0.00000000000000 0.00000000000000 -1.00000000000000
-0.05877739331027 0.01519415609381 2.99084967320261 0.00000000000000 0.00000000000000 1.00000000000000
-0.05797770088428 0.01519415609381 2.99084967320261 0.00000000000000 0.00000000000000 -1.00000000000000
-0.05717800845829 0.01519415609381 2.99084967320261 0.00000000000000 0.00000000000000 1.00000000000000
-0.05637831603230 0.01519415609381 2.99084967320261 0.00000000000000 0.00000000000000 -1.00000000000000
-0.05557862360631 0.01519415609381 2.99084967320261 0.00000000000000 0.00000000000000 1.00000000000000
-0.05477893118032 0.01519415609381 2.99084967320261 nan nan nan
-0.05397923875433 0.01519415609381 2.99084967320261 nan nan nan
-0.05317954632834 0.01519415609381 2.99084967320261 nan nan nan
-0.05236259814418 0.01518915060671 2.98986438258387 -0.00000000000000 0.00000000000000 1.00000000000000
-0.05156316916488 0.01518915060671 2.98986438258387 nan nan nan
-0.05059705576534 0.01513927652821 2.98004706397417 -0.99985589456314 0.00000000000000 -0.01697616291567
-0.04996156802460 0.01518831667948 2.98970023059185 nan nan nan
-0.04915948394181 0.01518748284381 2.98953609662366 0.99986482730662 -0.00000000000000 0.01644162750783
-0.04836810893916 0.01518998462552 2.99002855260268 0.00000000000000 0.37924476647272 -0.92529638878743
-0.04756863606413 0.01518998462552 2.99002855260268 0.00000000000000 0.00000000000000 1.00000000000000
-0.04677429983526 0.01519165293795 2.99035694673256 -0.00000000000000 0.99998709596312 -0.00508014834848
-0.04597221459557 0.01519081873593 2.99019274065125 -0.20178307696711 0.00000000000000 0.97943023735725
-0.04517517847337 0.01519165293795 2.99035694673256 0.00000000000000 0.00000000000000 -1.00000000000000
-0.04437561779242 0.01519165293795 2.99035694673256 0.00000000000000 -0.20098116704926 0.97959510538361
-0.04358323721646 0.01519415609381 2.99084967320261 -0.52806210390151 0.00000000000000 0.84920575505770
-0.04276240667545 0.01518664909969 2.98937198067633 0.00000000000000 0.00000000000000 1.00000000000000
-0.04196310935441 0.01518664909969 2.98937198067633 0.00000000000000 0.00000000000000 -1.00000000000000
-0.04116381203338 0.01518664909969 2.98937198067633 0.00000000000000 0.00000000000000 1.00000000000000
-0.04036451471234 0.01518664909969 2.98937198067633 nan nan nan
-0.03956521739130 0.01518664909969 2.98937198067633 0.00000000000000 0.00000000000000 -1.00000000000000
-0.03876592007027 0.01518664909969 2.98937198067633 0.00000000000000 -0.00000000000000 1.00000000000000
-0.03792498354902 0.01516999341961 2.98609344154420 0.52700854175611 0.00000000000000 -0.84985998665433
-0.03718978302664 0.01519582532271 2.99117824773414 -0.99992271728723 0.00000000000000 -0.01243219421227
-0.03634009873834 0.01517498628634 2.98707624794295 0.00000000000000 0.00000000000000 1.00000000000000
-0.03554141524959 0.01517498628634 2.98707624794295 nan nan nan
-0.03474273176083 0.01517498628634 2.98707624794295 0.00000000000000 -0.00000000000000 1.00000000000000
-0.03394404827208 0.01517498628634 2.98707624794295 0.00000000000000 0.00000000000000 -1.00000000000000
-0.03319270490002 0.01519666007471 2.99134256207427 0.00000000000000 0.00000000000000 -1.00000000000000
-0.03239288068556 0.01519666007471 2.99134256207427 0.00000000000000 0.00000000000000 1.00000000000000
-0.03159305647111 0.01519666007471 2.99134256207427 0.00000000000000 0.00000000000000 -1.00000000000000
-0.03079323225665 0.01519666007471 2.99134256207427 0.00000000000000 -0.00000000000000 1.00000000000000
-0.02999340804219 0.01519666007471 2.99134256207427 0.00000000000000 0.00000000000000 1.00000000000000
-0.02919358382773 0.01519666007471 2.99134256207427 0.00000000000000 0.00000000000000 1.00000000000000
-0.02837349728276 0.01518581544711 2.98920788274688 0.00000000000000 0.00000000000000 -1.00000000000000
-0.02757424383817 0.01518581544711 2.98920788274688 0.00000000000000 0.00000000000000 -1.00000000000000
-0.02677499039359 0.01518581544711 2.98920788274688 0.00000000000000 -0.00000000000000 1.00000000000000
-0.02597573694900 0.01518581544711 2.98920788274688 0.00000000000000 0.00000000000000 -1.00000000000000
-0.02517648350442 0.01518581544711 2.98920788274688 0.00000000000000 -0.00000000000000 1.00000000000000
-0.02437723005983 0.01518581544711 2.98920788274688 0.00000000000000 0.00000000000000 -1.00000000000000
-0.02357797661525 0.01518581544711 2.98920788274688 0.00000000000000 -0.00000000000000 1.00000000000000
-0.02277872317066 0.01518581544711 2.98920788274688 0.00000000000000 0.00000000000000 -1.00000000000000
-0.02197946972608 0.01518581544711 2.98920788274688 0.00000000000000 0.00000000000000 -1.00000000000000
-0.02118021628150 0.01518581544711 2.98920788274688 0.00000000000000 -0.00000000000000 1.00000000000000
-0.02038096283691 0.01518581544711 2.98920788274688 0.00000000000000 0.00000000000000 -1.00000000000000
-0.01958170939233 0.01518581544711 2.98920788274688 nan nan nan
-0.01878245594774 0.01518581544711 2.98920788274688 0.00000000000000 0.00000000000000 -1.00000000000000
-0.01798320250316 0.01518581544711 2.98920788274688 nan nan nan
-0.01718394905857 0.01518581544711 2.98920788274688 nan nan nan
-0.01638469561399 0.01518581544711 2.98920788274688 0.00000000000000 0.00000000000000 1.00000000000000
-0.01558544216940 0.01518581544711 2.98920788274688 0.00000000000000 0.00000000000000 -1.00000000000000
-0.01478618872482 0.01518581544711 2.98920788274688 0.00000000000000 -0.00000000000000 1.00000000000000
-0.01398693528023 0.01518581544711 2.98920788274688 nan nan nan
-0.01318768183565 0.01518581544711 2.98920788274688 nan nan nan
-0.01238842839106 0.01518581544711 2.98920788274688 nan nan nan
-0.01158917494648 0.01518581544711 2.98920788274688 nan nan nan
-0.01078992150189 0.01518581544711 2.98920788274688 0.00000000000000 0.00000000000000 -1.00000000000000
-0.00999066805731 0.01518581544711 2.98920788274688 0.00000000000000 -0.00000000000000 1.00000000000000
-0.00919141461272 0.01518581544711 2.98920788274688 0.00000000000000 -0.00000000000000 1.00000000000000
-0.00839216116814 0.01518581544711 2.98920788274688 nan nan nan
-0.00759290772355 0.01518581544711 2.98920788274688 nan nan nan
-0.00679365427897 0.01518581544711 2.98920788274688 0.00000000000000 0.00000000000000 -1.00000000000000
-0.00599440083439 0.01518581544711 2.98920788274688 0.00000000000000 -0.00000000000000 1.00000000000000
-0.00519514738980 0.01518581544711 2.98920788274688 nan nan nan
-0.00439589394522 0.01518581544711 2.98920788274688 0.00000000000000 0.00000000000000 -1.00000000000000
-0.00359664050063 0.01518581544711 2.98920788274688 0.00000000000000 -0.00000000000000 1.00000000000000
-0.00279738705605 0.01518581544711 2.98920788274688 nan nan nan
-0.00199813361146 0.01518581544711 2.98920788274688 nan nan nan
-0.00119888016688 0.01518581544711 2.98920788274688 nan nan nan
-0.00039962672229 0.01518581544711 2.98920788274688 nan nan nan
0.00039962672229 0.01518581544711 2.98920788274688 nan nan nan
0.00119888016688 0.01518581544711 2.98920788274688 nan nan nan
0.00199824330259 0.01518664909969 2.98937198067633 0.00000000000000 0.00000000000000 -1.00000000000000
0.00279754062363 0.01518664909969 2.98937198067633 nan nan nan
0.00359683794466 0.01518664909969 2.98937198067633 0.00000000000000 0.00000000000000 1.00000000000000
0.00439613526570 0.01518664909969 2.98937198067633 nan nan nan
0.00519543258674 0.01518664909969 2.98937198067633 nan nan nan
0.00599472990777 0.01518664909969 2.98937198067633 0.00000000000000 0.00000000000000 1.00000000000000
0.00679402722881 0.01518664909969 2.98937198067633 nan nan nan
0.00759290772355 0.01518581544711 2.98920788274688 0.00000000000000 -0.20130967188102 -0.97952764943475
0.00839216116814 0.01518581544711 2.98920788274688 0.00000000000000 -0.00000000000000 1.00000000000000
0.00919191919192 0.01518664909969 2.98937198067633 nan nan nan
0.00999066805731 0.01518581544711 2.98920788274688 -0.19747558743760 -0.19747558743760 -0.96021184367427
0.01079051383399 0.01518664909969 2.98937198067633 0.00000000000000 0.00000000000000 -1.00000000000000
0.01158981115503 0.01518664909969 2.98937198067633 0.00000000000000 0.00000000000000 1.00000000000000
0.01238910847606 0.01518664909969 2.98937198067633 0.00000000000000 0.00000000000000 -1.00000000000000
0.01318840579710 0.01518664909969 2.98937198067633 0.00000000000000 0.00000000000000 1.00000000000000
0.01398770311814 0.01518664909969 2.98937198067633 0.00000000000000 0.00000000000000 -1.00000000000000
0.01478700043917 0.01518664909969 2.98937198067633 0.00000000000000 0.00000000000000 1.00000000000000
0.01558629776021 0.01518664909969 2.98937198067633 0.00000000000000 0.00000000000000 1.00000000000000
0.01638559508125 0.01518664909969 2.98937198067633 -0.00000000000000 -0.00000000000000 -1.00000000000000
0.01718489240228 0.01518664909969 2.98937198067633 0.00000000000000 0.00000000000000 1.00000000000000
0.01798418972332 0.01518664909969 2.98937198067633 nan nan nan
0.01878348704436 0.01518664909969 2.98937198067633 0.00000000000000 0.00000000000000 1.00000000000000
0.01958385945649 0.01518748284381 2.98953609662366 nan nan nan
0.02038320065880 0.01518748284381 2.98953609662366 0.00000000000000 0.00000000000000 1.00000000000000
0.02118254186110 0.01518748284381 2.98953609662366 0.00000000000000 0.00000000000000 -1.00000000000000
0.02198188306341 0.01518748284381 2.98953609662366 nan nan nan
0.02278122426572 0.01518748284381 2.98953609662366 nan nan nan
0.02358186010761 0.01518831667948 2.98970023059185 0.00000000000000 0.00000000000000 -1.00000000000000
0.02438124519600 0.01518831667948 2.98970023059185 0.00000000000000 -0.00000000000000 1.00000000000000
0.02518477843062 0.01519081873593 2.99019274065125 0.00000000000000 0.00000000000000 1.00000000000000
0.02598429520619 0.01519081873593 2.99019274065125 0.00000000000000 0.00000000000000 -1.00000000000000
0.02678087080657 0.01518915060671 2.98986438258387 nan nan nan
0.02758029978587 0.01518915060671 2.98986438258387 nan nan nan
0.02837972876517 0.01518915060671 2.98986438258387 0.00000000000000 -0.00000000000000 1.00000000000000
0.02917915774447 0.01518915060671 2.98986438258387 nan nan nan
0.02997858672377 0.01518915060671 2.98986438258387 nan nan nan
0.03077970568856 0.01518998462552 2.99002855260268 nan nan nan
0.03157917856358 0.01518998462552 2.99002855260268 -0.00000000000000 -0.00000000000000 -1.00000000000000
0.03237865143861 0.01518998462552 2.99002855260268 -0.00000000000000 -0.00000000000000 -1.00000000000000
0.03318359053215 0.01519248723159 2.99052117084958 -0.19701606039879 0.19701606039879 0.96040061635230
0.03398506151142 0.01519332161687 2.99068541300527 -0.00000000000000 0.00000000000000 1.00000000000000
0.03478471001757 0.01519332161687 2.99068541300527 -0.00000000000000 -0.00000000000000 -1.00000000000000
0.03558435852373 0.01519332161687 2.99068541300527 0.00000000000000 0.00000000000000 1.00000000000000
0.03638400702988 0.01519332161687 2.99068541300527 0.00000000000000 0.00000000000000 -1.00000000000000
0.03718365553603 0.01519332161687 2.99068541300527 0.00000000000000 0.00000000000000 -1.00000000000000
0.03798330404218 0.01519332161687 2.99068541300527 0.00000000000000 0.00000000000000 -1.00000000000000
0.03878295254833 0.01519332161687 2.99068541300527 0.00000000000000 -0.00000000000000 1.00000000000000
0.03957390731386 0.01518998462552 2.99002855260268 -0.00000000000000 0.00000000000000 1.00000000000000
0.04037338018889 0.01518998462552 2.99002855260268 0.00000000000000 0.20136275500418 0.97951673844663
0.04118189806678 0.01519332161687 2.99068541300527 nan nan nan
0.04197232593894 0.01518998462552 2.99002855260268 0.53949080417298 0.53949080417297 0.64645134729970
0.04278119507909 0.01519332161687 2.99068541300527 nan nan nan
0.04356648731745 0.01518831667948 2.98970023059185 0.78197250111631 -0.00000000000000 0.62331292903156
0.04438292964245 0.01519415609381 2.99084967320261 0.00000000000000 0.00000000000000 1.00000000000000
0.04518262206844 0.01519415609381 2.99084967320261 0.00000000000000 0.00000000000000 1.00000000000000
0.04598231449443 0.01519415609381 2.99084967320261 0.00000000000000 0.00000000000000 -1.00000000000000
0.04678200692042 0.01519415609381 2.99084967320261 0.00000000000000 0.00000000000000 1.00000000000000
0.04756863606413 0.01518998462552 2.99002855260268 0.62981568859374 0.00000000000000 -0.77674461594606
0.04837873462214 0.01519332161687 2.99068541300527 0.00000000000000 -0.20140524123747 -0.97950800343952
0.04917838312830 0.01519332161687 2.99068541300527 nan nan nan
0.04997803163445 0.01519332161687 2.99068541300527 0.00000000000000 0.00000000000000 1.00000000000000
0.05077768014060 0.01519332161687 2.99068541300527 -0.00000000000000 -0.00000000000000 -1.00000000000000
0.05157732864675 0.01519332161687 2.99068541300527 nan nan nan
0.05237697715290 0.01519332161687 2.99068541300527 -0.00000000000000 0.00000000000000 1.00000000000000
0.05317662565905 0.01519332161687 2.99068541300527 -0.00000000000000 -0.00000000000000 -1.00000000000000
0.05398516890964 0.01519582532271 2.99117824773414 0.00000000000000 0.00000000000000 1.00000000000000
0.05478494918978 0.01519582532271 2.99117824773414 nan nan nan
0.05558472946993 0.01519582532271 2.99117824773414 0.00000000000000 0.00000000000000 1.00000000000000
0.05639070482887 0.01519749491842 2.99150689446794 0.00000000000000 0.20105525378605 -0.97957990226680
0.05719057298248 0.01519749491842 2.99150689446794 0.00000000000000 0.00000000000000 1.00000000000000
0.05799681336190 0.01519916488105 2.99183561342783 nan nan nan
-0.05957708573626 0.01599384851980 2.99084967320261 0.00000000000000 0.00000000000000 -1.00000000000000
-0.05877739331027 0.01599384851980 2.99084967320261 0.00000000000000 0.00000000000000 1.00000000000000
-0.05797770088428 0.01599384851980 2.99084967320261 0.00000000000000 0.00000000000000 -1.00000000000000
-0.05717800845829 0.01599384851980 2.99084967320261 0.00000000000000 0.00000000000000 1.00000000000000
-0.05637831603230 0.01599384851980 2.99084967320261 0.00000000000000 0.00000000000000 -1.00000000000000
-0.05557862360631 0.01599384851980 2.99084967320261 0.00000000000000 0.00000000000000 1.00000000000000
-0.05477893118032 0.01599384851980 2.99084967320261 -0.00000000000000 -0.00000000000000 -1.00000000000000
-0.05397923875433 0.01599384851980 2.99084967320261 -0.00000000000000 -0.00000000000000 -1.00000000000000
-0.05317954632834 0.01599384851980 2.99084967320261 -0.00000000000000 -0.00000000000000 -1.00000000000000
-0.05235972328978 0.01598770176787 2.98970023059185 0.20183640477258 0.00000000000000 -0.97941924920255
-0.05156316916488 0.01598857958601 2.98986438258387 0.20183640477258 0.00000000000000 -0.97941924920255
-0.05059982486865 0.01593695271454 2.98021015761821 -0.99985589456314 0.00000000000000 -0.01697616291567
-0.04996156802460 0.01598770176787 2.98970023059185 0.20047984420814 0.00000000000000 0.97969782691720
-0.04915948394181 0.01598682404612 2.98953609662366 nan nan nan
-0.04822247769201 0.01594131493951 2.98102589368807 0.38110341021427 0.00000000000000 -0.92453241734569
-0.04756863606413 0.01598945750055 2.99002855260268 nan nan nan
-0.04663855883480 0.01594480643925 2.98167880413952 0.00000000000000 0.00000000000000 -1.00000000000000
-0.04584131851284 0.01594480643925 2.98167880413952 nan nan nan
-0.04504407819088 0.01594480643925 2.98167880413952 0.00000000000000 0.00000000000000 1.00000000000000
-0.04424683786892 0.01594480643925 2.98167880413952 0.00000000000000 0.00000000000000 -1.00000000000000
-0.04358323721646 0.01599384851980 2.99084967320261 nan nan nan
-0.04276240667545 0.01598594642073 2.98937198067633 0.00000000000000 0.00000000000000 -1.00000000000000
-0.04196310935441 0.01598594642073 2.98937198067633 0.00000000000000 0.00000000000000 1.00000000000000
-0.04116381203338 0.01598594642073 2.98937198067633 -0.00000000000000 0.00000000000000 1.00000000000000
-0.04036451471234 0.01598594642073 2.98937198067633 nan nan nan
-0.03956521739130 0.01598594642073 2.98937198067633 0.00000000000000 0.00000000000000 1.00000000000000
-0.03876592007027 0.01598594642073 2.98937198067633 nan nan nan
-0.03792498354902 0.01596841412590 2.98609344154420 -0.52700854175611 0.00000000000000 0.84985998665433
-0.03718978302664 0.01599560560286 2.99117824773414 0.00000000000000 0.00000000000000 -1.00000000000000
-0.03639000274650 0.01599560560286 2.99117824773414 0.00000000000000 0.00000000000000 -1.00000000000000
-0.03554141524959 0.01597366977510 2.98707624794295 nan nan nan
-0.03474273176083 0.01597366977510 2.98707624794295 0.00000000000000 -0.00000000000000 1.00000000000000
-0.03394404827208 0.01597366977510 2.98707624794295 nan nan nan
-0.03319270490002 0.01599648428917 2.99134256207427 nan nan nan
-0.03239288068556 0.01599648428917 2.99134256207427 0.00000000000000 0.00000000000000 -1.00000000000000
-0.03159305647111 0.01599648428917 2.99134256207427 0.00000000000000 0.00000000000000 1.00000000000000
-0.03079323225665 0.01599648428917 2.99134256207427 -0.00000000000000 -0.00000000000000 -1.00000000000000
-0.02999340804219 0.01599648428917 2.99134256207427 0.00000000000000 0.00000000000000 -1.00000000000000
-0.02919358382773 0.01599648428917 2.99134256207427 0.00000000000000 0.00000000000000 1.00000000000000
-0.02837349728276 0.01598506889169 2.98920788274688 nan nan nan
-0.02757424383817 0.01598506889169 2.98920788274688 0.00000000000000 0.00000000000000 -1.00000000000000
-0.02677499039359 0.01598506889169 2.98920788274688 0.00000000000000 0.00000000000000 1.00000000000000
-0.02597573694900 0.01598506889169 2.98920788274688 0.00000000000000 0.00000000000000 -1.00000000000000
-0.02517648350442 0.01598506889169 2.98920788274688 0.00000000000000 0.00000000000000 1.00000000000000
-0.02437723005983 0.01598506889169 2.98920788274688 0.00000000000000 0.00000000000000 -1.00000000000000
-0.02357797661525 0.01598506889169 2.98920788274688 0.00000000000000 0.00000000000000 1.00000000000000
-0.02277872317066 0.01598506889169 2.98920788274688 -0.00000000000000 0.00000000000000 1.00000000000000
-0.02197946972608 0.01598506889169 2.98920788274688 0.00000000000000 0.00000000000000 -1.00000000000000
-0.02118021628150 0.01598506889169 2.98920788274688 0.00000000000000 0.00000000000000 1.00000000000000
-0.02038096283691 0.01598506889169 2.98920788274688 0.00000000000000 0.00000000000000 -1.00000000000000
-0.01958170939233 0.01598506889169 2.98920788274688 0.00000000000000 0.00000000000000 1.00000000000000
-0.01878245594774 0.01598506889169 2.98920788274688 0.00000000000000 0.00000000000000 1.00000000000000
-0.01798320250316 0.01598506889169 2.98920788274688 -0.00000000000000 -0.00000000000000 -1.00000000000000
-0.01718394905857 0.01598506889169 2.98920788274688 -0.00000000000000 -0.00000000000000 -1.00000000000000
-0.01638469561399 0.01598506889169 2.98920788274688 0.00000000000000 0.00000000000000 -1.00000000000000
-0.01558544216940 0.01598506889169 2.98920788274688 0.00000000000000 0.00000000000000 1.00000000000000
-0.01478618872482 0.01598506889169 2.98920788274688 -0.00000000000000 -0.00000000000000 -1.00000000000000
-0.01398693528023 0.01598506889169 2.98920788274688 -0.00000000000000 0.00000000000000 1.00000000000000
-0.01318768183565 0.01598506889169 2.98920788274688 -0.00000000000000 -0.00000000000000 -1.00000000000000
-0.01238842839106 0.01598506889169 2.98920788274688 -0.00000000000000 -0.00000000000000 -1.00000000000000
-0.01158917494648 0.01598506889169 2.98920788274688 -0.00000000000000 -0.00000000000000 -1.00000000000000
-0.01078992150189 0.01598506889169 2.98920788274688 0.00000000000000 0.00000000000000 -1.00000000000000
-0.00999066805731 0.01598506889169 2.98920788274688 -0.00000000000000 -0.00000000000000 -1.00000000000000
-0.00919141461272 0.01598506889169 2.98920788274688 -0.00000000000000 -0.00000000000000 -1.00000000000000
-0.00839216116814 0.01598506889169 2.98920788274688 -0.00000000000000 0.00000000000000 1.00000000000000
-0.00759290772355 0.01598506889169 2.98920788274688 -0.00000000000000 -0.00000000000000 -1.00000000000000
-0.00679365427897 0.01598506889169 2.98920788274688 -0.00000000000000 0.00000000000000 1.00000000000000
-0.00599440083439 0.01598506889169 2.98920788274688 -0.00000000000000 -0.00000000000000 -1.00000000000000
-0.00519514738980 0.01598506889169 2.98920788274688 -0.00000000000000 -0.00000000000000 -1.00000000000000
-0.00439589394522 0.01598506889169 2.98920788274688 -0.00000000000000 0.00000000000000 1.00000000000000
-0.00359664050063 0.01598506889169 2.98920788274688 -0.00000000000000 -0.00000000000000 -1.00000000000000
-0.00279738705605 0.01598506889169 2.98920788274688 -0.00000000000000 -0.00000000000000 -1.00000000000000
-0.00199813361146 0.01598506889169 2.98920788274688 -0.00000000000000 0.00000000000000 1.00000000000000
-0.00119888016688 0.01598506889169 2.98920788274688 -0.00000000000000 -0.00000000000000 -1.00000000000000
-0.00039962672229 0.01598506889169 2.98920788274688 -0.00000000000000 -0.00000000000000 -1.00000000000000
0.00039962672229 0.01598506889169 2.98920788274688 -0.00000000000000 0.00000000000000 1.00000000000000
0.00119888016688 0.01598506889169 2.98920788274688 -0.00000000000000 -0.00000000000000 -1.00000000000000
0.00199824330259 0.01598594642073 2.98937198067633 0.00000000000000 0.00000000000000 -1.00000000000000
0.00279754062363 0.01598594642073 2.98937198067633 nan nan nan
0.00359683794466 0.01598594642073 2.98937198067633 0.00000000000000 0.00000000000000 1.00000000000000
0.00439613526570 0.01598594642073 2.98937198067633 0.00000000000000 0.00000000000000 -1.00000000000000
0.00519543258674 0.01598594642073 2.98937198067633 nan nan nan
0.00599472990777 0.01598594642073 2.98937198067633 0.00000000000000 0.00000000000000 1.00000000000000
0.00679402722881 0.01598594642073 2.98937198067633 0.00000000000000 0.00000000000000 -1.00000000000000
0.00759332454985 0.01598594642073 2.98937198067633 0.00000000000000 0.00000000000000 -1.00000000000000
0.00839216116814 0.01598506889169 2.98920788274688 -0.20121949341909 -0.00000000000000 -0.97954617832349
0.00919191919192 0.01598594642073 2.98937198067633 -0.00000000000000 0.00000000000000 1.00000000000000
0.00999121651296 0.01598594642073 2.98937198067633 0.00000000000000 -0.00000000000000 1.00000000000000
0.01079051383399 0.01598594642073 2.98937198067633 0.00000000000000 0.00000000000000 -1.00000000000000
0.01158981115503 0.01598594642073 2.98937198067633 0.00000000000000 0.00000000000000 1.00000000000000
0.01238910847606 0.01598594642073 2.98937198067633 nan nan nan
0.01318840579710 0.01598594642073 2.98937198067633 0.00000000000000 0.00000000000000 1.00000000000000
0.01398770311814 0.01598594642073 2.98937198067633 0.00000000000000 0.00000000000000 -1.00000000000000
0.01478700043917 0.01598594642073 2.98937198067633 0.00000000000000 0.00000000000000 1.00000000000000
0.01558629776021 0.01598594642073 2.98937198067633 0.00000000000000 0.00000000000000 1.00000000000000
0.01638559508125 0.01598594642073 2.98937198067633 0.00000000000000 0.00000000000000 1.00000000000000
0.01718489240228 0.01598594642073 2.98937198067633 -0.00000000000000 -0.00000000000000 -1.00000000000000
0.01798418972332 0.01598594642073 2.98937198067633 0.00000000000000 0.00000000000000 -1.00000000000000
0.01878348704436 0.01598594642073 2.98937198067633 0.00000000000000 0.00000000000000 1.00000000000000
0.01958385945649 0.01598682404612 2.98953609662366 -0.00000000000000 0.00000000000000 1.00000000000000
0.02038320065880 0.01598682404612 2.98953609662366 0.00000000000000 0.00000000000000 -1.00000000000000
0.02118254186110 0.01598682404612 2.98953609662366 0.00000000000000 0.00000000000000 1.00000000000000
0.02198188306341 0.01598682404612 2.98953609662366 nan nan nan
0.02278122426572 0.01598682404612 2.98953609662366 -0.00000000000000 -0.00000000000000 -1.00000000000000
0.02358186010761 0.01598770176787 2.98970023059185 0.00000000000000 0.00000000000000 -1.00000000000000
0.02438124519600 0.01598770176787 2.98970023059185 -0.00000000000000 -0.00000000000000 -1.00000000000000
0.02518477843062 0.01599033551150 2.99019274065125 nan nan nan
0.02598429520619 0.01599033551150 2.99019274065125 0.00000000000000 0.00000000000000 1.00000000000000
0.02678087080657 0.01598857958601 2.98986438258387 -0.00000000000000 0.00000000000000 1.00000000000000
0.02758029978587 0.01598857958601 2.98986438258387 -0.00000000000000 -0.00000000000000 -1.00000000000000
0.02837972876517 0.01598857958601 2.98986438258387 -0.00000000000000 -0.00000000000000 -1.00000000000000
0.02917915774447 0.01598857958601 2.98986438258387 -0.00000000000000 -0.00000000000000 -1.00000000000000
0.02997858672377 0.01598857958601 2.98986438258387 nan nan nan
0.03077970568856 0.01598945750055 2.99002855260268 0.00000000000000 0.00000000000000 -1.00000000000000
0.03157917856358 0.01598945750055 2.99002855260268 -0.00000000000000 -0.00000000000000 -1.00000000000000
0.03237865143861 0.01598945750055 2.99002855260268 0.00000000000000 0.00000000000000 1.00000000000000
0.03318723567859 0.01599384851980 2.99084967320261 0.00000000000000 0.00000000000000 -1.00000000000000
0.03398692810458 0.01599384851980 2.99084967320261 0.00000000000000 -0.99998570192809 0.00534751712262
0.03478471001757 0.01599297012302 2.99068541300527 nan nan nan
0.03558435852373 0.01599297012302 2.99068541300527 0.00000000000000 0.00000000000000 -1.00000000000000
0.03638400702988 0.01599297012302 2.99068541300527 0.00000000000000 0.00000000000000 1.00000000000000
0.03718365553603 0.01599297012302 2.99068541300527 0.00000000000000 0.00000000000000 1.00000000000000
0.03798330404218 0.01599297012302 2.99068541300527 -0.00000000000000 0.00000000000000 1.00000000000000
0.03878295254833 0.01599297012302 2.99068541300527 nan nan nan
0.03958260105448 0.01599297012302 2.99068541300527 0.00000000000000 0.00000000000000 -1.00000000000000
0.04038224956063 0.01599297012302 2.99068541300527 0.00000000000000 0.00000000000000 1.00000000000000
0.04118189806678 0.01599297012302 2.99068541300527 nan nan nan
0.04198154657293 0.01599297012302 2.99068541300527 0.00000000000000 0.00000000000000 -1.00000000000000
0.04278119507909 0.01599297012302 2.99068541300527 nan nan nan
0.04356648731745 0.01598770176787 2.98970023059185 nan nan nan
0.04438292964245 0.01599384851980 2.99084967320261 nan nan nan
0.04516277793028 0.01598682404612 2.98953609662366 0.85987997527698 -0.00000000000000 0.51049625671268
0.04598231449443 0.01599384851980 2.99084967320261 0.00000000000000 0.00000000000000 -1.00000000000000
0.04678200692042 0.01599384851980 2.99084967320261 0.00000000000000 0.00000000000000 1.00000000000000
0.04756863606413 0.01598945750055 2.99002855260268 -0.99987347443035 0.00000000000000 0.01590707800229
0.04837342119714 0.01599121361889 2.99035694673256 0.00000000000000 0.00000000000000 -1.00000000000000
0.04917298187809 0.01599121361889 2.99035694673256 0.00000000000000 -0.00000000000000 1.00000000000000
0.04997803163445 0.01599297012302 2.99068541300527 -0.00000000000000 0.00000000000000 1.00000000000000
0.05077768014060 0.01599297012302 2.99068541300527 -0.00000000000000 -0.00000000000000 -1.00000000000000
0.05157732864675 0.01599297012302 2.99068541300527 0.00000000000000 0.00000000000000 -1.00000000000000
0.05237697715290 0.01599297012302 2.99068541300527 0.00000000000000 0.00000000000000 -1.00000000000000
0.05317662565905 0.01599297012302 2.99068541300527 -0.00000000000000 -0.00000000000000 -1.00000000000000
0.05398516890964 0.01599560560286 2.99117824773414 0.00000000000000 0.00000000000000 -1.00000000000000
0.05478494918978 0.01599560560286 2.99117824773414 nan nan nan
0.05558472946993 0.01599560560286 2.99117824773414 0.00000000000000 0.00000000000000 1.00000000000000
0.05639380287880 0.01599824195143 2.99167124491814 -0.20201792585434 0.00000000000000 -0.97938182423073
0.05719057298248 0.01599736307202 2.99150689446794 -0.20201792585434 -0.00000000000000 -0.97938182423073
0.05799681336190 0.01599912092742 2.99183561342783 0.00000000000000 0.00000000000000 -1.00000000000000
0.05879676940827 0.01599912092742 2.99183561342783 0.00000000000000 -0.00000000000000 1.00000000000000
-0.05957708573626 0.01679354094579 2.99084967320261 0.00000000000000 0.00000000000000 1.00000000000000
-0.05877739331027 0.01679354094579 2.99084967320261 0.00000000000000 0.00000000000000 -1.00000000000000
-0.05797770088428 0.01679354094579 2.99084967320261 0.00000000000000 0.00000000000000 1.00000000000000
-0.05717800845829 0.01679354094579 2.99084967320261 0.00000000000000 0.00000000000000 -1.00000000000000
-0.05637831603230 0.01679354094579 2.99084967320261 0.00000000000000 0.00000000000000 1.00000000000000
-0.05557862360631 0.01679354094579 2.99084967320261 0.00000000000000 0.00000000000000 -1.00000000000000
-0.05477893118032 0.01679354094579 2.99084967320261 0.00000000000000 -0.00000000000000 1.00000000000000
-0.05397923875433 0.01679354094579 2.99084967320261 nan nan nan
-0.05317954632834 0.01679354094579 2.99084967320261 0.00000000000000 -0.00000000000000 1.00000000000000
-0.05235972328978 0.01678708685626 2.98970023059185 -0.20183640477258 0.00000000000000 0.97941924920255
-0.05139667250438 0.01673380035026 2.98021015761821 0.00000000000000 0.00000000000000 1.00000000000000
-0.05059982486865 0.01673380035026 2.98021015761821 0.00000000000000 0.00000000000000 1.00000000000000
-0.04980297723292 0.01673380035026 2.98021015761821 0.00000000000000 0.00000000000000 -1.00000000000000
-0.04915948394181 0.01678616524842 2.98953609662366 nan nan nan
-0.04822247769201 0.01673838068648 2.98102589368807 -0.99986918657236 -0.00000000000000 -0.01617435448868
-0.04756863606413 0.01678893037558 2.99002855260268 0.99987347443035 0.00000000000000 0.01590707800231
-0.04663855883480 0.01674204676121 2.98167880413952 nan nan nan
-0.04597221459557 0.01678985228708 2.99019274065125 -0.00000000000000 0.00000000000000 1.00000000000000
-0.04504407819088 0.01674204676121 2.98167880413952 nan nan nan
-0.04437318104442 0.01678985228708 2.99019274065125 0.63096570765909 0.15774142691498 -0.75960510661335
-0.04358323721646 0.01679354094579 2.99084967320261 nan nan nan
-0.04276240667545 0.01678524374177 2.98937198067633 0.00000000000000 0.00000000000000 -1.00000000000000
-0.04196310935441 0.01678524374177 2.98937198067633 0.00000000000000 0.00000000000000 1.00000000000000
-0.04116381203338 0.01678524374177 2.98937198067633 0.00000000000000 0.00000000000000 -1.00000000000000
-0.04036451471234 0.01678524374177 2.98937198067633 nan nan nan
-0.03956521739130 0.01678524374177 2.98937198067633 0.00000000000000 0.00000000000000 1.00000000000000
-0.03876592007027 0.01678524374177 2.98937198067633 nan nan nan
-0.03798956330678 0.01679538588300 2.99117824773414 0.00000000000000 0.00000000000000 -1.00000000000000
-0.03718978302664 0.01679538588300 2.99117824773414 0.00000000000000 0.00000000000000 1.00000000000000
-0.03639000274650 0.01679538588300 2.99117824773414 0.00000000000000 0.00000000000000 -1.00000000000000
-0.03554141524959 0.01677235326385 2.98707624794295 -0.00000000000000 0.00000000000000 1.00000000000000
-0.03474273176083 0.01677235326385 2.98707624794295 nan nan nan
-0.03394404827208 0.01677235326385 2.98707624794295 -0.00000000000000 -0.00000000000000 -1.00000000000000
-0.03319270490002 0.01679630850363 2.99134256207427 nan nan nan
-0.03239288068556 0.01679630850363 2.99134256207427 0.00000000000000 0.00000000000000 1.00000000000000
-0.03159305647111 0.01679630850363 2.99134256207427 nan nan nan
-0.03079323225665 0.01679630850363 2.99134256207427 -0.00000000000000 -0.00000000000000 -1.00000000000000
-0.02999340804219 0.01679630850363 2.99134256207427 nan nan nan
-0.02917275072734 0.01678432233628 2.98920788274688 0.00000000000000 0.00000000000000 -1.00000000000000
-0.02837349728276 0.01678432233628 2.98920788274688 0.00000000000000 -0.00000000000000 1.00000000000000
-0.02757424383817 0.01678432233628 2.98920788274688 0.00000000000000 0.00000000000000 1.00000000000000
-0.02677499039359 0.01678432233628 2.98920788274688 0.00000000000000 -0.00000000000000 1.00000000000000
-0.02597573694900 0.01678432233628 2.98920788274688 0.00000000000000 0.00000000000000 -1.00000000000000
-0.02517648350442 0.01678432233628 2.98920788274688 0.00000000000000 -0.00000000000000 1.00000000000000
-0.02437723005983 0.01678432233628 2.98920788274688 0.00000000000000 0.00000000000000 -1.00000000000000
