ply
            format ascii 1.0
            element vertex 29595
            property float x
            property float y
            property float z
            property float nx
            property float ny
            property float nz
end_header
0.03819354838710 0.05161290322581 1.93032258064516 0.00000000000000 0.00000000000000 -1.00000000000000
0.06400000000000 0.05161290322581 1.93032258064516 0.00000000000000 0.00000000000000 -1.00000000000000
0.08980645161290 0.05161290322581 1.93032258064516 0.00000000000000 0.00000000000000 -1.00000000000000
0.11561290322581 0.05161290322581 1.93032258064516 0.00000000000000 0.00000000000000 -1.00000000000000
0.12490028490028 0.04558404558405 1.70484330484330 0.00000000000000 0.00000000000000 -1.00000000000000
0.14685552407932 0.04532577903683 1.69518413597734 0.00000000000000 0.00000000000000 -1.00000000000000
0.19303225806452 0.05161290322581 1.93032258064516 -0.94631080707434 0.31543693569143 -0.07067811553728
0.21954692556634 0.05177993527508 1.93656957928803 0.00000000000000 0.00000000000000 -1.00000000000000
0.23700000000000 0.05000000000000 1.87000000000000 0.00000000000000 0.00000000000000 -1.00000000000000
0.26037267080745 0.04968944099379 1.85838509316770 0.00000000000000 0.00000000000000 -1.00000000000000
0.28345679012346 0.04938271604938 1.84691358024691 0.00000000000000 0.00000000000000 -1.00000000000000
0.30720000000000 0.04923076923077 1.84123076923077 0.00000000000000 0.00000000000000 -1.00000000000000
-0.28330666666667 0.04309333333333 1.59573333333333 0.85089916422287 0.48622809384163 0.19887899105727
-0.26058355437666 0.04286472148541 1.58726790450928 0.00000000000000 0.00000000000000 -1.00000000000000
-0.24000000000000 0.04297872340426 1.59148936170213 0.00000000000000 0.00000000000000 -1.00000000000000
-0.22048257372654 0.04332439678284 1.60428954423592 0.00000000000000 0.00000000000000 1.00000000000000
-0.20228882833787 0.04403269754768 1.63051771117166 0.94698320815721 -0.31566106938573 -0.05984056101457
-0.21093247588424 0.05196141479100 1.92411575562701 0.00000000000000 0.00000000000000 -1.00000000000000
-0.18580645161290 0.05212903225806 1.93032258064516 0.00000000000000 0.00000000000000 -1.00000000000000
-0.16000000000000 0.05212903225806 1.93032258064516 0.00000000000000 0.00000000000000 -1.00000000000000
-0.13419354838710 0.05212903225806 1.93032258064516 0.00000000000000 0.00000000000000 -1.00000000000000
-0.10838709677419 0.05212903225806 1.93032258064516 0.00000000000000 0.00000000000000 -1.00000000000000
-0.08258064516129 0.05212903225806 1.93032258064516 0.00000000000000 0.00000000000000 -1.00000000000000
-0.05677419354839 0.05212903225806 1.93032258064516 0.00000000000000 0.00000000000000 -1.00000000000000
-0.03096774193548 0.05212903225806 1.93032258064516 0.00000000000000 0.00000000000000 -1.00000000000000
-0.00516129032258 0.05212903225806 1.93032258064516 0.00000000000000 0.00000000000000 -1.00000000000000
0.02064516129032 0.05212903225806 1.93032258064516 0.00000000000000 0.00000000000000 -1.00000000000000
0.04645161290323 0.05212903225806 1.93032258064516 0.00000000000000 0.00000000000000 -1.00000000000000
0.07225806451613 0.05212903225806 1.93032258064516 0.00000000000000 0.00000000000000 -1.00000000000000
0.09806451612903 0.05212903225806 1.93032258064516 0.00000000000000 -0.00000000000000 1.00000000000000
0.12387096774194 0.05212903225806 1.93032258064516 0.00000000000000 0.00000000000000 -1.00000000000000
0.13144475920680 0.04577903682720 1.69518413597734 0.00000000000000 0.00000000000000 -1.00000000000000
0.15410764872521 0.04577903682720 1.69518413597734 0.00000000000000 0.00000000000000 -1.00000000000000
0.20194174757282 0.05229773462783 1.93656957928803 0.00000000000000 0.00000000000000 -1.00000000000000
0.22783171521036 0.05229773462783 1.93656957928803 0.00000000000000 0.00000000000000 -1.00000000000000
0.24423676012461 0.05034267912773 1.86417445482866 0.00000000000000 0.00000000000000 -1.00000000000000
0.26749226006192 0.05003095975232 1.85263157894737 0.00000000000000 0.00000000000000 -1.00000000000000
0.29135802469136 0.04987654320988 1.84691358024691 0.00000000000000 -0.00000000000000 -1.00000000000000
0.31411042944785 0.04957055214724 1.83558282208589 0.00000000000000 0.00000000000000 -1.00000000000000
-0.27501326259947 0.04328912466844 1.58726790450928 0.00000000000000 -0.00000000000000 1.00000000000000
-0.25379310344828 0.04328912466844 1.58726790450928 0.97165147539191 0.00000000000000 -0.23641787235471
-0.23381333333333 0.04352000000000 1.59573333333333 0.00000000000000 0.00000000000000 -1.00000000000000
-0.21419354838710 0.04387096774194 1.60860215053763 0.00000000000000 -0.00000000000000 1.00000000000000
-0.24134680134680 0.05494949494949 2.01481481481481 -0.75503495744037 0.12583915957339 -0.64349570236396
-0.20270096463023 0.05247588424437 1.92411575562701 0.00000000000000 0.00000000000000 -1.00000000000000
-0.17754838709677 0.05264516129032 1.93032258064516 0.00000000000000 0.00000000000000 -1.00000000000000
-0.15174193548387 0.05264516129032 1.93032258064516 0.00000000000000 0.00000000000000 -1.00000000000000
-0.12593548387097 0.05264516129032 1.93032258064516 0.00000000000000 0.00000000000000 -1.00000000000000
-0.10012903225806 0.05264516129032 1.93032258064516 0.00000000000000 0.00000000000000 -1.00000000000000
-0.07432258064516 0.05264516129032 1.93032258064516 0.00000000000000 0.00000000000000 -1.00000000000000
-0.04851612903226 0.05264516129032 1.93032258064516 0.00000000000000 0.00000000000000 -1.00000000000000
-0.02270967741935 0.05264516129032 1.93032258064516 0.00000000000000 0.00000000000000 -1.00000000000000
0.00309677419355 0.05264516129032 1.93032258064516 0.00000000000000 0.00000000000000 -1.00000000000000
0.02890322580645 0.05264516129032 1.93032258064516 0.00000000000000 0.00000000000000 -1.00000000000000
0.05470967741935 0.05264516129032 1.93032258064516 0.00000000000000 0.00000000000000 -1.00000000000000
0.08051612903226 0.05264516129032 1.93032258064516 0.00000000000000 -0.00000000000000 1.00000000000000
0.10632258064516 0.05264516129032 1.93032258064516 0.00000000000000 0.00000000000000 -1.00000000000000
0.13255663430421 0.05281553398058 1.93656957928803 -0.00000000000000 0.00000000000000 -1.00000000000000
0.13869688385269 0.04623229461756 1.69518413597734 0.00000000000000 0.00000000000000 -1.00000000000000
0.16135977337110 0.04623229461756 1.69518413597734 0.00000000000000 0.00000000000000 -1.00000000000000
0.21022653721683 0.05281553398058 1.93656957928803 0.00000000000000 0.00000000000000 -1.00000000000000
0.23088607594937 0.05164556962025 1.89367088607595 -0.98296445414745 -0.16382740902457 -0.08331543635421
0.25221183800623 0.05084112149533 1.86417445482866 0.00000000000000 0.00000000000000 -1.00000000000000
0.27541795665635 0.05052631578947 1.85263157894737 0.00000000000000 0.00000000000000 -1.00000000000000
0.29833846153846 0.05021538461538 1.84123076923077 0.00000000000000 0.00000000000000 -1.00000000000000
0.32196319018405 0.05006134969325 1.83558282208589 0.00000000000000 0.00000000000000 -1.00000000000000
-0.26822281167109 0.04371352785146 1.58726790450928 0.00000000000000 0.00000000000000 -1.00000000000000
-0.24700265251989 0.04371352785146 1.58726790450928 0.00000000000000 -0.00000000000000 1.00000000000000
-0.22759358288770 0.04406417112299 1.60000000000000 0.00000000000000 -0.00000000000000 -1.00000000000000
-0.20843243243243 0.04454054054054 1.61729729729730 0.00000000000000 -0.00000000000000 -1.00000000000000
-0.29704347826087 0.07165217391304 2.60173913043478 -0.92018218810139 0.36232173656492 -0.14828250036168
-0.19395498392283 0.05299035369775 1.92411575562701 0.00000000000000 0.00000000000000 -1.00000000000000
-0.16877419354839 0.05316129032258 1.93032258064516 -0.00000000000000 0.00000000000000 1.00000000000000
-0.14296774193548 0.05316129032258 1.93032258064516 0.00000000000000 0.00000000000000 -1.00000000000000
-0.11716129032258 0.05316129032258 1.93032258064516 -0.00000000000000 0.00000000000000 1.00000000000000
-0.09135483870968 0.05316129032258 1.93032258064516 -0.00000000000000 0.00000000000000 1.00000000000000
-0.06554838709677 0.05316129032258 1.93032258064516 -0.00000000000000 0.00000000000000 1.00000000000000
-0.03974193548387 0.05316129032258 1.93032258064516 -0.00000000000000 0.00000000000000 1.00000000000000
-0.01393548387097 0.05316129032258 1.93032258064516 0.00000000000000 0.00000000000000 -1.00000000000000
0.01187096774194 0.05316129032258 1.93032258064516 0.00000000000000 0.00000000000000 -1.00000000000000
0.03767741935484 0.05316129032258 1.93032258064516 -0.00000000000000 0.00000000000000 1.00000000000000
0.06348387096774 0.05316129032258 1.93032258064516 -0.00000000000000 0.00000000000000 1.00000000000000
0.08929032258065 0.05316129032258 1.93032258064516 0.00000000000000 0.00000000000000 -1.00000000000000
0.11509677419355 0.05316129032258 1.93032258064516 0.00000000000000 0.00000000000000 -1.00000000000000
0.12444444444444 0.04695156695157 1.70484330484330 0.94396481997497 0.31465493999166 0.09961268688507
0.14640226628895 0.04668555240793 1.69518413597734 0.00000000000000 0.00000000000000 -1.00000000000000
0.19313915857605 0.05333333333333 1.93656957928803 0.00000000000000 0.00000000000000 -1.00000000000000
0.21902912621359 0.05333333333333 1.93656957928803 -0.00000000000000 0.00000000000000 1.00000000000000
0.23724137931034 0.05166144200627 1.87586206896552 0.00000000000000 0.00000000000000 -1.00000000000000
0.25987577639752 0.05118012422360 1.85838509316770 -0.00000000000000 0.00000000000000 1.00000000000000
0.28296296296296 0.05086419753086 1.84691358024691 -0.00000000000000 0.00000000000000 1.00000000000000
0.30670769230769 0.05070769230769 1.84123076923077 0.00000000000000 0.00000000000000 -1.00000000000000
-0.28297872340426 0.04425531914894 1.59148936170213 -0.63013037613303 -0.73515210548854 -0.24997418040713
-0.26100795755968 0.04413793103448 1.58726790450928 0.00000000000000 0.00000000000000 1.00000000000000
-0.24042553191489 0.04425531914894 1.59148936170213 0.00000000000000 0.00000000000000 -1.00000000000000
-0.22091152815013 0.04461126005362 1.60428954423592 0.00000000000000 -0.00000000000000 -1.00000000000000
-0.20217391304348 0.04521739130435 1.62608695652174 0.00000000000000 0.00000000000000 -1.00000000000000
-0.21093247588424 0.05350482315113 1.92411575562701 -0.00000000000000 -0.00000000000000 -1.00000000000000
-0.18520900321543 0.05350482315113 1.92411575562701 0.00000000000000 0.00000000000000 -1.00000000000000
-0.16000000000000 0.05367741935484 1.93032258064516 -0.00000000000000 -0.00000000000000 -1.00000000000000
-0.13419354838710 0.05367741935484 1.93032258064516 -0.00000000000000 -0.00000000000000 -1.00000000000000
-0.10838709677419 0.05367741935484 1.93032258064516 -0.00000000000000 -0.00000000000000 -1.00000000000000
-0.08258064516129 0.05367741935484 1.93032258064516 -0.00000000000000 -0.00000000000000 -1.00000000000000
-0.05677419354839 0.05367741935484 1.93032258064516 -0.00000000000000 -0.00000000000000 -1.00000000000000
-0.03096774193548 0.05367741935484 1.93032258064516 -0.00000000000000 -0.00000000000000 -1.00000000000000
-0.00516129032258 0.05367741935484 1.93032258064516 -0.00000000000000 -0.00000000000000 -1.00000000000000
0.02064516129032 0.05367741935484 1.93032258064516 -0.00000000000000 -0.00000000000000 -1.00000000000000
0.04645161290323 0.05367741935484 1.93032258064516 -0.00000000000000 -0.00000000000000 -1.00000000000000
0.07225806451613 0.05367741935484 1.93032258064516 -0.00000000000000 -0.00000000000000 -1.00000000000000
0.09806451612903 0.05367741935484 1.93032258064516 -0.00000000000000 -0.00000000000000 -1.00000000000000
0.12387096774194 0.05367741935484 1.93032258064516 -0.00000000000000 -0.00000000000000 -1.00000000000000
0.13144475920680 0.04713881019830 1.69518413597734 -0.00000000000000 -0.00000000000000 -1.00000000000000
0.15410764872521 0.04713881019830 1.69518413597734 -0.00000000000000 -0.00000000000000 -1.00000000000000
0.20194174757282 0.05385113268608 1.93656957928803 -0.00000000000000 -0.00000000000000 -1.00000000000000
0.22783171521036 0.05385113268608 1.93656957928803 -0.00000000000000 -0.00000000000000 -1.00000000000000
0.24423676012461 0.05183800623053 1.86417445482866 -0.00000000000000 -0.00000000000000 -1.00000000000000
0.26749226006192 0.05151702786378 1.85263157894737 -0.00000000000000 -0.00000000000000 -1.00000000000000
0.29046153846154 0.05120000000000 1.84123076923077 0.00000000000000 0.00000000000000 -1.00000000000000
0.31411042944785 0.05104294478528 1.83558282208589 -0.00000000000000 -0.00000000000000 -1.00000000000000
-0.27501326259947 0.04456233421751 1.58726790450928 -0.00000000000000 -0.00000000000000 -1.00000000000000
-0.25379310344828 0.04456233421751 1.58726790450928 0.99913122012877 0.00000000000000 -0.04167499206955
-0.23381333333333 0.04480000000000 1.59573333333333 0.00000000000000 0.00000000000000 1.00000000000000
-0.21419354838710 0.04516129032258 1.60860215053763 0.99784379225841 0.00000000000000 -0.06563357564052
-0.21461077844311 0.05029940119760 1.79161676646707 -0.72342040838009 0.63634202588989 -0.26782781563074
-0.20167202572347 0.05401929260450 1.92411575562701 0.00000000000000 0.00000000000000 1.00000000000000
-0.17651612903226 0.05419354838710 1.93032258064516 0.00000000000000 0.00000000000000 1.00000000000000
-0.15070967741935 0.05419354838710 1.93032258064516 0.00000000000000 0.00000000000000 1.00000000000000
-0.12490322580645 0.05419354838710 1.93032258064516 0.00000000000000 0.00000000000000 1.00000000000000
-0.09909677419355 0.05419354838710 1.93032258064516 0.00000000000000 0.00000000000000 1.00000000000000
-0.07329032258065 0.05419354838710 1.93032258064516 0.00000000000000 0.00000000000000 1.00000000000000
-0.04748387096774 0.05419354838710 1.93032258064516 0.00000000000000 0.00000000000000 1.00000000000000
-0.02167741935484 0.05419354838710 1.93032258064516 0.00000000000000 0.00000000000000 1.00000000000000
0.00412903225806 0.05419354838710 1.93032258064516 0.00000000000000 0.00000000000000 1.00000000000000
0.02993548387097 0.05419354838710 1.93032258064516 0.00000000000000 0.00000000000000 1.00000000000000
0.05574193548387 0.05419354838710 1.93032258064516 0.00000000000000 0.00000000000000 1.00000000000000
0.08154838709677 0.05419354838710 1.93032258064516 -0.00000000000000 0.00000000000000 1.00000000000000
0.10735483870968 0.05419354838710 1.93032258064516 0.00000000000000 0.00000000000000 1.00000000000000
0.14742857142857 0.06000000000000 2.13714285714286 -0.87717755825303 -0.47195966449484 0.08839460609767
0.13960339943343 0.04759206798867 1.69518413597734 0.00000000000000 0.00000000000000 1.00000000000000
0.16226628895184 0.04759206798867 1.69518413597734 0.00000000000000 0.00000000000000 1.00000000000000
0.21126213592233 0.05436893203883 1.93656957928803 0.00000000000000 0.00000000000000 1.00000000000000
0.23116719242902 0.05299684542587 1.88769716088328 -0.98296445414745 -0.16382740902457 -0.08331543635421
0.25320872274143 0.05233644859813 1.86417445482866 0.00000000000000 0.00000000000000 1.00000000000000
0.27640866873065 0.05201238390093 1.85263157894737 0.00000000000000 0.00000000000000 1.00000000000000
0.29932307692308 0.05169230769231 1.84123076923077 0.00000000000000 0.00000000000000 1.00000000000000
0.32294478527607 0.05153374233129 1.83558282208589 0.00000000000000 0.00000000000000 1.00000000000000
-0.26737400530504 0.04498673740053 1.58726790450928 0.00000000000000 0.00000000000000 1.00000000000000
-0.24615384615385 0.04498673740053 1.58726790450928 -0.00000000000000 0.00000000000000 1.00000000000000
-0.22613333333333 0.04522666666667 1.59573333333333 0.00000000000000 -0.00000000000000 1.00000000000000
-0.20756756756757 0.04583783783784 1.61729729729730 -0.00000000000000 0.00000000000000 1.00000000000000
-0.31555555555556 0.07851851851852 2.77037037037037 -0.81547608387279 0.55659478740523 -0.15874822602104
-0.19344051446945 0.05453376205788 1.92411575562701 -0.00000000000000 0.00000000000000 1.00000000000000
-0.16825806451613 0.05470967741935 1.93032258064516 -0.00000000000000 0.00000000000000 1.00000000000000
-0.14245161290323 0.05470967741935 1.93032258064516 -0.00000000000000 0.00000000000000 1.00000000000000
-0.11664516129032 0.05470967741935 1.93032258064516 -0.00000000000000 0.00000000000000 1.00000000000000
-0.09083870967742 0.05470967741935 1.93032258064516 -0.00000000000000 0.00000000000000 1.00000000000000
-0.06503225806452 0.05470967741935 1.93032258064516 -0.00000000000000 0.00000000000000 1.00000000000000
-0.03922580645161 0.05470967741935 1.93032258064516 -0.00000000000000 0.00000000000000 1.00000000000000
-0.01341935483871 0.05470967741935 1.93032258064516 -0.00000000000000 0.00000000000000 1.00000000000000
0.01238709677419 0.05470967741935 1.93032258064516 -0.00000000000000 0.00000000000000 1.00000000000000
0.03819354838710 0.05470967741935 1.93032258064516 -0.00000000000000 0.00000000000000 1.00000000000000
0.06400000000000 0.05470967741935 1.93032258064516 -0.00000000000000 0.00000000000000 1.00000000000000
0.08980645161290 0.05470967741935 1.93032258064516 -0.00000000000000 0.00000000000000 1.00000000000000
0.11561290322581 0.05470967741935 1.93032258064516 -0.00000000000000 0.00000000000000 1.00000000000000
0.12454545454545 0.04818181818182 1.70000000000000 -0.82182309554225 -0.54788206369483 -0.15630752993647
0.14685552407932 0.04804532577904 1.69518413597734 -0.00000000000000 0.00000000000000 1.00000000000000
0.19365695792880 0.05488673139159 1.93656957928803 -0.00000000000000 0.00000000000000 1.00000000000000
0.21954692556634 0.05488673139159 1.93656957928803 -0.00000000000000 0.00000000000000 1.00000000000000
0.23774294670846 0.05316614420063 1.87586206896552 -0.00000000000000 0.00000000000000 1.00000000000000
0.26037267080745 0.05267080745342 1.85838509316770 -0.00000000000000 0.00000000000000 1.00000000000000
0.28345679012346 0.05234567901235 1.84691358024691 -0.00000000000000 0.00000000000000 1.00000000000000
0.30720000000000 0.05218461538462 1.84123076923077 -0.00000000000000 0.00000000000000 1.00000000000000
-0.28180371352785 0.04541114058355 1.58726790450928 0.79863945453379 -0.59897959090037 0.05829640938174
-0.25989417989418 0.04529100529101 1.58306878306878 0.00000000000000 0.00000000000000 1.00000000000000
-0.24000000000000 0.04553191489362 1.59148936170213 0.00000000000000 0.00000000000000 1.00000000000000
-0.21989304812834 0.04577540106952 1.60000000000000 0.00000000000000 0.00000000000000 1.00000000000000
-0.20173913043478 0.04652173913043 1.62608695652174 -0.00000000000000 0.00000000000000 1.00000000000000
-0.21196141479100 0.05504823151125 1.92411575562701 -0.00000000000000 0.00000000000000 1.00000000000000
-0.18623794212219 0.05504823151125 1.92411575562701 -0.00000000000000 0.00000000000000 1.00000000000000
-0.16103225806452 0.05522580645161 1.93032258064516 -0.00000000000000 0.00000000000000 1.00000000000000
-0.13522580645161 0.05522580645161 1.93032258064516 -0.00000000000000 0.00000000000000 1.00000000000000
-0.10941935483871 0.05522580645161 1.93032258064516 -0.00000000000000 0.00000000000000 1.00000000000000
-0.08361290322581 0.05522580645161 1.93032258064516 -0.00000000000000 0.00000000000000 1.00000000000000
-0.05780645161290 0.05522580645161 1.93032258064516 -0.00000000000000 0.00000000000000 1.00000000000000
-0.03200000000000 0.05522580645161 1.93032258064516 -0.00000000000000 0.00000000000000 1.00000000000000
-0.00619354838710 0.05522580645161 1.93032258064516 -0.00000000000000 0.00000000000000 1.00000000000000
0.01961290322581 0.05522580645161 1.93032258064516 -0.00000000000000 0.00000000000000 1.00000000000000
0.04541935483871 0.05522580645161 1.93032258064516 -0.00000000000000 0.00000000000000 1.00000000000000
0.07122580645161 0.05522580645161 1.93032258064516 -0.00000000000000 0.00000000000000 1.00000000000000
0.09703225806452 0.05522580645161 1.93032258064516 -0.00000000000000 0.00000000000000 1.00000000000000
0.12283870967742 0.05522580645161 1.93032258064516 -0.00000000000000 0.00000000000000 1.00000000000000
0.13053824362606 0.04849858356941 1.69518413597734 -0.00000000000000 0.00000000000000 1.00000000000000
0.15320113314448 0.04849858356941 1.69518413597734 -0.00000000000000 0.00000000000000 1.00000000000000
0.20090614886731 0.05540453074434 1.93656957928803 -0.00000000000000 0.00000000000000 1.00000000000000
0.22679611650485 0.05540453074434 1.93656957928803 -0.00000000000000 0.00000000000000 1.00000000000000
0.24323987538941 0.05333333333333 1.86417445482866 -0.00000000000000 0.00000000000000 1.00000000000000
0.26650154798762 0.05300309597523 1.85263157894737 -0.00000000000000 0.00000000000000 1.00000000000000
0.28947692307692 0.05267692307692 1.84123076923077 -0.00000000000000 0.00000000000000 1.00000000000000
0.31312883435583 0.05251533742331 1.83558282208589 -0.00000000000000 0.00000000000000 1.00000000000000
-0.27586206896552 0.04583554376658 1.58726790450928 0.00000000000000 0.00000000000000 -1.00000000000000
-0.25396825396825 0.04571428571429 1.58306878306878 0.00000000000000 -0.00000000000000 1.00000000000000
-0.23404255319149 0.04595744680851 1.59148936170213 0.00000000000000 -0.00000000000000 1.00000000000000
-0.21447721179625 0.04632707774799 1.60428954423592 0.00000000000000 -0.00000000000000 1.00000000000000
-0.19726027397260 0.04734246575342 1.63945205479452 0.79350080782605 -0.60679473539639 -0.04643939141115
-0.20527331189711 0.05556270096463 1.92411575562701 0.00000000000000 0.00000000000000 -1.00000000000000
-0.18012903225806 0.05574193548387 1.93032258064516 0.00000000000000 0.00000000000000 -1.00000000000000
-0.15432258064516 0.05574193548387 1.93032258064516 0.00000000000000 0.00000000000000 -1.00000000000000
-0.12851612903226 0.05574193548387 1.93032258064516 0.00000000000000 0.00000000000000 -1.00000000000000
-0.10270967741935 0.05574193548387 1.93032258064516 0.00000000000000 0.00000000000000 -1.00000000000000
-0.07690322580645 0.05574193548387 1.93032258064516 0.00000000000000 0.00000000000000 -1.00000000000000
-0.05109677419355 0.05574193548387 1.93032258064516 0.00000000000000 0.00000000000000 -1.00000000000000
-0.02529032258065 0.05574193548387 1.93032258064516 0.00000000000000 0.00000000000000 -1.00000000000000
0.00051612903226 0.05574193548387 1.93032258064516 0.00000000000000 0.00000000000000 -1.00000000000000
0.02632258064516 0.05574193548387 1.93032258064516 0.00000000000000 0.00000000000000 -1.00000000000000
0.05212903225806 0.05574193548387 1.93032258064516 0.00000000000000 0.00000000000000 -1.00000000000000
0.07793548387097 0.05574193548387 1.93032258064516 0.00000000000000 0.00000000000000 -1.00000000000000
0.10407766990291 0.05592233009709 1.93656957928803 0.00000000000000 -0.00000000000000 1.00000000000000
0.12954838709677 0.05574193548387 1.93032258064516 0.00000000000000 0.00000000000000 1.00000000000000
0.13643059490085 0.04895184135977 1.69518413597734 0.00000000000000 0.00000000000000 -1.00000000000000
0.15909348441926 0.04895184135977 1.69518413597734 0.00000000000000 0.00000000000000 -1.00000000000000
0.20763754045307 0.05592233009709 1.93656957928803 0.00000000000000 0.00000000000000 -1.00000000000000
0.23128205128205 0.05538461538462 1.91794871794872 -0.97322544104016 -0.22459048639388 0.04890147578077
0.24971962616822 0.05383177570093 1.86417445482866 0.00000000000000 0.00000000000000 -1.00000000000000
0.27294117647059 0.05349845201238 1.85263157894737 0.00000000000000 0.00000000000000 -1.00000000000000
0.29587692307692 0.05316923076923 1.84123076923077 0.00000000000000 0.00000000000000 -1.00000000000000
0.31950920245399 0.05300613496933 1.83558282208589 0.00000000000000 0.00000000000000 -1.00000000000000
-0.26962962962963 0.04613756613757 1.58306878306878 0.88094715241944 0.00000000000000 -0.47321466021677
-0.24912466843501 0.04625994694960 1.58726790450928 0.00000000000000 0.00000000000000 -1.00000000000000
-0.22912000000000 0.04650666666667 1.59573333333333 0.00000000000000 0.00000000000000 -1.00000000000000
-0.21002695417790 0.04700808625337 1.61293800539084 0.13366667921793 -0.93566675452546 -0.32658987023888
-0.31638009049774 0.07891402714932 2.70769230769231 -0.70566736121385 0.70566736121385 0.06377421606692
-0.19858520900322 0.05607717041801 1.92411575562701 0.00000000000000 0.00000000000000 1.00000000000000
-0.17341935483871 0.05625806451613 1.93032258064516 0.00000000000000 0.00000000000000 1.00000000000000
-0.14761290322581 0.05625806451613 1.93032258064516 0.00000000000000 0.00000000000000 1.00000000000000
-0.12180645161290 0.05625806451613 1.93032258064516 0.00000000000000 0.00000000000000 1.00000000000000
-0.09600000000000 0.05625806451613 1.93032258064516 0.00000000000000 0.00000000000000 1.00000000000000
-0.07019354838710 0.05625806451613 1.93032258064516 0.00000000000000 0.00000000000000 1.00000000000000
-0.04438709677419 0.05625806451613 1.93032258064516 0.00000000000000 0.00000000000000 1.00000000000000
-0.01858064516129 0.05625806451613 1.93032258064516 0.00000000000000 0.00000000000000 1.00000000000000
0.00722580645161 0.05625806451613 1.93032258064516 0.00000000000000 0.00000000000000 1.00000000000000
0.03303225806452 0.05625806451613 1.93032258064516 0.00000000000000 0.00000000000000 1.00000000000000
0.05883870967742 0.05625806451613 1.93032258064516 0.00000000000000 0.00000000000000 1.00000000000000
0.08464516129032 0.05625806451613 1.93032258064516 0.00000000000000 0.00000000000000 1.00000000000000
0.11080906148867 0.05644012944984 1.93656957928803 0.00000000000000 0.00000000000000 1.00000000000000
0.12172910662824 0.05025936599424 1.72449567723343 -0.92202331317029 -0.38417638048761 0.04776524516758
0.14232294617564 0.04940509915014 1.69518413597734 0.00000000000000 0.00000000000000 1.00000000000000
0.18143302180685 0.05433021806854 1.86417445482866 -0.99959172087016 0.02855976345343 0.00085526564353
0.21436893203883 0.05644012944984 1.93656957928803 0.00000000000000 0.00000000000000 1.00000000000000
0.23345911949686 0.05484276729560 1.88176100628931 0.00000000000000 0.00000000000000 1.00000000000000
0.25540372670807 0.05416149068323 1.85838509316770 0.00000000000000 0.00000000000000 1.00000000000000
0.27851851851852 0.05382716049383 1.84691358024691 0.00000000000000 0.00000000000000 1.00000000000000
0.30227692307692 0.05366153846154 1.84123076923077 0.00000000000000 0.00000000000000 1.00000000000000
0.32689230769231 0.05366153846154 1.84123076923077 0.00000000000000 0.00000000000000 1.00000000000000
-0.26412698412698 0.04656084656085 1.58306878306878 0.00000000000000 0.00000000000000 -1.00000000000000
-0.24360742705570 0.04668435013263 1.58726790450928 0.00000000000000 0.00000000000000 1.00000000000000
-0.22357333333333 0.04693333333333 1.59573333333333 0.00000000000000 0.00000000000000 1.00000000000000
-0.20497297297297 0.04756756756757 1.61729729729730 0.00000000000000 0.00000000000000 1.00000000000000
-0.32538461538462 0.08461538461538 2.87692307692308 -0.38884391628891 0.90730247134078 0.16000823186327
-0.19189710610932 0.05659163987138 1.92411575562701 0.00000000000000 0.00000000000000 1.00000000000000
-0.16670967741935 0.05677419354839 1.93032258064516 0.00000000000000 0.00000000000000 1.00000000000000
-0.14090322580645 0.05677419354839 1.93032258064516 0.00000000000000 0.00000000000000 1.00000000000000
-0.11509677419355 0.05677419354839 1.93032258064516 0.00000000000000 0.00000000000000 1.00000000000000
-0.08929032258065 0.05677419354839 1.93032258064516 0.00000000000000 0.00000000000000 1.00000000000000
-0.06348387096774 0.05677419354839 1.93032258064516 0.00000000000000 0.00000000000000 1.00000000000000
-0.03767741935484 0.05677419354839 1.93032258064516 0.00000000000000 0.00000000000000 1.00000000000000
-0.01187096774194 0.05677419354839 1.93032258064516 0.00000000000000 0.00000000000000 1.00000000000000
0.01393548387097 0.05677419354839 1.93032258064516 0.00000000000000 0.00000000000000 1.00000000000000
0.03974193548387 0.05677419354839 1.93032258064516 0.00000000000000 0.00000000000000 1.00000000000000
0.06554838709677 0.05677419354839 1.93032258064516 0.00000000000000 0.00000000000000 1.00000000000000
0.09135483870968 0.05677419354839 1.93032258064516 0.00000000000000 0.00000000000000 1.00000000000000
0.11716129032258 0.05677419354839 1.93032258064516 0.00000000000000 0.00000000000000 1.00000000000000
0.12555240793201 0.04985835694051 1.69518413597734 0.00000000000000 0.00000000000000 1.00000000000000
0.14821529745042 0.04985835694051 1.69518413597734 0.00000000000000 0.00000000000000 1.00000000000000
0.19521035598705 0.05695792880259 1.93656957928803 0.00000000000000 0.00000000000000 1.00000000000000
0.22110032362460 0.05695792880259 1.93656957928803 0.00000000000000 0.00000000000000 1.00000000000000
0.23924764890282 0.05517241379310 1.87586206896552 0.00000000000000 0.00000000000000 1.00000000000000
0.26186335403727 0.05465838509317 1.85838509316770 0.00000000000000 0.00000000000000 1.00000000000000
0.28493827160494 0.05432098765432 1.84691358024691 0.00000000000000 0.00000000000000 1.00000000000000
0.30867692307692 0.05415384615385 1.84123076923077 0.00000000000000 0.00000000000000 1.00000000000000
-0.28053050397878 0.04710875331565 1.58726790450928 0.77719689812891 -0.58289767359671 -0.23705544426221
-0.25862433862434 0.04698412698413 1.58306878306878 0.00000000000000 0.00000000000000 1.00000000000000
-0.23809018567639 0.04710875331565 1.58726790450928 0.77649213472437 0.38824606736219 0.49631134974830
-0.21860962566845 0.04748663101604 1.60000000000000 0.00000000000000 0.00000000000000 1.00000000000000
-0.20043478260870 0.04826086956522 1.62608695652174 0.00000000000000 0.00000000000000 1.00000000000000
-0.21144694533762 0.05710610932476 1.92411575562701 0.00000000000000 0.00000000000000 1.00000000000000
-0.18572347266881 0.05710610932476 1.92411575562701 -0.00000000000000 0.00000000000000 -1.00000000000000
-0.16051612903226 0.05729032258065 1.93032258064516 -0.00000000000000 0.00000000000000 -1.00000000000000
-0.13470967741935 0.05729032258065 1.93032258064516 -0.00000000000000 0.00000000000000 -1.00000000000000
-0.10890322580645 0.05729032258065 1.93032258064516 -0.00000000000000 0.00000000000000 -1.00000000000000
-0.08309677419355 0.05729032258065 1.93032258064516 -0.00000000000000 0.00000000000000 -1.00000000000000
-0.05729032258065 0.05729032258065 1.93032258064516 -0.00000000000000 0.00000000000000 -1.00000000000000
-0.03148387096774 0.05729032258065 1.93032258064516 -0.00000000000000 0.00000000000000 -1.00000000000000
-0.00567741935484 0.05729032258065 1.93032258064516 -0.00000000000000 0.00000000000000 -1.00000000000000
0.02012903225806 0.05729032258065 1.93032258064516 -0.00000000000000 0.00000000000000 -1.00000000000000
0.04593548387097 0.05729032258065 1.93032258064516 -0.00000000000000 0.00000000000000 -1.00000000000000
0.07174193548387 0.05729032258065 1.93032258064516 -0.00000000000000 0.00000000000000 -1.00000000000000
0.09754838709677 0.05729032258065 1.93032258064516 -0.00000000000000 0.00000000000000 -1.00000000000000
0.12335483870968 0.05729032258065 1.93032258064516 -0.00000000000000 0.00000000000000 -1.00000000000000
0.13099150141643 0.05031161473088 1.69518413597734 -0.00000000000000 0.00000000000000 -1.00000000000000
0.15365439093484 0.05031161473088 1.69518413597734 -0.00000000000000 0.00000000000000 -1.00000000000000
0.20142394822006 0.05747572815534 1.93656957928803 -0.00000000000000 0.00000000000000 -1.00000000000000
0.22731391585761 0.05747572815534 1.93656957928803 -0.00000000000000 0.00000000000000 -1.00000000000000
0.24373831775701 0.05532710280374 1.86417445482866 0.00000000000000 0.00000000000000 1.00000000000000
0.26699690402477 0.05498452012384 1.85263157894737 -0.00000000000000 0.00000000000000 -1.00000000000000
0.28996923076923 0.05464615384615 1.84123076923077 -0.00000000000000 0.00000000000000 -1.00000000000000
0.31361963190184 0.05447852760736 1.83558282208589 -0.00000000000000 0.00000000000000 -1.00000000000000
-0.27470899470899 0.04740740740741 1.58306878306878 0.82669288478432 0.41334644239217 0.38173759679749
-0.25354497354497 0.04740740740741 1.58306878306878 -0.00000000000000 0.00000000000000 -1.00000000000000
-0.23361702127660 0.04765957446809 1.59148936170213 -0.00000000000000 0.00000000000000 -1.00000000000000
-0.21404825737265 0.04804289544236 1.60428954423592 -0.00000000000000 0.00000000000000 -1.00000000000000
-0.19628415300546 0.04896174863388 1.63497267759563 -0.52058296214582 0.83293273943333 0.18766041432220
-0.20527331189711 0.05762057877814 1.92411575562701 -0.00000000000000 -0.00000000000000 -1.00000000000000
-0.18012903225806 0.05780645161290 1.93032258064516 -0.00000000000000 -0.00000000000000 -1.00000000000000
-0.15432258064516 0.05780645161290 1.93032258064516 -0.00000000000000 -0.00000000000000 -1.00000000000000
-0.12851612903226 0.05780645161290 1.93032258064516 -0.00000000000000 -0.00000000000000 -1.00000000000000
-0.10270967741935 0.05780645161290 1.93032258064516 -0.00000000000000 -0.00000000000000 -1.00000000000000
-0.07690322580645 0.05780645161290 1.93032258064516 -0.00000000000000 -0.00000000000000 -1.00000000000000
-0.05109677419355 0.05780645161290 1.93032258064516 -0.00000000000000 -0.00000000000000 -1.00000000000000
-0.02529032258065 0.05780645161290 1.93032258064516 -0.00000000000000 -0.00000000000000 -1.00000000000000
0.00051612903226 0.05780645161290 1.93032258064516 -0.00000000000000 -0.00000000000000 -1.00000000000000
0.02632258064516 0.05780645161290 1.93032258064516 -0.00000000000000 -0.00000000000000 -1.00000000000000
0.05212903225806 0.05780645161290 1.93032258064516 -0.00000000000000 -0.00000000000000 -1.00000000000000
0.07793548387097 0.05780645161290 1.93032258064516 -0.00000000000000 -0.00000000000000 -1.00000000000000
0.10407766990291 0.05799352750809 1.93656957928803 -0.00000000000000 -0.00000000000000 -1.00000000000000
0.12996763754045 0.05799352750809 1.93656957928803 0.00000000000000 0.00000000000000 -1.00000000000000
0.13643059490085 0.05076487252125 1.69518413597734 -0.00000000000000 -0.00000000000000 -1.00000000000000
0.15909348441926 0.05076487252125 1.69518413597734 -0.00000000000000 -0.00000000000000 -1.00000000000000
0.20763754045307 0.05799352750809 1.93656957928803 -0.00000000000000 -0.00000000000000 -1.00000000000000
0.23054313099042 0.05725239616613 1.91182108626198 0.89406520481669 0.44703260240835 0.02844752924417
0.24971962616822 0.05582554517134 1.86417445482866 -0.00000000000000 -0.00000000000000 -1.00000000000000
0.27294117647059 0.05547987616099 1.85263157894737 -0.00000000000000 -0.00000000000000 -1.00000000000000
0.29587692307692 0.05513846153846 1.84123076923077 -0.00000000000000 -0.00000000000000 -1.00000000000000
0.32049230769231 0.05513846153846 1.84123076923077 0.00000000000000 0.00000000000000 -1.00000000000000
-0.26962962962963 0.04783068783069 1.58306878306878 0.99949418568406 0.00000000000000 -0.03180208772632
-0.24846560846561 0.04783068783069 1.58306878306878 0.85488042941933 0.42744021470968 0.29406515306097
-0.22912000000000 0.04821333333333 1.59573333333333 0.00000000000000 0.00000000000000 1.00000000000000
-0.20946236559140 0.04860215053763 1.60860215053763 0.86110335438711 0.43055167719355 0.27041868709296
-0.23463087248322 0.06067114093960 2.00805369127517 0.75503495744037 -0.12583915957339 0.64349570236396
-0.19909967845659 0.05813504823151 1.92411575562701 -0.00000000000000 -0.00000000000000 -1.00000000000000
-0.17393548387097 0.05832258064516 1.93032258064516 -0.00000000000000 -0.00000000000000 -1.00000000000000
-0.14812903225806 0.05832258064516 1.93032258064516 -0.00000000000000 -0.00000000000000 -1.00000000000000
-0.12232258064516 0.05832258064516 1.93032258064516 -0.00000000000000 -0.00000000000000 -1.00000000000000
-0.09651612903226 0.05832258064516 1.93032258064516 -0.00000000000000 -0.00000000000000 -1.00000000000000
-0.07070967741935 0.05832258064516 1.93032258064516 -0.00000000000000 -0.00000000000000 -1.00000000000000
-0.04490322580645 0.05832258064516 1.93032258064516 -0.00000000000000 -0.00000000000000 -1.00000000000000
-0.01909677419355 0.05832258064516 1.93032258064516 -0.00000000000000 -0.00000000000000 -1.00000000000000
0.00670967741935 0.05832258064516 1.93032258064516 -0.00000000000000 -0.00000000000000 -1.00000000000000
0.03251612903226 0.05832258064516 1.93032258064516 -0.00000000000000 -0.00000000000000 -1.00000000000000
0.05832258064516 0.05832258064516 1.93032258064516 -0.00000000000000 -0.00000000000000 -1.00000000000000
0.08412903225806 0.05832258064516 1.93032258064516 -0.00000000000000 -0.00000000000000 -1.00000000000000
0.11029126213592 0.05851132686084 1.93656957928803 0.00000000000000 -0.00000000000000 -1.00000000000000
0.12057306590258 0.05180515759312 1.71461318051576 0.92202331317029 0.38417638048761 -0.04776524516758
0.14186968838527 0.05121813031161 1.69518413597734 -0.00000000000000 -0.00000000000000 -1.00000000000000
0.18150000000000 0.05650000000000 1.87000000000000 0.99993391229704 0.00000000000000 -0.01149656637133
0.21385113268608 0.05851132686084 1.93656957928803 -0.00000000000000 -0.00000000000000 -1.00000000000000
0.23295597484277 0.05685534591195 1.88176100628931 -0.00000000000000 -0.00000000000000 -1.00000000000000
0.25490683229814 0.05614906832298 1.85838509316770 -0.00000000000000 -0.00000000000000 -1.00000000000000
0.27802469135802 0.05580246913580 1.84691358024691 -0.00000000000000 -0.00000000000000 -1.00000000000000
0.30178461538462 0.05563076923077 1.84123076923077 -0.00000000000000 -0.00000000000000 -1.00000000000000
0.32640000000000 0.05563076923077 1.84123076923077 -0.00000000000000 -0.00000000000000 -1.00000000000000
-0.26455026455026 0.04825396825397 1.58306878306878 0.96858799750683 0.24214699937672 0.05658729343724
-0.24403183023873 0.04838196286472 1.58726790450928 0.00000000000000 -0.00000000000000 -1.00000000000000
-0.22400000000000 0.04864000000000 1.59573333333333 -0.00000000000000 -0.00000000000000 -1.00000000000000
-0.20485175202156 0.04916442048518 1.61293800539084 0.87891747537129 0.43945873768564 0.18541868664918
-0.33497536945813 0.08985221674877 2.94778325123153 0.61412525199758 -0.77789198586361 -0.13316994100803
-0.19292604501608 0.05864951768489 1.92411575562701 0.00000000000000 0.00000000000000 -1.00000000000000
-0.16774193548387 0.05883870967742 1.93032258064516 -0.00000000000000 -0.00000000000000 1.00000000000000
-0.14193548387097 0.05883870967742 1.93032258064516 -0.00000000000000 -0.00000000000000 -1.00000000000000
-0.11612903225806 0.05883870967742 1.93032258064516 -0.00000000000000 -0.00000000000000 1.00000000000000
-0.09032258064516 0.05883870967742 1.93032258064516 -0.00000000000000 -0.00000000000000 -1.00000000000000
-0.06451612903226 0.05883870967742 1.93032258064516 -0.00000000000000 -0.00000000000000 1.00000000000000
-0.03870967741935 0.05883870967742 1.93032258064516 -0.00000000000000 -0.00000000000000 -1.00000000000000
-0.01290322580645 0.05883870967742 1.93032258064516 -0.00000000000000 -0.00000000000000 1.00000000000000
0.01290322580645 0.05883870967742 1.93032258064516 nan nan nan
0.03870967741935 0.05883870967742 1.93032258064516 -0.00000000000000 -0.00000000000000 1.00000000000000
0.06451612903226 0.05883870967742 1.93032258064516 -0.00000000000000 -0.00000000000000 -1.00000000000000
0.09032258064516 0.05883870967742 1.93032258064516 0.00000000000000 0.00000000000000 -1.00000000000000
0.11612903225806 0.05883870967742 1.93032258064516 -0.00000000000000 -0.00000000000000 1.00000000000000
0.12464589235127 0.05167138810198 1.69518413597734 0.00000000000000 0.00000000000000 1.00000000000000
0.14730878186969 0.05167138810198 1.69518413597734 -0.00000000000000 -0.00000000000000 -1.00000000000000
0.19417475728155 0.05902912621359 1.93656957928803 -0.00000000000000 -0.00000000000000 -1.00000000000000
0.22006472491909 0.05902912621359 1.93656957928803 0.00000000000000 0.00000000000000 -1.00000000000000
0.23824451410658 0.05717868338558 1.87586206896552 -0.00000000000000 -0.00000000000000 -1.00000000000000
0.26086956521739 0.05664596273292 1.85838509316770 -0.00000000000000 -0.00000000000000 1.00000000000000
0.28395061728395 0.05629629629630 1.84691358024691 0.00000000000000 0.00000000000000 -1.00000000000000
0.30769230769231 0.05612307692308 1.84123076923077 0.00000000000000 0.00000000000000 -1.00000000000000
-0.28063492063492 0.04867724867725 1.58306878306878 0.88519457326023 0.44259728663010 0.14331158131257
-0.25947089947090 0.04867724867725 1.58306878306878 0.00000000000000 -0.00000000000000 -1.00000000000000
-0.23893899204244 0.04880636604775 1.58726790450928 0.88796208887775 0.44398104443888 0.12001733580954
-0.21946524064171 0.04919786096257 1.60000000000000 0.00000000000000 -0.00000000000000 -1.00000000000000
-0.20075880758808 0.04986449864499 1.62168021680217 -0.82782358889442 -0.54388409705141 -0.13747070467752
-0.21316129032258 0.05935483870968 1.93032258064516 -0.91400417573493 0.22850104393374 -0.33523669199583
-0.18675241157556 0.05916398713826 1.92411575562701 -0.00000000000000 -0.00000000000000 -1.00000000000000
-0.16154838709677 0.05935483870968 1.93032258064516 0.00000000000000 0.00000000000000 -1.00000000000000
-0.13574193548387 0.05935483870968 1.93032258064516 -0.00000000000000 -0.00000000000000 -1.00000000000000
-0.10993548387097 0.05935483870968 1.93032258064516 -0.00000000000000 -0.00000000000000 -1.00000000000000
-0.08412903225806 0.05935483870968 1.93032258064516 -0.00000000000000 -0.00000000000000 -1.00000000000000
-0.05832258064516 0.05935483870968 1.93032258064516 0.00000000000000 0.00000000000000 -1.00000000000000
-0.03251612903226 0.05935483870968 1.93032258064516 nan nan nan
-0.00670967741935 0.05935483870968 1.93032258064516 0.00000000000000 0.00000000000000 -1.00000000000000
0.01909677419355 0.05935483870968 1.93032258064516 0.00000000000000 0.00000000000000 -1.00000000000000
0.04490322580645 0.05935483870968 1.93032258064516 -0.00000000000000 -0.00000000000000 -1.00000000000000
0.07070967741935 0.05935483870968 1.93032258064516 -0.00000000000000 -0.00000000000000 -1.00000000000000
0.09651612903226 0.05935483870968 1.93032258064516 -0.00000000000000 -0.00000000000000 -1.00000000000000
0.12232258064516 0.05935483870968 1.93032258064516 0.00000000000000 0.00000000000000 -1.00000000000000
0.13008498583569 0.05212464589235 1.69518413597734 0.00000000000000 0.00000000000000 -1.00000000000000
0.15274787535411 0.05212464589235 1.69518413597734 0.00000000000000 0.00000000000000 1.00000000000000
0.20038834951456 0.05954692556634 1.93656957928803 0.00000000000000 0.00000000000000 -1.00000000000000
0.22627831715210 0.05954692556634 1.93656957928803 -0.00000000000000 -0.00000000000000 -1.00000000000000
0.24350000000000 0.05750000000000 1.87000000000000 0.00000000000000 0.00000000000000 -1.00000000000000
0.26600619195046 0.05696594427245 1.85263157894737 0.00000000000000 0.00000000000000 -1.00000000000000
0.28898461538462 0.05661538461538 1.84123076923077 -0.00000000000000 -0.00000000000000 -1.00000000000000
0.31263803680982 0.05644171779141 1.83558282208589 0.00000000000000 0.00000000000000 -1.00000000000000
-0.27555555555556 0.04910052910053 1.58306878306878 0.88556624927894 0.44278312463948 0.14041197481884
-0.25439153439153 0.04910052910053 1.58306878306878 0.00000000000000 0.00000000000000 -1.00000000000000
-0.23446808510638 0.04936170212766 1.59148936170213 0.00000000000000 0.00000000000000 -1.00000000000000
-0.21490616621984 0.04975871313673 1.60428954423592 0.00000000000000 0.00000000000000 -1.00000000000000
-0.19608695652174 0.05043478260870 1.62608695652174 0.00000000000000 0.00000000000000 1.00000000000000
-0.20630225080386 0.05967845659164 1.92411575562701 0.00000000000000 0.00000000000000 -1.00000000000000
-0.18116129032258 0.05987096774194 1.93032258064516 0.00000000000000 0.00000000000000 -1.00000000000000
-0.15535483870968 0.05987096774194 1.93032258064516 0.00000000000000 0.00000000000000 -1.00000000000000
-0.12954838709677 0.05987096774194 1.93032258064516 0.00000000000000 0.00000000000000 -1.00000000000000
-0.10374193548387 0.05987096774194 1.93032258064516 0.00000000000000 0.00000000000000 -1.00000000000000
-0.07793548387097 0.05987096774194 1.93032258064516 0.00000000000000 0.00000000000000 -1.00000000000000
-0.05212903225806 0.05987096774194 1.93032258064516 0.00000000000000 0.00000000000000 -1.00000000000000
-0.02632258064516 0.05987096774194 1.93032258064516 0.00000000000000 0.00000000000000 -1.00000000000000
-0.00051612903226 0.05987096774194 1.93032258064516 0.00000000000000 0.00000000000000 -1.00000000000000
0.02529032258065 0.05987096774194 1.93032258064516 0.00000000000000 0.00000000000000 -1.00000000000000
0.05109677419355 0.05987096774194 1.93032258064516 0.00000000000000 0.00000000000000 -1.00000000000000
0.07690322580645 0.05987096774194 1.93032258064516 0.00000000000000 0.00000000000000 -1.00000000000000
0.10304207119741 0.06006472491909 1.93656957928803 0.00000000000000 0.00000000000000 -1.00000000000000
0.12893203883495 0.06006472491909 1.93656957928803 0.00000000000000 0.00000000000000 -1.00000000000000
0.13552407932011 0.05257790368272 1.69518413597734 0.00000000000000 0.00000000000000 -1.00000000000000
0.15818696883853 0.05257790368272 1.69518413597734 0.00000000000000 0.00000000000000 -1.00000000000000
0.20660194174757 0.06006472491909 1.93656957928803 0.00000000000000 0.00000000000000 -1.00000000000000
0.22952076677316 0.05929712460064 1.91182108626198 -0.89406520481669 -0.44703260240835 -0.02844752924417
0.24872274143302 0.05781931464174 1.86417445482866 0.00000000000000 0.00000000000000 -1.00000000000000
0.27195046439628 0.05746130030960 1.85263157894737 0.00000000000000 0.00000000000000 -1.00000000000000
0.29489230769231 0.05710769230769 1.84123076923077 0.00000000000000 0.00000000000000 -1.00000000000000
0.31950769230769 0.05710769230769 1.84123076923077 0.00000000000000 0.00000000000000 -1.00000000000000
-0.26976253298153 0.04939313984169 1.57889182058047 0.00000000000000 0.00000000000000 -1.00000000000000
-0.24931216931217 0.04952380952381 1.58306878306878 0.87403524384537 0.43701762192270 0.21231578049025
-0.22936170212766 0.04978723404255 1.59148936170213 0.96955915025343 0.24238978756337 0.03467340544022
-0.21032258064516 0.05032258064516 1.60860215053763 0.87839649035925 0.43919824517963 0.18847946083243
-0.19349862258953 0.05157024793388 1.64848484848485 0.79350080782605 -0.60679473539639 -0.04643939141115
-0.20012861736334 0.06019292604502 1.92411575562701 0.00000000000000 0.00000000000000 -1.00000000000000
-0.17496774193548 0.06038709677419 1.93032258064516 0.00000000000000 0.00000000000000 -1.00000000000000
-0.14916129032258 0.06038709677419 1.93032258064516 0.00000000000000 0.00000000000000 -1.00000000000000
-0.12335483870968 0.06038709677419 1.93032258064516 0.00000000000000 0.00000000000000 -1.00000000000000
-0.09754838709677 0.06038709677419 1.93032258064516 0.00000000000000 0.00000000000000 -1.00000000000000
-0.07174193548387 0.06038709677419 1.93032258064516 0.00000000000000 0.00000000000000 -1.00000000000000
-0.04593548387097 0.06038709677419 1.93032258064516 0.00000000000000 0.00000000000000 -1.00000000000000
-0.02012903225806 0.06038709677419 1.93032258064516 0.00000000000000 0.00000000000000 -1.00000000000000
0.00567741935484 0.06038709677419 1.93032258064516 0.00000000000000 0.00000000000000 -1.00000000000000
0.03148387096774 0.06038709677419 1.93032258064516 0.00000000000000 0.00000000000000 -1.00000000000000
0.05729032258065 0.06038709677419 1.93032258064516 0.00000000000000 0.00000000000000 -1.00000000000000
0.08309677419355 0.06038709677419 1.93032258064516 0.00000000000000 0.00000000000000 -1.00000000000000
0.10890322580645 0.06038709677419 1.93032258064516 nan nan nan
0.12000000000000 0.05379310344828 1.71954022988506 -0.92202331317029 -0.38417638048761 0.04776524516758
0.14096317280453 0.05303116147309 1.69518413597734 0.00000000000000 0.00000000000000 -1.00000000000000
0.17241791044776 0.05588059701493 1.78626865671642 -0.93930850931883 0.00000000000000 0.34307364270843
