-0.000000000000000000e+00 -0.000000000000000000e+00 7.178604227980195374e-20
-3.787763300662631328e-05 -7.154664012362771104e-05 -3.278001929539818234e-06
2.063574580858059767e-06 -2.476289497029517730e-05 3.521318977282438243e-06
-2.075102930471847413e-06 2.490123516566068157e-05 -3.513249132552401448e-06
-1.922241705170311537e-05 -8.970461290794810210e-05 1.148547984978770807e-05
-2.239494766387820998e-06 2.687393719665422467e-05 6.747226477983929327e-06
-1.320901320901277668e-05 -6.164206164206049185e-05 8.245626427444452297e-06
2.116134927648560544e-06 -2.539361913178291288e-05 -6.601888325081472873e-06
-0.000000000000000000e+00 0.000000000000000000e+00 -2.985791139071408695e-19
4.415548575092841622e-06 5.740213147620449317e-05 2.428551716300772614e-06
3.863356988647448664e-06 -4.636028386377024794e-05 -3.324139783280021541e-06
5.611316686692903158e-06 2.805658343346401604e-06 -6.834103611734228912e-07
1.444841329125964403e-06 -1.733809594951254184e-05 -5.531347099044715452e-06
-0.000000000000000000e+00 -0.000000000000000000e+00 -4.722208680942724390e-20
0.000000000000000000e+00 0.000000000000000000e+00 8.766791004082008509e-20
0.000000000000000000e+00 0.000000000000000000e+00 -8.766791004082008509e-20
-1.335261157538253027e-05 -6.676305787691321037e-06 2.518788092628973981e-06
-0.000000000000000000e+00 -0.000000000000000000e+00 0.000000000000000000e+00
-0.000000000000000000e+00 -0.000000000000000000e+00 -9.147955830346443662e-20
0.000000000000000000e+00 0.000000000000000000e+00 -9.126780006665086153e-20
-1.287939856501687678e-05 -6.439699282508438391e-06 3.118260802305634232e-06
-0.000000000000000000e+00 -0.000000000000000000e+00 -4.129285617864714153e-20
0.000000000000000000e+00 0.000000000000000000e+00 -8.300922883092143323e-20
0.000000000000000000e+00 0.000000000000000000e+00 0.000000000000000000e+00
0.000000000000000000e+00 0.000000000000000000e+00 -8.385626177817573357e-20
-1.651714247145885661e-19 1.012204371968888905e-19 4.881027358552905704e-20
6.906503632669784008e-06 3.453251816334950026e-06 2.437589517412679269e-07
0.000000000000000000e+00 0.000000000000000000e+00 -2.371692252312040949e-20
6.225308791415024702e-06 2.905144102660411890e-05 6.461670782960869518e-06
-8.226807500207392043e-20 1.240056234780295696e-18 -1.507718646112654604e-19
-8.346912627891751876e-06 -4.173456313946120731e-06 1.013904386858607325e-05
3.052672631723442733e-06 -3.663207158068384204e-05 1.324892571073221317e-05
-2.239494766387820998e-06 2.687393719665422467e-05 6.747226477983928480e-06
6.402154022409501211e-06 2.987671877124432938e-05 6.103158593911871946e-06
1.812650507124202726e-19 8.809142651444723526e-20 -1.355252715606880543e-20
2.098418510793625099e-06 -2.518102212952234753e-05 -6.602724340913809743e-06
-4.256113629130010235e-06 -5.532947717868882015e-05 -2.426212368263245696e-06
-3.863356988647448664e-06 4.636028386377024794e-05 3.324139783280136314e-06
5.611316686692903158e-06 2.805658343346401604e-06 -7.021647618642441219e-07
-1.751072107358511216e-05 6.420597726981197627e-05 2.793599886070222881e-07
-0.000000000000000000e+00 -0.000000000000000000e+00 2.371692252312040949e-20
0.000000000000000000e+00 0.000000000000000000e+00 -4.362219678359646746e-20
-3.176373552203626272e-19 -1.423015351387224570e-19 6.162164691275034967e-20
-0.000000000000000000e+00 -0.000000000000000000e+00 0.000000000000000000e+00
0.000000000000000000e+00 0.000000000000000000e+00 -4.595153738854579339e-20
-0.000000000000000000e+00 -0.000000000000000000e+00 -9.147955830346443662e-20
-6.472808276249047217e-06 -3.236404138124523609e-06 1.502245343257771650e-06
-2.103662689780940346e-05 9.709212414373572520e-06 2.764096817646358102e-05
0.000000000000000000e+00 0.000000000000000000e+00 0.000000000000000000e+00
0.000000000000000000e+00 0.000000000000000000e+00 -6.225692162319107492e-20
0.000000000000000000e+00 0.000000000000000000e+00 -2.117582368135750848e-20
0.000000000000000000e+00 0.000000000000000000e+00 0.000000000000000000e+00
1.888883472377089756e-19 1.696183476876736429e-19 3.165785640362947517e-20
-0.000000000000000000e+00 -0.000000000000000000e+00 1.416662604282817317e-19
3.292801269888180257e-05 -7.747767693854753840e-06 -5.570520676142981178e-06
-2.057842429244424995e-06 2.469410915093329137e-05 6.365005674197821244e-06
2.040772826755251326e-06 -2.448927392106237555e-05 3.482409673890972508e-06
1.244184130518691164e-05 2.843849441185593258e-05 5.666788224715745546e-06
0.000000000000000000e+00 -0.000000000000000000e+00 8.080604025151102914e-06
-1.139183298476264828e-05 2.278366596952515765e-05 7.243256373734554379e-06
0.000000000000000000e+00 -0.000000000000000000e+00 1.009973488195912490e-05
-5.768294370801785309e-19 -1.126553819848219451e-19 8.618560238312505950e-20
-1.005295312097832051e-04 -2.297817856223608954e-04 5.533092150670334208e-05
-1.110195070309068184e-05 2.220390140618129591e-05 7.741681131994381299e-06
3.821590967148563568e-06 -4.585909160578361662e-05 6.112501915904423439e-06
0.000000000000000000e+00 0.000000000000000000e+00 -2.159934015498465865e-20
-4.625643838178691989e-06 5.550772605814888124e-05 8.880246726773361834e-07
0.000000000000000000e+00 0.000000000000000000e+00 -7.072725109573407831e-20
-0.000000000000000000e+00 -0.000000000000000000e+00 -4.383395502041004255e-20
-1.437723884154946724e-06 1.725268660986037120e-05 5.580982713947025913e-06
-0.000000000000000000e+00 -0.000000000000000000e+00 0.000000000000000000e+00
0.000000000000000000e+00 0.000000000000000000e+00 0.000000000000000000e+00
0.000000000000000000e+00 0.000000000000000000e+00 -2.286988957586610915e-20
0.000000000000000000e+00 0.000000000000000000e+00 9.105604182983728645e-20
-0.000000000000000000e+00 -0.000000000000000000e+00 -6.183340514956392475e-20
0.000000000000000000e+00 0.000000000000000000e+00 6.183340514956392475e-20
-0.000000000000000000e+00 -0.000000000000000000e+00 2.075230720773035831e-20
0.000000000000000000e+00 0.000000000000000000e+00 2.117582368135750848e-20
0.000000000000000000e+00 0.000000000000000000e+00 -6.352747104407252543e-20
-6.681778085465011919e-06 1.336355617093021527e-05 4.838036111080224513e-06
-0.000000000000000000e+00 -0.000000000000000000e+00 -4.743384504624081899e-20
1.056124832402069149e-04 1.848218456703621857e-04 -2.814685632879057630e-05
2.057842429244424995e-06 -2.469410915093329137e-05 -6.365005674197951687e-06
0.000000000000000000e+00 -0.000000000000000000e+00 0.000000000000000000e+00
-2.042917458584929752e-05 9.922741941698220059e-05 -6.970265816296448145e-05
-3.187439243434365439e-05 1.012480700855612189e-04 -4.286047981726509571e-05
6.567193007870835560e-06 3.064690070339864264e-05 -4.099520483701102898e-06
2.128056814564939472e-06 -2.553668177477945832e-05 -6.610632104710141688e-06
7.199780051661552882e-20 -1.694065894508600678e-21 -1.503483481376383102e-20
-8.440895744922573634e-06 -1.097316446839908535e-04 5.231549822655298894e-06
-7.360075900782745989e-06 -3.680037950391402640e-06 -8.402097341815885831e-06
-1.820444444444517214e-06 2.184533333333314270e-05 6.190484610814129247e-06
1.338312056661794536e-19 5.293955920339377119e-20 -2.159934015498465865e-20
-1.820444444444398630e-06 2.184533333333320030e-05 6.263497088532482883e-06
-3.357939894896018966e-05 -5.494810737102576306e-05 2.447035441151666920e-06
-0.000000000000000000e+00 -0.000000000000000000e+00 -4.383395502041004255e-20
8.647695639843094430e-06 -3.170821734609165400e-05 -4.434834288026502977e-06
-0.000000000000000000e+00 -0.000000000000000000e+00 9.190307477709158679e-20
0.000000000000000000e+00 0.000000000000000000e+00 -4.573977915173221831e-20
-0.000000000000000000e+00 -0.000000000000000000e+00 2.286988957586610915e-20
0.000000000000000000e+00 0.000000000000000000e+00 9.105604182983728645e-20
0.000000000000000000e+00 0.000000000000000000e+00 4.150461441546071661e-20
0.000000000000000000e+00 0.000000000000000000e+00 1.452661504541125082e-19
-0.000000000000000000e+00 -0.000000000000000000e+00 6.225692162319107492e-20
0.000000000000000000e+00 0.000000000000000000e+00 -2.075230720773035831e-20
5.193907639211475981e-06 2.596953819605737990e-06 2.701109721461673474e-07
-6.779241845912659681e-06 1.355848369182541592e-05 4.890479812906831833e-06
0.000000000000000000e+00 0.000000000000000000e+00 7.178604227980195374e-20
1.456629515160742985e-05 3.329438891795952698e-05 6.550938086899296277e-06
-4.070270665517261436e-06 -5.291351865172368716e-05 -2.810010389937157765e-06
2.029497838762055003e-06 -2.435397406514402306e-05 3.463169841438295835e-06
1.973611753562843534e-05 -2.537500826009368612e-05 -3.393134645831313669e-06
-2.207792207792238365e-05 4.415584415584449625e-05 3.707201889020110918e-06
-0.000000000000000000e+00 -0.000000000000000000e+00 0.000000000000000000e+00
-2.110207378831600019e-06 2.532248854597960681e-05 6.583395640697489918e-06
0.000000000000000000e+00 -0.000000000000000000e+00 9.931642367765615263e-06
-1.963577346538904466e-05 -1.570861877231130349e-04 1.950871846061309842e-04
2.351575219814751316e-19 -4.133520782600985655e-19 2.886264767769028405e-19
5.583944410172361856e-06 2.791972205086131376e-06 -6.800766520945486404e-07
-7.224206645630229439e-06 1.444841329126040806e-05 6.312488587679186927e-06
0.000000000000000000e+00 0.000000000000000000e+00 -4.701032857261366882e-20
0.000000000000000000e+00 0.000000000000000000e+00 8.787966827763366018e-20
0.000000000000000000e+00 0.000000000000000000e+00 -8.766791004082008509e-20
-1.711422790054897413e-04 -2.775280200089035542e-05 -4.114357019151678688e-05
0.000000000000000000e+00 0.000000000000000000e+00 0.000000000000000000e+00
0.000000000000000000e+00 0.000000000000000000e+00 -6.860966872759832746e-20
0.000000000000000000e+00 0.000000000000000000e+00 6.860966872759832746e-20
-1.287939856501687678e-05 -6.439699282508438391e-06 3.118260802305634656e-06
0.000000000000000000e+00 0.000000000000000000e+00 0.000000000000000000e+00
-0.000000000000000000e+00 -0.000000000000000000e+00 -2.075230720773035831e-20
-0.000000000000000000e+00 -0.000000000000000000e+00 6.246867986000465001e-20
0.000000000000000000e+00 0.000000000000000000e+00 -1.257843926672636004e-19
5.256333840004399395e-06 2.628166920002056549e-06 2.557895077220266614e-07
-2.203909196402577744e-05 1.017188859878116206e-05 5.001631853786094782e-06
2.430883583465847267e-05 -1.121946269291935059e-05 -1.479129163579907181e-05
0.000000000000000000e+00 0.000000000000000000e+00 9.767711608314752635e-06
3.981366618729238129e-06 5.175776604348060136e-05 2.775246731290565255e-06
2.029497838762055003e-06 -2.435397406514402306e-05 3.463169841438294988e-06
3.052672631723442310e-06 -3.663207158068384204e-05 1.324892571073221487e-05
-4.292250314799795976e-06 5.150700377759629810e-05 2.947192194760990685e-06
6.384170443694686704e-06 2.979279540390939232e-05 6.086014889996425796e-06
2.110207378831600019e-06 -2.532248854597960681e-05 -6.583395640697468742e-06
-2.075102930471718241e-06 2.490123516566063413e-05 -3.402281061404442807e-06
-6.731775169227761587e-05 5.983800150424630436e-05 3.072297390067649578e-05
1.820444444444517214e-06 -2.184533333333313931e-05 2.936075103981045565e-06
5.583944410172361856e-06 2.791972205086131376e-06 -6.987395679039554006e-07
0.000000000000000000e+00 0.000000000000000000e+00 -7.803688462124836774e-06
0.000000000000000000e+00 0.000000000000000000e+00 2.371692252312040949e-20
-0.000000000000000000e+00 -0.000000000000000000e+00 4.383395502041004255e-20
0.000000000000000000e+00 0.000000000000000000e+00 0.000000000000000000e+00
0.000000000000000000e+00 0.000000000000000000e+00 0.000000000000000000e+00
-0.000000000000000000e+00 -0.000000000000000000e+00 2.286988957586610915e-20
0.000000000000000000e+00 0.000000000000000000e+00 -4.573977915173221831e-20
0.000000000000000000e+00 0.000000000000000000e+00 6.860966872759832746e-20
0.000000000000000000e+00 0.000000000000000000e+00 8.372525035812275121e-06
-0.000000000000000000e+00 -0.000000000000000000e+00 0.000000000000000000e+00
-0.000000000000000000e+00 -0.000000000000000000e+00 -4.150461441546071661e-20
0.000000000000000000e+00 0.000000000000000000e+00 -2.075230720773035831e-20
0.000000000000000000e+00 0.000000000000000000e+00 0.000000000000000000e+00
5.294270394420426748e-06 2.647135197210165517e-06 2.399408641321132382e-07
0.000000000000000000e+00 0.000000000000000000e+00 1.416662604282817317e-19
-1.009303674917902716e-05 2.893337201431182772e-04 1.079828994092153114e-05
0.000000000000000000e+00 -0.000000000000000000e+00 9.767711608314750941e-06
2.276401045745932161e-20 3.388131789017201356e-19 1.397604362969595559e-20
1.079261833653947638e-05 1.788491038626547995e-04 2.160172654077188622e-07
-1.477466954631603184e-05 2.954933909263232118e-05 3.330226317525060018e-06
2.152170580378487693e-06 -2.582604696454122382e-05 3.614956039020843784e-06
-4.185179505839044424e-06 -5.440733357590644249e-05 -2.525655118897984359e-06
6.277671019720324502e-06 2.929579809202809631e-05 5.928538513810524470e-06
1.252036894183775233e-05 -4.590801945340504105e-05 -3.882207089897721577e-06
7.360075900782746836e-06 3.680037950391403911e-06 -9.948894041819997806e-06
-1.820444444444517214e-06 2.184533333333313931e-05 6.190484610814129247e-06
-0.000000000000000000e+00 -0.000000000000000000e+00 2.159934015498465865e-20
5.779365316504062595e-06 2.889682658252081272e-06 -8.197736097340172092e-07
7.128482021008956020e-06 3.564241010504536032e-06 -1.106439522244799417e-06
-0.000000000000000000e+00 -0.000000000000000000e+00 2.202285662861180882e-20
0.000000000000000000e+00 0.000000000000000000e+00 8.766791004082008509e-20
0.000000000000000000e+00 0.000000000000000000e+00 2.286988957586610915e-20
-0.000000000000000000e+00 -0.000000000000000000e+00 2.286988957586610915e-20
0.000000000000000000e+00 0.000000000000000000e+00 -2.286988957586610915e-20
-0.000000000000000000e+00 -0.000000000000000000e+00 -9.105604182983728645e-20
0.000000000000000000e+00 0.000000000000000000e+00 -6.183340514956392475e-20
0.000000000000000000e+00 0.000000000000000000e+00 6.204516338637749984e-20
0.000000000000000000e+00 0.000000000000000000e+00 2.075230720773035831e-20
-0.000000000000000000e+00 -0.000000000000000000e+00 -2.075230720773035831e-20
0.000000000000000000e+00 0.000000000000000000e+00 0.000000000000000000e+00
5.332572895130688738e-06 2.666286447565296512e-06 2.238539958650608481e-07
-1.468079310690900642e-05 -7.340396553454503210e-06 -4.200119953046199388e-07
2.986115113639761109e-05 1.393520386365238882e-04 -6.508240551599616015e-05
0.000000000000000000e+00 0.000000000000000000e+00 9.767711608314659462e-06
-1.968957010502051916e-06 -7.482036639907792622e-05 6.412271761475118515e-07
8.214359926991985034e-06 -3.011931973230344594e-05 -3.004610796824774812e-06
1.511072952703230761e-05 -3.022145905406424930e-05 -3.385773086538197787e-06
-6.438324384118019838e-06 -3.004551379255074569e-05 -6.137639715911333414e-06
1.400780736521799186e-19 -6.539094352803198618e-19 1.897353801849632760e-19
6.225308791415154298e-06 2.905144102660404436e-05 5.879088409432620334e-06
-3.680037950391492849e-06 -4.784049335508823729e-05 1.590878438019455217e-05
7.360075900782745989e-06 3.680037950391402640e-06 -9.948894041819997806e-06
1.437101975435460061e-05 7.185509877177300304e-06 7.351698808828560188e-06
1.948175778684890780e-19 8.046812998915853221e-21 -5.209252625613947085e-20
9.021048862758137803e-06 -3.307717916344634886e-05 -4.123793192253792341e-06
0.000000000000000000e+00 0.000000000000000000e+00 -8.766791004082008509e-20
-0.000000000000000000e+00 -0.000000000000000000e+00 6.585681164902185136e-20
0.000000000000000000e+00 0.000000000000000000e+00 -7.765293989177179081e-06
0.000000000000000000e+00 0.000000000000000000e+00 4.595153738854579339e-20
0.000000000000000000e+00 0.000000000000000000e+00 9.190307477709158679e-20
-0.000000000000000000e+00 -0.000000000000000000e+00 -9.126780006665086153e-20
-0.000000000000000000e+00 -0.000000000000000000e+00 -9.105604182983728645e-20
0.000000000000000000e+00 0.000000000000000000e+00 4.108109794183356644e-20
0.000000000000000000e+00 0.000000000000000000e+00 -2.075230720773035831e-20
0.000000000000000000e+00 0.000000000000000000e+00 2.075230720773035831e-20
0.000000000000000000e+00 0.000000000000000000e+00 -2.096406544454393339e-20
0.000000000000000000e+00 0.000000000000000000e+00 2.117582368135750848e-20
3.748120791600279000e-19 9.296186596115946221e-20 -1.429368098491631822e-20
0.000000000000000000e+00 0.000000000000000000e+00 -7.157428404298837865e-20
1.530210118607116290e-05 1.224168094885702519e-04 -7.622410296697990025e-06
9.899026292468774804e-06 7.919221033975133684e-05 -6.828740062719922314e-07
-2.335340266374701606e-05 -7.904228593883767752e-05 7.128023355204818177e-07
-1.238149872207204119e-05 1.100577664184185844e-05 1.308113064629557934e-05
-2.018316032487683814e-06 2.421979238985386257e-05 6.323697130666525652e-06
2.069338755665010553e-06 -2.483206506797679271e-05 -6.455894278368522954e-06
2.075135222767196615e-06 7.885513846516621584e-05 -9.532305648968959249e-07
-1.234714984668488087e-05 -5.762003261786276384e-05 -1.783844019739356092e-06
3.680037950391492002e-06 4.784049335508823729e-05 -1.590878438019455217e-05
-1.448417669049723174e-06 1.738101202859543379e-05 2.111359210728578809e-05
5.570325033562029567e-06 2.785162516781064335e-06 -6.784179285528061639e-07
-7.083250326493516150e-06 1.416650065298698148e-05 6.208260580279671717e-06
1.763361472636810515e-06 -2.116033767164004651e-05 -6.137818088445342281e-06
-0.000000000000000000e+00 -0.000000000000000000e+00 6.585681164902185136e-20
-0.000000000000000000e+00 -0.000000000000000000e+00 -1.096907666694318939e-19
0.000000000000000000e+00 0.000000000000000000e+00 8.766791004082008509e-20
0.000000000000000000e+00 0.000000000000000000e+00 0.000000000000000000e+00
0.000000000000000000e+00 0.000000000000000000e+00 0.000000000000000000e+00
-0.000000000000000000e+00 -0.000000000000000000e+00 2.286988957586610915e-20
0.000000000000000000e+00 0.000000000000000000e+00 0.000000000000000000e+00
-0.000000000000000000e+00 -0.000000000000000000e+00 8.258571235729428306e-20
0.000000000000000000e+00 0.000000000000000000e+00 -2.075230720773035831e-20
0.000000000000000000e+00 0.000000000000000000e+00 6.268043809681822509e-20
-0.000000000000000000e+00 -0.000000000000000000e+00 1.259961509040771754e-19
5.231243941006945709e-06 2.615621970503330553e-06 2.545685554178764337e-07
6.582814497886273046e-05 -5.851390664787793595e-05 1.503525783117934725e-05
5.999034987702892123e-06 -7.198841985243450558e-05 -2.144254003091299886e-05
-8.432653760648039221e-06 1.011918451277759895e-04 -1.472783271779505629e-05
-7.897464932233348725e-06 -1.026670441190345414e-04 4.102880845810069281e-06
-1.244184130518691164e-05 -2.843849441185593258e-05 -5.666788224715743852e-06
-1.274985058768822793e-05 1.133320052238957603e-05 5.648418656078650304e-06
-4.292250314799795976e-06 5.150700377759629810e-05 2.947192194760991109e-06
1.178146407923367481e-05 5.498016570308954053e-05 -7.511995902213627629e-06
-4.428272259469457717e-05 8.856544518938899171e-05 8.560537014963573926e-06
-1.963577346538904466e-05 -1.570861877231130349e-04 1.950871846061309842e-04
0.000000000000000000e+00 0.000000000000000000e+00 -1.185846126156020475e-20
1.448417669049723174e-06 -1.738101202859543379e-05 -2.111359210728578809e-05
0.000000000000000000e+00 0.000000000000000000e+00 -4.319868030996931729e-20
5.750895536620190932e-06 2.875447768310095466e-06 -7.965144085479362753e-07
-1.763361472636810515e-06 2.116033767164004651e-05 6.137818088445342281e-06
0.000000000000000000e+00 0.000000000000000000e+00 8.766791004082008509e-20
-0.000000000000000000e+00 -0.000000000000000000e+00 0.000000000000000000e+00
3.295686311843540095e-05 -8.160747057898266139e-05 2.380161942709303085e-05
0.000000000000000000e+00 0.000000000000000000e+00 2.286988957586610915e-20
-0.000000000000000000e+00 -0.000000000000000000e+00 4.573977915173221831e-20
0.000000000000000000e+00 0.000000000000000000e+00 6.860966872759832746e-20
-6.423229463371647156e-06 -3.211614731685878212e-06 1.576610868282186597e-06
0.000000000000000000e+00 0.000000000000000000e+00 8.258571235729428306e-20
-0.000000000000000000e+00 -0.000000000000000000e+00 6.225692162319107492e-20
0.000000000000000000e+00 0.000000000000000000e+00 -2.096406544454393339e-20
-0.000000000000000000e+00 -0.000000000000000000e+00 2.096406544454393339e-20
5.268938957126689274e-06 2.634469478563297203e-06 2.387928217200263377e-07
-0.000000000000000000e+00 -0.000000000000000000e+00 2.371692252312040949e-20
9.181260711642743818e-06 1.958668951817110911e-04 -3.455574497254512950e-05
8.432653760648039221e-06 -1.011918451277759895e-04 1.472783271779505629e-05
9.711386881066685260e-06 1.748049638592042852e-04 -1.417239294033765300e-05
1.481142245563553815e-06 -1.777370694676227308e-05 1.050739734205628054e-05
2.032816460581768396e-05 -2.613621163605140476e-05 -3.494922417524428263e-06
-8.140541331034517790e-06 -4.070270665518152515e-06 1.021485573971780439e-05
-1.520384593275226795e-05 -1.026259600460761396e-04 4.824375444035556109e-06
1.393541596075572946e-05 3.304684356407701969e-04 -3.642264218986429939e-05
-3.680037950391492002e-06 -4.784049335508823729e-05 1.590878438019455217e-05
1.791599869641791335e-06 -2.149919843570337051e-05 1.196731228433038589e-05
-4.066327047503154844e-04 3.614512931113913249e-04 3.607506188132498419e-04
0.000000000000000000e+00 0.000000000000000000e+00 2.159934015498465865e-20
5.779365316504061748e-06 2.889682658252081696e-06 -8.197736097340173151e-07
4.110779461215883905e-05 1.157108292786689839e-04 -2.769667175908906978e-05
0.000000000000000000e+00 0.000000000000000000e+00 -4.383395502041004255e-20
0.000000000000000000e+00 0.000000000000000000e+00 8.745615180400651001e-20
-0.000000000000000000e+00 -0.000000000000000000e+00 -2.308164781267968424e-20
0.000000000000000000e+00 0.000000000000000000e+00 2.286988957586610915e-20
0.000000000000000000e+00 0.000000000000000000e+00 -2.286988957586610915e-20
0.000000000000000000e+00 0.000000000000000000e+00 -9.105604182983728645e-20
0.000000000000000000e+00 0.000000000000000000e+00 -0.000000000000000000e+00
0.000000000000000000e+00 0.000000000000000000e+00 -6.183340514956392475e-20
0.000000000000000000e+00 0.000000000000000000e+00 2.075230720773035831e-20
0.000000000000000000e+00 0.000000000000000000e+00 2.096406544454393339e-20
-0.000000000000000000e+00 -0.000000000000000000e+00 0.000000000000000000e+00
5.306997005945383011e-06 2.653498502972643648e-06 2.227803555971315506e-07
-1.468079310690900642e-05 -7.340396553454503210e-06 -4.200119953046199388e-07
6.029256826431892682e-06 7.838033874361585848e-05 -2.386715168858955699e-06
0.000000000000000000e+00 -0.000000000000000000e+00 -9.767711608314659462e-06
-1.537918985703332653e-05 -1.230335188562685096e-04 3.260059283063181340e-05
1.202720055383700282e-05 -1.069084493674407667e-05 -5.381868530656462463e-06
7.405711227817558162e-06 -1.481142245563524507e-05 -5.639429298616058850e-06
-8.208568138814765119e-06 -4.104284069408627698e-06 1.030021665119186781e-05
3.770308568001295415e-06 -4.524370281601252785e-05 6.332908669567623000e-06
7.243096423721303183e-06 9.416025350837495679e-05 -4.150255517656299119e-06
0.000000000000000000e+00 0.000000000000000000e+00 -9.005903088039834915e-06
1.396527756638561268e-04 1.457246354753280557e-04 -5.457205767455071464e-05
-1.437101975435460061e-05 -7.185509877177300304e-06 -7.351698808828560188e-06
0.000000000000000000e+00 0.000000000000000000e+00 2.159934015498465865e-20
-1.444841329126066259e-06 1.733809594951249102e-05 5.512031038494962067e-06
0.000000000000000000e+00 0.000000000000000000e+00 -8.787966827763366018e-20
0.000000000000000000e+00 0.000000000000000000e+00 6.564505341220827628e-20
5.708540446097927205e-06 2.854270223048913204e-06 -1.057758965012309898e-06
0.000000000000000000e+00 0.000000000000000000e+00 0.000000000000000000e+00
-0.000000000000000000e+00 -0.000000000000000000e+00 -9.190307477709158679e-20
0.000000000000000000e+00 0.000000000000000000e+00 -9.105604182983728645e-20
0.000000000000000000e+00 0.000000000000000000e+00 0.000000000000000000e+00
-0.000000000000000000e+00 -0.000000000000000000e+00 -4.129285617864714153e-20
0.000000000000000000e+00 0.000000000000000000e+00 -2.075230720773035831e-20
-0.000000000000000000e+00 -0.000000000000000000e+00 2.075230720773035831e-20
0.000000000000000000e+00 0.000000000000000000e+00 2.117582368135750848e-20
0.000000000000000000e+00 0.000000000000000000e+00 2.117582368135750848e-20
-1.283254915090265014e-19 7.750351467376848102e-20 3.816942218564690903e-20
-1.643376798782196090e-06 1.972052158538613285e-05 1.409085753565433196e-05
5.909831248467344924e-06 2.954915624233724131e-06 7.031751084407339169e-08
-3.700143099200917178e-06 -2.331090152496425390e-04 2.311896896848186872e-05
-2.335340266374701606e-05 -7.904228593883767752e-05 7.128023355204819236e-07
-1.359139263282732034e-06 1.630967115938989094e-05 5.166909637794102437e-06
0.000000000000000000e+00 0.000000000000000000e+00 3.315010132794634490e-05
1.178146407923367650e-05 5.498016570308954053e-05 -7.511995902213627629e-06
1.849964737366224391e-06 -1.146978137166815092e-04 6.841901670385924309e-06
-5.374799608925725736e-06 -2.508239817498724583e-05 -5.435158321111608419e-06
8.910602526261283328e-06 -1.782120505252247856e-05 -6.713924577274137028e-06
-4.276387515794854836e-05 -8.820049251326873699e-05 -8.209034658077662576e-06
-0.000000000000000000e+00 -0.000000000000000000e+00 4.362219678359646746e-20
0.000000000000000000e+00 0.000000000000000000e+00 -2.159934015498465865e-20
-9.021048862758139497e-06 3.307717916344634886e-05 4.123793192253792341e-06
0.000000000000000000e+00 0.000000000000000000e+00 6.606856988583542645e-20
0.000000000000000000e+00 0.000000000000000000e+00 -1.092672501958047437e-19
0.000000000000000000e+00 0.000000000000000000e+00 8.745615180400651001e-20
0.000000000000000000e+00 0.000000000000000000e+00 0.000000000000000000e+00
0.000000000000000000e+00 0.000000000000000000e+00 0.000000000000000000e+00
0.000000000000000000e+00 0.000000000000000000e+00 0.000000000000000000e+00
-0.000000000000000000e+00 -0.000000000000000000e+00 0.000000000000000000e+00
0.000000000000000000e+00 0.000000000000000000e+00 8.258571235729428306e-20
0.000000000000000000e+00 0.000000000000000000e+00 -4.150461441546071661e-20
0.000000000000000000e+00 0.000000000000000000e+00 2.075230720773035831e-20
0.000000000000000000e+00 0.000000000000000000e+00 1.262079091408907505e-19
5.218758871935308498e-06 2.609379435967559382e-06 2.539609932331216597e-07
2.997346346241266604e-05 -1.907402220335357697e-05 -1.674259091799568764e-06
0.000000000000000000e+00 0.000000000000000000e+00 -7.920596024851019086e-06
-1.481142245563449841e-06 1.777370694676227308e-05 5.333696193382093515e-06
7.243250947506776218e-06 1.847028991614257302e-04 -1.630312472623374884e-05
-1.481142245563552756e-06 1.777370694676227308e-05 -1.050739734205628054e-05
1.262546254505890738e-05 -1.122263337338568096e-05 2.058483019824227631e-06
-2.018316032487683814e-06 2.421979238985386596e-05 6.323697130666526499e-06
-2.973085644862594190e-19 -7.216720710606638889e-19 2.947674656444965180e-19
8.294879478119154955e-05 -1.309717812334613757e-05 -8.599546455854733382e-06
0.000000000000000000e+00 -0.000000000000000000e+00 9.005903088039546924e-06
0.000000000000000000e+00 0.000000000000000000e+00 -1.185846126156020475e-20
-9.176630558384987952e-06 4.457220556929757295e-05 8.754603698480192795e-06
0.000000000000000000e+00 0.000000000000000000e+00 -4.341043854678289238e-20
1.177375796683477471e-19 3.388131789017201356e-20 -2.371692252312040949e-20
-9.021048862758137803e-06 3.307717916344634886e-05 4.123793192253792341e-06
0.000000000000000000e+00 0.000000000000000000e+00 -8.766791004082008509e-20
-0.000000000000000000e+00 -0.000000000000000000e+00 0.000000000000000000e+00
0.000000000000000000e+00 0.000000000000000000e+00 1.092672501958047437e-19
0.000000000000000000e+00 0.000000000000000000e+00 -2.286988957586610915e-20
0.000000000000000000e+00 0.000000000000000000e+00 4.573977915173221831e-20
-0.000000000000000000e+00 -0.000000000000000000e+00 -2.265813133905253407e-20
0.000000000000000000e+00 0.000000000000000000e+00 0.000000000000000000e+00
0.000000000000000000e+00 0.000000000000000000e+00 -8.258571235729428306e-20
0.000000000000000000e+00 0.000000000000000000e+00 6.225692162319107492e-20
-0.000000000000000000e+00 -0.000000000000000000e+00 -6.268043809681822509e-20
0.000000000000000000e+00 0.000000000000000000e+00 2.117582368135750848e-20
5.256333840004399395e-06 2.628166920002151840e-06 2.382215470269172497e-07
0.000000000000000000e+00 0.000000000000000000e+00 2.371692252312040949e-20
0.000000000000000000e+00 0.000000000000000000e+00 8.851494298807438543e-20
7.424225505887031201e-06 -1.484845101177448422e-05 -5.296212205803889662e-06
4.732205462913989946e-06 1.798238075907171625e-04 -8.415902656592953206e-06
-1.481142245563552756e-06 1.777370694676227308e-05 -1.050739734205627885e-05
1.284421600372026040e-05 -1.141708089219577818e-05 -5.690224273543343283e-06
-1.385863680945626677e-05 -3.167688413590027453e-05 -5.491577473693585295e-06
7.262411347517616641e-06 3.631205673759222520e-06 8.654697159327700827e-06
-7.204773162219919276e-06 -9.366205110885881592e-05 4.128296493753214538e-06
-1.782120505252209782e-06 2.138544606302696886e-05 6.012512442586690232e-06
7.204620275786619574e-06 3.602310137893343668e-06 -7.329834264537274156e-07
0.000000000000000000e+00 -0.000000000000000000e+00 -6.163278735885848630e-05
0.000000000000000000e+00 0.000000000000000000e+00 2.159934015498465865e-20
0.000000000000000000e+00 -0.000000000000000000e+00 -7.803688462124569111e-06
-1.167381404905674144e-05 -5.836907024528170820e-06 -6.030430145127695595e-06
0.000000000000000000e+00 0.000000000000000000e+00 4.404571325722361763e-20
0.000000000000000000e+00 0.000000000000000000e+00 -8.766791004082008509e-20
0.000000000000000000e+00 0.000000000000000000e+00 -2.286988957586610915e-20
-0.000000000000000000e+00 -0.000000000000000000e+00 -2.308164781267968424e-20
-0.000000000000000000e+00 -0.000000000000000000e+00 -4.573977915173221831e-20
0.000000000000000000e+00 0.000000000000000000e+00 -9.105604182983728645e-20
-1.872418203898023074e-04 9.469701261093497915e-05 -9.189108994752527668e-05
0.000000000000000000e+00 0.000000000000000000e+00 -4.108109794183356644e-20
-0.000000000000000000e+00 -0.000000000000000000e+00 -2.075230720773035831e-20
0.000000000000000000e+00 0.000000000000000000e+00 -2.117582368135750848e-20
0.000000000000000000e+00 0.000000000000000000e+00 0.000000000000000000e+00
-3.159432893258540265e-19 -2.502982359136457502e-19 -4.139873529705392907e-20
7.185459051648999047e-06 3.592729525824615990e-06 9.259443823375028139e-06
0.000000000000000000e+00 0.000000000000000000e+00 -2.202285662861180882e-20
4.732205462913989946e-06 1.798238075907171625e-04 -8.415902656592951512e-06
-1.520712221632277436e-05 1.824854665958759758e-04 -2.655960489759952661e-05
3.726944967918921492e-20 -2.964615315390051187e-20 -1.545835128739098119e-20
-1.313295994119190181e-05 1.167374216994834794e-05 5.798634897385712242e-06
-1.178146407923367650e-05 -5.498016570308954053e-05 -2.095882558123953279e-06
-7.262411347517617488e-06 -3.631205673759225908e-06 -8.654697159327700827e-06
1.063629705245540559e-05 -3.899975585900366658e-05 -3.558704022720282826e-06
7.128482021009072910e-06 3.564241010504478010e-06 -6.537618537984520052e-07
-6.171851315964512863e-05 -1.410708872220439909e-04 -2.280614577182618087e-05
0.000000000000000000e+00 0.000000000000000000e+00 6.163278735885847274e-05
-0.000000000000000000e+00 -0.000000000000000000e+00 -2.159934015498465865e-20
-9.843990331795168989e-06 -2.250054932981726872e-05 -3.769142822227608083e-06
0.000000000000000000e+00 0.000000000000000000e+00 8.809142651444723526e-20
-8.500002766928001688e-06 3.116667681206908259e-05 4.188637727125198423e-06
5.694514548195844297e-06 2.847257274097871750e-06 -1.055160048636335615e-06
0.000000000000000000e+00 0.000000000000000000e+00 0.000000000000000000e+00
0.000000000000000000e+00 0.000000000000000000e+00 -9.190307477709158679e-20
0.000000000000000000e+00 0.000000000000000000e+00 0.000000000000000000e+00
-0.000000000000000000e+00 -0.000000000000000000e+00 2.286988957586610915e-20
-0.000000000000000000e+00 -0.000000000000000000e+00 0.000000000000000000e+00
0.000000000000000000e+00 0.000000000000000000e+00 2.075230720773035831e-20
0.000000000000000000e+00 0.000000000000000000e+00 6.225692162319107492e-20
0.000000000000000000e+00 0.000000000000000000e+00 2.117582368135750848e-20
0.000000000000000000e+00 0.000000000000000000e+00 -2.117582368135750848e-20
-7.835054762102278136e-20 3.366955965335843848e-20 1.905824131322175763e-20
-4.432373436350534316e-06 -2.068440936963575848e-05 -5.430250022822759197e-06
0.000000000000000000e+00 0.000000000000000000e+00 -4.404571325722361763e-20
1.526384593310342521e-06 -1.831661511972635997e-05 2.686273634537552393e-06
4.107228474450468204e-06 -4.928674169340547276e-05 7.173373367676541582e-06
3.273782341137870810e-19 1.236668102991278495e-19 -2.138758191817108356e-20
-1.343042394014940921e-05 1.193815461346617295e-05 5.910024937655804559e-06
3.438953765852459377e-19 7.148958074826294862e-19 -3.599890025830776441e-19
-4.536669411255050993e-05 2.093847420579089146e-05 5.013850146943013564e-05
5.374799608925725736e-06 2.508239817498724583e-05 5.435158321111608419e-06
7.109623602964100037e-06 3.554811801481991573e-06 -6.757944360571629610e-07
5.181541192451481046e-06 2.590770596225693513e-06 -5.617954421227734529e-07
1.105946335716760210e-05 5.529731678583801051e-06 -1.346948010478599088e-06
0.000000000000000000e+00 0.000000000000000000e+00 -2.181109839179823373e-20
6.962989337922487323e-06 5.570391470338037970e-05 -7.595988368641314838e-07
-2.882565213281044747e-06 -3.747334777265389427e-05 -2.279076292960440382e-06
-1.434182692322163125e-06 1.721019230786565595e-05 5.509715754888828229e-06
-0.000000000000000000e+00 -0.000000000000000000e+00 6.564505341220827628e-20
0.000000000000000000e+00 0.000000000000000000e+00 0.000000000000000000e+00
-6.590493001834558020e-06 -3.295246500917334491e-06 1.419423024860374138e-06
0.000000000000000000e+00 0.000000000000000000e+00 0.000000000000000000e+00
-0.000000000000000000e+00 -0.000000000000000000e+00 2.286988957586610915e-20
0.000000000000000000e+00 0.000000000000000000e+00 2.075230720773035831e-20
0.000000000000000000e+00 0.000000000000000000e+00 -4.150461441546071661e-20
0.000000000000000000e+00 0.000000000000000000e+00 2.075230720773035831e-20
0.000000000000000000e+00 0.000000000000000000e+00 -2.075230720773035831e-20
5.193907639211475981e-06 2.596953819605643546e-06 2.527516551701350427e-07
-1.211449452504375958e-05 1.076843957781661005e-05 4.647128737592643860e-06
5.880502061130227531e-06 2.940251030565216256e-06 1.289307938537115325e-07
-1.600892270310627641e-19 -1.397604362969595559e-20 1.768181277393351958e-20
-1.401781769366899550e-05 1.246028239437202558e-05 5.543826177603254067e-06
-4.107228474450468204e-06 4.928674169340547276e-05 -7.173373367676541582e-06
-1.238149872207204119e-05 1.100577664184185844e-05 5.522016007597710458e-06
1.401177091784821678e-05 3.202690495508147379e-05 5.552257887767791738e-06
7.262411347517616641e-06 3.631205673759225908e-06 8.654697159327700827e-06
-5.276163143126268271e-06 -2.462209466792368979e-05 1.239287018484395548e-05
8.793605238543763511e-06 7.034884190834945756e-05 -1.899324682271566695e-05
-0.000000000000000000e+00 -0.000000000000000000e+00 -1.185846126156020475e-20
0.000000000000000000e+00 0.000000000000000000e+00 -7.256235827664228547e-06
0.000000000000000000e+00 0.000000000000000000e+00 4.362219678359646746e-20
1.281265773344087477e-05 -1.138902909639183937e-05 -7.008516167204673434e-06
-5.611350231149575597e-06 6.733620277379182397e-05 -9.050177699008785291e-06
-2.785179085365557687e-06 3.342214902438946035e-05 3.159763331338748678e-06
0.000000000000000000e+00 0.000000000000000000e+00 0.000000000000000000e+00
-0.000000000000000000e+00 -0.000000000000000000e+00 -1.090554919589911687e-19
1.017602740032643203e-04 -6.475653800207717523e-05 5.271136021149591623e-05
0.000000000000000000e+00 0.000000000000000000e+00 0.000000000000000000e+00
0.000000000000000000e+00 0.000000000000000000e+00 -9.126780006665086153e-20
0.000000000000000000e+00 0.000000000000000000e+00 0.000000000000000000e+00
-0.000000000000000000e+00 -0.000000000000000000e+00 -4.129285617864714153e-20
0.000000000000000000e+00 0.000000000000000000e+00 -6.225692162319107492e-20
0.000000000000000000e+00 0.000000000000000000e+00 -6.268043809681822509e-20
0.000000000000000000e+00 0.000000000000000000e+00 0.000000000000000000e+00
5.231243941006945709e-06 2.615621970503425421e-06 2.370844513370720518e-07
1.643376798782195878e-06 -1.972052158538612946e-05 -1.409085753565433196e-05
-0.000000000000000000e+00 -0.000000000000000000e+00 -8.830318475126081035e-20
0.000000000000000000e+00 0.000000000000000000e+00 4.404571325722361763e-20
3.801746945616587528e-05 6.816925557657287581e-05 2.196993316036794299e-05
4.254437391455419721e-05 1.070471343656532272e-04 -3.561559292219075980e-05
1.281265773344077482e-05 -1.138902909639183937e-05 -5.676243378522333438e-06
-3.770198405588360900e-06 -4.901257927265012911e-05 -2.476838899072981119e-06
-1.699741175775453766e-06 2.039689410930529018e-05 5.802752762647454314e-06
-1.713113224717502618e-06 2.055735869660902938e-05 5.848403650586223129e-06
-1.777405900740937553e-06 2.132887080889199179e-05 5.996606325013707822e-06
1.869937547007767569e-05 -3.739875094015406389e-05 -3.238891826073784255e-05
6.570417300005427246e-06 -1.314083460001090193e-05 1.567062094011943724e-06
-0.000000000000000000e+00 -0.000000000000000000e+00 -2.159934015498465865e-20
-1.423628637048885688e-06 1.708354364458783189e-05 5.431105185404936001e-06
5.462980290428651517e-06 7.101874377557471606e-05 -3.002448124860219470e-06
0.000000000000000000e+00 -0.000000000000000000e+00 2.714740595950032587e-19
-1.423628637048986062e-06 1.708354364458783189e-05 5.488202590634024173e-06
2.375752161883843073e-05 -6.236349424945124742e-05 -1.005962705177347426e-05
0.000000000000000000e+00 0.000000000000000000e+00 -2.286988957586610915e-20
0.000000000000000000e+00 0.000000000000000000e+00 -4.573977915173221831e-20
0.000000000000000000e+00 0.000000000000000000e+00 -9.126780006665086153e-20
0.000000000000000000e+00 0.000000000000000000e+00 0.000000000000000000e+00
0.000000000000000000e+00 0.000000000000000000e+00 -4.129285617864714153e-20
0.000000000000000000e+00 0.000000000000000000e+00 -2.075230720773035831e-20
0.000000000000000000e+00 0.000000000000000000e+00 -2.075230720773035831e-20
0.000000000000000000e+00 0.000000000000000000e+00 8.427977825180288374e-20
5.256333840004399395e-06 2.628166920002247131e-06 2.206535863317647452e-07
-1.643376798782195878e-06 1.972052158538612946e-05 1.409085753565433365e-05
-0.000000000000000000e+00 -0.000000000000000000e+00 2.202285662861180882e-20
0.000000000000000000e+00 0.000000000000000000e+00 0.000000000000000000e+00
1.295385298112917695e-06 -1.554462357735430253e-05 -4.976496246867749528e-06
5.294270394420426748e-06 2.647135197210213374e-06 -1.316489697008254353e-07
1.293951495739522673e-05 -1.150179107324017858e-05 -5.732443465379474963e-06
3.770198405588360900e-06 4.901257927265012911e-05 2.476838899072981542e-06
0.000000000000000000e+00 -0.000000000000000000e+00 4.235164736271501695e-22
-5.193580726122263583e-06 6.232296871346411707e-05 -8.792982127755207369e-06
-1.777405900741054020e-06 2.132887080889197824e-05 5.996606325013559592e-06
-1.448417669049723385e-06 1.738101202859543379e-05 2.111359210728578809e-05
-2.113409768633892983e-04 2.012771208222758674e-05 -4.149860638129881924e-05
-0.000000000000000000e+00 -0.000000000000000000e+00 4.341043854678289238e-20
6.878691646180204854e-06 5.502953316944155074e-05 -7.504027250378082498e-07
5.410293492486867130e-06 2.705146746243482693e-06 -8.578353050921348702e-07
1.395986102543164791e-06 -1.675183323051688736e-05 2.232831247436686976e-06
-0.000000000000000000e+00 0.000000000000000000e+00 7.727182174356453728e-06
3.550913838120078707e-05 -3.381822702971781357e-06 -2.142032032371461698e-05
0.000000000000000000e+00 0.000000000000000000e+00 9.190307477709158679e-20
0.000000000000000000e+00 0.000000000000000000e+00 0.000000000000000000e+00
0.000000000000000000e+00 0.000000000000000000e+00 2.286988957586610915e-20
0.000000000000000000e+00 0.000000000000000000e+00 2.075230720773035831e-20
0.000000000000000000e+00 0.000000000000000000e+00 -6.183340514956392475e-20
0.000000000000000000e+00 0.000000000000000000e+00 -6.225692162319107492e-20
-0.000000000000000000e+00 -0.000000000000000000e+00 -2.075230720773035831e-20
0.000000000000000000e+00 0.000000000000000000e+00 0.000000000000000000e+00
5.294270394420426748e-06 2.647135197210165517e-06 2.045513561480013893e-07
6.945670167485262780e-20 6.670384459627615170e-20 1.101142831430590441e-20
-0.000000000000000000e+00 -0.000000000000000000e+00 4.425747149403719272e-20
5.822423384268785214e-06 2.911211692134392607e-06 -8.562387329807149186e-09
-1.307810985251665276e-06 1.569373182302074226e-05 5.006748044607740278e-06
5.371245765320523429e-06 2.685622882660285855e-06 -1.515150877650357525e-07
1.323112963754296006e-05 -1.176100412226037713e-05 -5.841980055649306975e-06
3.233502195204252064e-05 2.407162745318744239e-04 -1.550178993583200995e-05
3.390652527261243436e-06 -4.068783032713460274e-05 5.785867494380115335e-06
1.406976838167010971e-05 7.034884190833919830e-06 1.667305172929429418e-05
0.000000000000000000e+00 -0.000000000000000000e+00 -8.958315836622856055e-06
5.181541192451481046e-06 2.590770596225693513e-06 -5.617954421227735587e-07
1.108643765803871987e-05 5.543218829019359933e-06 -1.350233249528544133e-06
0.000000000000000000e+00 0.000000000000000000e+00 2.159934015498465865e-20
1.355848369182454306e-06 -1.627018043019051808e-05 -5.281283166377064204e-06
0.000000000000000000e+00 0.000000000000000000e+00 4.277516383634216712e-20
-4.147298758937801872e-06 -1.935406087504320754e-05 -4.397171660991440332e-06
0.000000000000000000e+00 0.000000000000000000e+00 6.564505341220827628e-20
-4.205290990211210130e-05 1.152561234354195418e-04 -4.367039358264185377e-05
-6.624640633968729956e-06 -3.312320316984420459e-06 1.426777548305355716e-06
-6.539710242968649016e-06 -3.269855121484214394e-06 1.495915003438349128e-06
0.000000000000000000e+00 0.000000000000000000e+00 2.286988957586610915e-20
0.000000000000000000e+00 0.000000000000000000e+00 2.075230720773035831e-20
-0.000000000000000000e+00 -0.000000000000000000e+00 -2.075230720773035831e-20
-0.000000000000000000e+00 -0.000000000000000000e+00 2.075230720773035831e-20
-0.000000000000000000e+00 -0.000000000000000000e+00 2.096406544454393339e-20
0.000000000000000000e+00 0.000000000000000000e+00 -4.235164736271501695e-20
-6.268043809681822509e-20 1.905824131322175763e-20 1.297019200483147394e-20
0.000000000000000000e+00 0.000000000000000000e+00 -8.809142651444723526e-20
0.000000000000000000e+00 0.000000000000000000e+00 -4.404571325722361763e-20
-5.793670676198486119e-06 -2.896835338099243483e-06 -7.814484418738905285e-06
-1.307810985251665276e-06 1.569373182302074226e-05 5.006748044607740278e-06
2.574980159653073031e-19 1.524659305057740610e-19 -9.529120656610878815e-22
-8.432539682539827544e-06 1.686507936507948568e-05 -1.127795815295829505e-05
-5.046382189239366595e-06 -2.354978354978372207e-05 -5.350424467307708832e-06
3.338152893845604614e-06 4.339598761999346392e-05 2.416144353914530352e-06
0.000000000000000000e+00 0.000000000000000000e+00 -1.363723045079423546e-19
0.000000000000000000e+00 0.000000000000000000e+00 -1.185846126156020475e-20
5.156925794862434433e-06 2.578462897431287520e-06 -5.763622947198748962e-07
5.529731678583801051e-06 2.764865839291950077e-06 -6.919557287639361812e-07
1.392597867584152468e-06 5.291871896821140646e-05 7.645138881616404282e-06
-1.355848369182454306e-06 1.627018043019051808e-05 5.281283166377150602e-06
-1.375722080230183388e-06 1.650866496276278935e-05 5.340302984166276121e-06
6.878610401151112818e-06 -1.375722080230232389e-05 -6.341563813681312119e-06
0.000000000000000000e+00 0.000000000000000000e+00 -8.724439356719293492e-20
-2.053081227035605353e-05 -4.692757090367080718e-05 1.549613638129065036e-06
0.000000000000000000e+00 0.000000000000000000e+00 0.000000000000000000e+00
0.000000000000000000e+00 0.000000000000000000e+00 9.147955830346443662e-20
-0.000000000000000000e+00 -0.000000000000000000e+00 2.286988957586610915e-20
0.000000000000000000e+00 0.000000000000000000e+00 -4.108109794183356644e-20
0.000000000000000000e+00 0.000000000000000000e+00 -4.150461441546071661e-20
0.000000000000000000e+00 0.000000000000000000e+00 6.268043809681822509e-20
0.000000000000000000e+00 0.000000000000000000e+00 0.000000000000000000e+00
5.218758871935308498e-06 2.609379435967654249e-06 2.365186173243478303e-07
-5.652847368574891461e-05 4.239635526431149114e-05 -4.186734548383087211e-06
0.000000000000000000e+00 0.000000000000000000e+00 -8.809142651444723526e-20
0.000000000000000000e+00 0.000000000000000000e+00 4.404571325722361763e-20
5.144676564945964024e-06 2.572338282472982859e-06 -4.195525006172589923e-08
6.539054926258610985e-06 -1.307810985251726940e-05 -5.119345674888843059e-06
-1.256387492288768924e-05 1.116788882034460004e-05 5.584690926804823164e-06
-2.521670606776947140e-05 -2.377575143532567169e-04 2.424964827968528205e-05
5.020235131263975574e-06 2.342776394589856680e-05 5.322702060741248000e-06
-1.660472960082833664e-06 -6.309797248315556341e-05 4.297694720216173463e-07
0.000000000000000000e+00 -0.000000000000000000e+00 -1.372193374551966549e-19
-4.357446808510658415e-05 -2.178723404255329546e-05 4.433177835931315615e-06
0.000000000000000000e+00 0.000000000000000000e+00 7.256235827664333580e-06
0.000000000000000000e+00 0.000000000000000000e+00 -4.341043854678289238e-20
4.067545107547556676e-06 1.898187716855566937e-05 4.493876038605781848e-06
0.000000000000000000e+00 0.000000000000000000e+00 -7.468085602931102436e-06
6.878610401151211074e-06 -1.375722080230212738e-05 -6.267995788000669505e-06
6.929023536274297960e-06 -1.385804707254839941e-05 -6.388040950019663206e-06
0.000000000000000000e+00 0.000000000000000000e+00 -2.159934015498465865e-20
1.253608761936364502e-19 2.964615315390051187e-20 -3.536362554786703916e-20
0.000000000000000000e+00 0.000000000000000000e+00 0.000000000000000000e+00
0.000000000000000000e+00 0.000000000000000000e+00 9.147955830346443662e-20
-0.000000000000000000e+00 -0.000000000000000000e+00 0.000000000000000000e+00
-0.000000000000000000e+00 -0.000000000000000000e+00 0.000000000000000000e+00
-0.000000000000000000e+00 -0.000000000000000000e+00 -8.300922883092143323e-20
0.000000000000000000e+00 0.000000000000000000e+00 -2.096406544454393339e-20
-0.000000000000000000e+00 -0.000000000000000000e+00 -8.406802001498930865e-20
5.231243941006945709e-06 2.615621970503520288e-06 2.196003472562035072e-07
1.633329611295153251e-05 2.672721182119378090e-05 5.757546432426261936e-06
0.000000000000000000e+00 0.000000000000000000e+00 -2.223461486542538390e-20
0.000000000000000000e+00 0.000000000000000000e+00 0.000000000000000000e+00
2.295459287059153919e-19 2.117582368135750848e-20 -3.134021904840911255e-20
5.268938957126689274e-06 2.634469478563344637e-06 -1.310190703242980312e-07
1.290764423089916573e-05 -1.147346153857702717e-05 -5.718324146499226905e-06
-1.695337820992364815e-06 -6.442283719770645195e-05 5.067881507672322392e-07
1.660450728850982678e-06 -1.992540874621140081e-05 -5.713016037126581263e-06
1.132756381523739232e-05 2.589157443482878172e-05 -1.221282720584021909e-05
0.000000000000000000e+00 0.000000000000000000e+00 1.363723045079423546e-19
4.276387515794854836e-05 8.820049251326873699e-05 8.209034658077665964e-06
-0.000000000000000000e+00 0.000000000000000000e+00 -1.058791184067875424e-19
0.000000000000000000e+00 0.000000000000000000e+00 4.362219678359646746e-20
1.346054947227052116e-06 -1.615265936672496421e-05 -5.243135954867741650e-06
0.000000000000000000e+00 0.000000000000000000e+00 -4.277516383634216712e-20
