0.000000000000000000e+00 -0.000000000000000000e+00 1.630538423464528153e-19
2.324862533130035549e-06 -2.789835039755826835e-05 -6.945371412475712848e-06
2.379563076390634597e-06 -2.855475691668679354e-05 3.834659535135565256e-06
5.421433899165526891e-05 2.530002486277247147e-04 -3.391536946367450125e-05
-3.752355956336550502e-19 -2.032879073410320814e-19 2.752857078576476102e-20
-3.456825134244586434e-05 1.043332676881060864e-03 8.323016529468110119e-05
3.252606517456513302e-19 2.414043899674755966e-19 -1.524659305057740610e-20
1.626575564572162476e-05 -3.253151129144320208e-05 -1.349535822691842033e-05
7.109623602963983146e-06 3.554811801481991573e-06 -9.704446121158081453e-07
-1.810761229314402491e-06 2.172913475177330254e-05 6.329433569740062032e-06
0.000000000000000000e+00 0.000000000000000000e+00 0.000000000000000000e+00
6.341717244617138961e-06 3.170858622308623691e-06 7.209888161527227964e-06
0.000000000000000000e+00 0.000000000000000000e+00 6.903318520122547763e-20
-0.000000000000000000e+00 -0.000000000000000000e+00 -9.190307477709158679e-20
0.000000000000000000e+00 0.000000000000000000e+00 4.573977915173221831e-20
2.128056814564939472e-06 -2.553668177477953625e-05 3.059508420298496678e-06
-2.913793338554793166e-19 3.981054852095211594e-20 -2.543745819723070706e-20
-0.000000000000000000e+00 -0.000000000000000000e+00 -8.279747059410785814e-20
0.000000000000000000e+00 0.000000000000000000e+00 -2.075230720773035831e-20
0.000000000000000000e+00 0.000000000000000000e+00 2.096406544454393339e-20
5.144676564945964871e-06 2.572338282473029446e-06 3.122571070168120216e-07
-6.812150786911990807e-06 1.362430157382388505e-05 4.923327159631923734e-06
7.166399478567750641e-06 3.583199739283816875e-06 2.433509983363508400e-07
1.801540672525353244e-04 -6.005135575084459993e-05 1.409226556969474456e-05
-2.116134927648560544e-06 2.539361913178292304e-05 6.519845660774196438e-06
2.146108128039383992e-06 -2.575329753647207935e-05 3.573212650615200331e-06
2.170495524690523364e-06 -2.604594629628568066e-05 -6.658314212506387367e-06
2.284932494926482369e-06 -2.741918993911727343e-05 3.743257057864817874e-06
-2.358851289878505085e-06 2.830621547854280133e-05 7.015375106235049848e-06
0.000000000000000000e+00 -0.000000000000000000e+00 -1.545835128739098119e-19
0.000000000000000000e+00 0.000000000000000000e+00 -1.015671493751245998e-05
1.052876633724320694e-05 5.264383168621641588e-06 -9.093025473073212855e-07
8.906936449793894956e-06 4.453468224896947478e-06 -1.130752253037971379e-05
7.919101822458952266e-06 3.959550911229476133e-06 -8.956631205614949675e-07
-6.632308118592422999e-05 2.800307872294574714e-04 1.380647147563184745e-05
7.281777777777950273e-06 3.640888888888915844e-06 -1.018280689245423556e-06
0.000000000000000000e+00 0.000000000000000000e+00 0.000000000000000000e+00
1.448417669049621741e-06 -1.738101202859546090e-05 -5.643794302422448309e-06
0.000000000000000000e+00 0.000000000000000000e+00 -2.329340604949325932e-20
0.000000000000000000e+00 0.000000000000000000e+00 0.000000000000000000e+00
0.000000000000000000e+00 0.000000000000000000e+00 2.286988957586610915e-20
-1.634927560742162254e-06 1.961913072890572428e-05 6.108246739639126648e-06
-2.128056814564939472e-06 2.553668177477953625e-05 -3.059508420298495831e-06
0.000000000000000000e+00 0.000000000000000000e+00 -2.075230720773035831e-20
0.000000000000000000e+00 0.000000000000000000e+00 2.075230720773035831e-20
0.000000000000000000e+00 0.000000000000000000e+00 2.075230720773035831e-20
-0.000000000000000000e+00 -0.000000000000000000e+00 2.096406544454393339e-20
5.193907639211475981e-06 2.596953819605737990e-06 2.978858793077386726e-07
-6.828685133482150329e-06 1.365737026696430066e-05 4.935276982834986163e-06
0.000000000000000000e+00 0.000000000000000000e+00 0.000000000000000000e+00
3.093431999307726170e-05 -1.427737845834352552e-05 -6.393644212472674820e-06
0.000000000000000000e+00 -0.000000000000000000e+00 1.558540622947912624e-19
0.000000000000000000e+00 -0.000000000000000000e+00 -1.435720845596039075e-19
1.305997023095023979e-05 -4.788655751348417868e-05 -3.252188665354290835e-06
4.569864989852964737e-06 -5.483837987823461462e-05 7.486514115729639136e-06
3.591419696358233438e-19 1.778769189234030712e-19 -1.821120836596745729e-20
0.000000000000000000e+00 -0.000000000000000000e+00 -1.087982048296185416e-05
1.067025670401579102e-05 -2.134051340803166675e-05 -7.369324349324129044e-06
-5.185764366198311679e-06 -6.741493676058312725e-05 -2.394602957332728460e-06
2.320870275476782929e-19 1.727947212398772692e-19 -9.952637130238028984e-21
7.919101822458828600e-06 3.959550911229414300e-06 -9.221307068665437483e-07
1.626575564572162137e-05 -3.253151129144321563e-05 -1.349535822691841694e-05
0.000000000000000000e+00 0.000000000000000000e+00 -4.764560328305439407e-20
0.000000000000000000e+00 0.000000000000000000e+00 0.000000000000000000e+00
1.448417669049520098e-06 -1.738101202859546090e-05 -5.643794302422449156e-06
0.000000000000000000e+00 0.000000000000000000e+00 -2.329340604949325932e-20
-0.000000000000000000e+00 -0.000000000000000000e+00 -4.616329562535936848e-20
6.590493001834447059e-06 3.295246500917223530e-06 -1.384179746775656263e-06
1.634927560742162254e-06 -1.961913072890572428e-05 -6.108246739639356194e-06
1.070039867210646561e-05 -2.140079734421245010e-05 -9.106783147945104703e-06
-0.000000000000000000e+00 -0.000000000000000000e+00 6.204516338637749984e-20
0.000000000000000000e+00 0.000000000000000000e+00 -4.150461441546071661e-20
0.000000000000000000e+00 0.000000000000000000e+00 2.075230720773035831e-20
5.071989819150072548e-06 2.535994909575036274e-06 3.417490466379245801e-07
-3.972584522622668590e-19 -1.363723045079423546e-19 -1.958763690525569534e-21
-1.981093777804305515e-04 6.071093835206710224e-05 -1.275049316023476779e-05
0.000000000000000000e+00 0.000000000000000000e+00 2.371692252312040949e-20
3.997244546498311397e-05 1.865380788365881182e-04 -3.355619107260930179e-05
-2.116134927648691411e-06 2.539361913178285867e-05 6.519845660774132910e-06
2.146108128039251855e-06 -2.575329753647201159e-05 -6.612193572031467233e-06
-2.695116115411643219e-05 9.882092423176161791e-05 -3.857715224020691840e-06
-2.284932494926482369e-06 2.741918993911727343e-05 6.856630318331778356e-06
-2.345176789647230566e-06 2.814212147576753759e-05 6.974706265039593359e-06
7.056161029990154697e-06 -8.467393235988444151e-05 4.911641501267681469e-07
-3.456825134244586434e-05 1.043332676881060864e-03 8.323016529468108763e-05
-3.204397643619234321e-05 1.478952758593517523e-05 -2.349649946373323376e-05
5.533035279750222476e-05 8.086743870404113608e-05 -2.900803563982336868e-06
-3.203484699691678200e-06 1.986160513808900318e-04 7.000556270208801585e-06
1.088330852579188547e-04 1.088330852579188547e-04 -3.206793046904441368e-05
0.000000000000000000e+00 0.000000000000000000e+00 7.093900933254765340e-20
-6.997858484567500338e-06 -3.498929242283750169e-06 1.118908923468254493e-06
-1.448417669049520098e-06 1.738101202859546090e-05 5.643794302422602469e-06
0.000000000000000000e+00 0.000000000000000000e+00 -2.308164781267968424e-20
-0.000000000000000000e+00 -0.000000000000000000e+00 -9.190307477709158679e-20
0.000000000000000000e+00 0.000000000000000000e+00 0.000000000000000000e+00
-1.634927560742162254e-06 1.961913072890572428e-05 6.108246739639263867e-06
8.393674043174109066e-06 4.196837021586991853e-06 -2.015379489510790762e-06
0.000000000000000000e+00 0.000000000000000000e+00 0.000000000000000000e+00
0.000000000000000000e+00 0.000000000000000000e+00 0.000000000000000000e+00
-0.000000000000000000e+00 -0.000000000000000000e+00 8.343274530454858340e-20
-0.000000000000000000e+00 -0.000000000000000000e+00 0.000000000000000000e+00
0.000000000000000000e+00 0.000000000000000000e+00 7.361017660691498662e-06
6.834561376940451614e-06 3.417280688470282558e-06 2.549254845142794389e-07
7.520072291470321580e-06 3.760036145734918538e-06 1.799589492209162815e-07
2.092557006573354256e-06 -2.511068407888116587e-05 -6.447201707685902954e-06
2.116134927648430101e-06 -2.539361913178292304e-05 3.551598647285900594e-06
0.000000000000000000e+00 -0.000000000000000000e+00 1.270549420881450509e-20
-4.292250314799797670e-06 -1.631055119623881508e-04 3.198874145037764989e-05
1.142466247463213740e-05 -2.284932494926444760e-05 -7.248856698476910473e-06
7.015137527292616259e-06 3.273730846069962522e-05 6.459303546743823765e-06
-6.438324384118019838e-06 -3.004551379255074908e-05 -6.100341045237201819e-06
2.278403898872999022e-05 -2.025247910109348614e-05 -9.007344231224779856e-06
-3.084439464426009955e-05 1.423587445119693189e-05 -2.277549593014330373e-05
7.832790730303079225e-06 3.916395365151415945e-06 -8.597220841683601473e-07
1.416650065298703145e-06 -1.699980078358433779e-05 -5.501071897950081028e-06
-7.109623602963983146e-06 -3.554811801481991573e-06 9.704446121158081453e-07
0.000000000000000000e+00 0.000000000000000000e+00 -9.444417361885448781e-20
0.000000000000000000e+00 0.000000000000000000e+00 0.000000000000000000e+00
-1.751072107358531545e-05 6.420597726981208469e-05 1.122121965410644723e-06
0.000000000000000000e+00 0.000000000000000000e+00 6.903318520122547763e-20
-0.000000000000000000e+00 -0.000000000000000000e+00 1.378546121656373802e-19
-0.000000000000000000e+00 -0.000000000000000000e+00 -4.573977915173221831e-20
9.834913078572978681e-06 -3.606134795476735415e-05 -5.232138695722219813e-06
-3.488641458996245614e-05 8.208568138814866763e-06 -4.833507803129612987e-06
0.000000000000000000e+00 0.000000000000000000e+00 -2.054054897091678322e-20
0.000000000000000000e+00 0.000000000000000000e+00 1.037615360386517915e-19
0.000000000000000000e+00 0.000000000000000000e+00 -2.117582368135750848e-20
5.120294211557696857e-06 2.560147105778895015e-06 3.107772155143785348e-07
-6.681778085465107634e-06 1.336355617093002384e-05 4.846968969483194090e-06
7.128482021008956020e-06 3.564241010504419565e-06 2.420634269166111702e-07
0.000000000000000000e+00 0.000000000000000000e+00 1.207021949837377983e-19
0.000000000000000000e+00 0.000000000000000000e+00 -9.987203895009423357e-06
2.098418510793495079e-06 -2.518102212952233397e-05 -6.493314819629128446e-06
-2.146108128039383992e-06 2.575329753647201159e-05 -3.573212650615096569e-06
4.721475346279643945e-05 -1.373520100735899747e-04 -1.755920583325911398e-07
2.298140197209477267e-06 -2.757768236651324609e-05 -6.865540220165518236e-06
1.347591249608576084e-05 -4.941167915231099375e-05 1.727246859235320660e-05
8.536205363212711762e-06 4.268102681606331317e-06 -6.230973433575275358e-07
2.305771868542767734e-05 -2.049574994260239228e-05 -9.115539588443128931e-06
-1.532320370847309966e-05 -3.502446561936716141e-05 -5.085688197972555320e-06
1.804180177651659722e-19 2.795208725939191119e-19 2.795208725939191119e-20
7.083250326493516150e-06 -1.416650065298703230e-05 -6.217730166277669409e-06
7.243044917257963177e-06 3.621522458628922720e-06 -1.012864302600531715e-06
-0.000000000000000000e+00 -0.000000000000000000e+00 -7.072725109573407831e-20
0.000000000000000000e+00 0.000000000000000000e+00 -6.564505341220827628e-20
-9.579942633446136835e-19 6.640738306473714658e-19 -1.477675446264728638e-19
-0.000000000000000000e+00 -0.000000000000000000e+00 4.595153738854579339e-20
-0.000000000000000000e+00 -0.000000000000000000e+00 0.000000000000000000e+00
6.522898648513579809e-06 3.261449324256844962e-06 -1.435386520782477886e-06
-1.677803511551742842e-05 2.013364213862112282e-04 -2.434609534008453152e-05
4.794557848337961271e-06 2.397278924169025528e-06 5.313754620684968416e-07
0.000000000000000000e+00 0.000000000000000000e+00 -2.075230720773035831e-20
-0.000000000000000000e+00 -0.000000000000000000e+00 -2.075230720773035831e-20
0.000000000000000000e+00 0.000000000000000000e+00 2.117582368135750848e-20
3.049318610115481221e-20 8.957373417214226086e-20 2.504041150320525377e-20
6.812150786911990807e-06 -1.362430157382388505e-05 -4.923327159631977097e-06
-0.000000000000000000e+00 -0.000000000000000000e+00 0.000000000000000000e+00
2.513550635139205852e-05 -7.312147302223714982e-05 -9.197004791141120251e-06
-2.080899307372397591e-06 2.497079168846967742e-05 6.439103658882909275e-06
-0.000000000000000000e+00 0.000000000000000000e+00 -1.495013151903840098e-19
1.294960428533638034e-05 -4.748188237956695718e-05 -3.224705380858379216e-06
0.000000000000000000e+00 0.000000000000000000e+00 2.089795918367355501e-05
-2.338379175764298876e-06 2.806055010917107829e-05 6.954489725140820042e-06
2.207810026506978028e-06 -2.649372031808205582e-05 3.587396131305486029e-06
8.512227258259757890e-06 4.256113629129903509e-06 -6.497970273350976925e-07
1.745985895561817712e-05 -8.480502921299999186e-05 3.353853502746656111e-05
1.515054926980279658e-05 3.462982690240617051e-05 5.028385126253594509e-06
1.974351413270458399e-06 -2.369221695924687637e-05 -6.531724608662032460e-06
7.135675557622333197e-06 -1.427135111524471722e-05 -6.263749426650613833e-06
-0.000000000000000000e+00 -0.000000000000000000e+00 0.000000000000000000e+00
-0.000000000000000000e+00 -0.000000000000000000e+00 7.072725109573407831e-20
0.000000000000000000e+00 0.000000000000000000e+00 4.404571325722361763e-20
3.338175298308325540e-06 -4.005810357969901201e-05 -3.613083852286458127e-06
0.000000000000000000e+00 0.000000000000000000e+00 -4.616329562535936848e-20
0.000000000000000000e+00 0.000000000000000000e+00 -2.286988957586610915e-20
0.000000000000000000e+00 0.000000000000000000e+00 -2.286988957586610915e-20
-7.224038080272103426e-05 5.056826656190486222e-04 -7.406570593263011757e-05
0.000000000000000000e+00 0.000000000000000000e+00 6.204516338637749984e-20
-0.000000000000000000e+00 -0.000000000000000000e+00 -6.225692162319107492e-20
-0.000000000000000000e+00 -0.000000000000000000e+00 2.075230720773035831e-20
5.048065338871353217e-06 2.524032669435676608e-06 3.401370228330173817e-07
4.620564727272208350e-19 1.124436237480083700e-19 -1.212315905757717360e-20
-1.262546254505880743e-05 1.122263337338570637e-05 -2.885552090289421429e-06
0.000000000000000000e+00 0.000000000000000000e+00 -9.529120656610878815e-20
-8.108172194777726795e-04 4.477239865129794020e-04 -1.860058995031471435e-04
2.116134927648691834e-06 -2.539361913178285867e-05 -6.519845660774133757e-06
-0.000000000000000000e+00 0.000000000000000000e+00 3.049318610115481221e-19
-1.846927831233261420e-05 -8.618996545755229445e-05 1.089555732168744347e-05
-1.781387289958792544e-05 -8.906936449793894956e-06 7.049340077911245674e-07
2.338379175764298876e-06 -2.806055010917107829e-05 -6.954489725140937780e-06
1.510787166622597753e-05 3.453227809423068187e-05 5.533589816938403406e-06
1.067025670401579102e-05 -2.134051340803166675e-05 -7.369324349324129044e-06
-1.336040467469064084e-05 -6.234855514855727147e-05 -1.206365951508799317e-05
4.047906540982123939e-06 -4.857487849177466558e-05 2.595097730831778354e-05
0.000000000000000000e+00 0.000000000000000000e+00 -7.689350249903916152e-06
1.101357427367562996e-05 -5.349450361499572768e-05 1.478250521018702781e-05
0.000000000000000000e+00 0.000000000000000000e+00 -7.072725109573407831e-20
-4.070122126684852108e-05 -1.377579796724100788e-04 -1.075794723365428517e-05
0.000000000000000000e+00 0.000000000000000000e+00 0.000000000000000000e+00
0.000000000000000000e+00 0.000000000000000000e+00 2.286988957586610915e-20
0.000000000000000000e+00 0.000000000000000000e+00 -4.595153738854579339e-20
0.000000000000000000e+00 0.000000000000000000e+00 0.000000000000000000e+00
0.000000000000000000e+00 0.000000000000000000e+00 2.286988957586610915e-20
-1.217456173069732326e-04 1.082183264950880994e-04 -1.328965899200886588e-04
0.000000000000000000e+00 0.000000000000000000e+00 0.000000000000000000e+00
-0.000000000000000000e+00 -0.000000000000000000e+00 -1.037615360386517915e-19
0.000000000000000000e+00 0.000000000000000000e+00 8.343274530454858340e-20
0.000000000000000000e+00 0.000000000000000000e+00 0.000000000000000000e+00
5.268938957126594406e-06 2.634469478563297203e-06 2.669689658757653821e-07
-6.834561376940451614e-06 -3.417280688470282558e-06 -2.549254845142794389e-07
-7.520072291470321580e-06 -3.760036145734918538e-06 -1.799589492212280955e-07
9.571472303973593831e-20 -1.863472483959460746e-20 -1.545835128739098119e-20
2.092557006573354680e-06 -2.511068407888123364e-05 3.540002187323535650e-06
0.000000000000000000e+00 -0.000000000000000000e+00 3.049318610115481221e-19
3.146776151759333697e-05 9.440328455277969242e-05 2.147211962376987114e-05
-6.691560283308972679e-19 -3.693063650028749478e-19 2.043466985250999568e-20
1.382880883885970174e-05 6.453444124801341753e-05 2.102669151434276133e-06
-3.320369153236857329e-19 -1.016439536705160407e-20 6.119813043912319950e-20
-2.582625305357215574e-05 9.469626119643216155e-05 -2.286843351936026558e-06
8.856328856329313579e-06 4.428164428165919716e-06 9.535945535945668396e-06
-0.000000000000000000e+00 0.000000000000000000e+00 9.555376392248263602e-06
-1.270549420881450509e-20 -5.632769099241097255e-20 -1.355252715606880543e-20
-1.101357427367563165e-05 5.349450361499572768e-05 -1.478250521018702781e-05
-0.000000000000000000e+00 -0.000000000000000000e+00 9.444417361885448781e-20
-0.000000000000000000e+00 -0.000000000000000000e+00 -2.202285662861180882e-20
0.000000000000000000e+00 0.000000000000000000e+00 7.803688462124630098e-06
-0.000000000000000000e+00 -0.000000000000000000e+00 2.308164781267968424e-20
0.000000000000000000e+00 0.000000000000000000e+00 1.378546121656373802e-19
-0.000000000000000000e+00 -0.000000000000000000e+00 2.286988957586610915e-20
0.000000000000000000e+00 0.000000000000000000e+00 -9.105604182983728645e-20
7.224038080272103426e-05 -5.056826656190486222e-04 7.406570593263011757e-05
0.000000000000000000e+00 0.000000000000000000e+00 2.075230720773035831e-20
-0.000000000000000000e+00 -0.000000000000000000e+00 -1.037615360386517915e-19
0.000000000000000000e+00 0.000000000000000000e+00 4.150461441546071661e-20
5.108160812952155880e-06 2.554080406476171537e-06 3.100407766150730786e-07
-9.867933835512598950e-20 -2.202285662861180882e-20 3.758708703440957755e-21
-7.962109704190423187e-20 -3.388131789017201356e-20 -1.111730743271269195e-21
0.000000000000000000e+00 0.000000000000000000e+00 1.207021949837377983e-19
0.000000000000000000e+00 -0.000000000000000000e+00 -9.987203895009423357e-06
2.092557006573354680e-06 -2.511068407888123364e-05 -6.475177068736309325e-06
-4.232303249938618749e-06 5.078763899926106346e-05 2.996561231507204075e-06
-9.043714814674809200e-06 3.316028765380789236e-05 3.199153663052240707e-06
-1.149070098604711020e-05 2.298140197209439320e-05 7.290757604248123567e-06
2.134051340803210975e-06 -2.560861608963799807e-05 -6.632106613410557454e-06
8.512227258259757890e-06 4.256113629129916214e-06 -6.213470699211068758e-07
-6.815627213438037106e-06 8.178752656125500193e-05 -2.152268162204302020e-05
1.527979519938395820e-05 3.492524617002052041e-05 5.071281149253086839e-06
9.790988412878694024e-06 -1.958197682575751341e-05 -7.364184600381905749e-06
-4.828087799349511933e-20 2.202285662861180882e-20 1.990527426047605797e-20
7.243044917257963177e-06 3.621522458628921873e-06 -1.012864302600531927e-06
-1.437091810329811498e-05 -7.185459051649116784e-06 2.201747613152328131e-06
0.000000000000000000e+00 0.000000000000000000e+00 -6.564505341220827628e-20
5.779365316504163392e-06 2.889682658252032144e-06 -8.843665162126657014e-06
0.000000000000000000e+00 0.000000000000000000e+00 9.190307477709158679e-20
-0.000000000000000000e+00 -0.000000000000000000e+00 -4.595153738854579339e-20
-6.522898648513579809e-06 -3.261449324256844962e-06 1.435386520782546284e-06
0.000000000000000000e+00 0.000000000000000000e+00 0.000000000000000000e+00
-0.000000000000000000e+00 0.000000000000000000e+00 6.890574447811901294e-06
4.861980419133621574e-06 2.430990209566674838e-06 4.738480916508007002e-07
0.000000000000000000e+00 0.000000000000000000e+00 -2.075230720773035831e-20
0.000000000000000000e+00 0.000000000000000000e+00 -2.117582368135750848e-20
0.000000000000000000e+00 0.000000000000000000e+00 2.117582368135750848e-20
0.000000000000000000e+00 0.000000000000000000e+00 -7.432138191319450542e-06
-0.000000000000000000e+00 -0.000000000000000000e+00 0.000000000000000000e+00
1.328449328449407286e-05 6.199430199430418708e-05 -2.808332408332454017e-05
-8.724439356719293492e-20 1.753358200816401702e-19 5.399835038746164662e-20
2.075102930471588645e-06 -2.490123516566068157e-05 3.510474930773583336e-06
1.037567611383750350e-05 8.300540891070126129e-05 -8.683386694200768792e-07
-2.331039344079843855e-04 3.922066197975618848e-04 1.281072424517878386e-05
0.000000000000000000e+00 -0.000000000000000000e+00 -1.516188975585197607e-19
-2.134051340803210975e-06 2.560861608963799807e-05 6.632106613410637922e-06
0.000000000000000000e+00 -0.000000000000000000e+00 -1.009973488195924687e-05
6.815627213438037106e-06 -8.178752656125500193e-05 2.152268162204302020e-05
-8.231497100095718904e-06 -4.115748550046184021e-06 -9.055747277632443759e-06
3.905723988134938196e-06 5.077441184575267019e-05 2.482327786041868557e-06
3.252606517456513302e-19 1.118083490375676448e-19 -5.738648217647884797e-20
0.000000000000000000e+00 0.000000000000000000e+00 0.000000000000000000e+00
0.000000000000000000e+00 0.000000000000000000e+00 7.072725109573407831e-20
-0.000000000000000000e+00 -0.000000000000000000e+00 -4.383395502041004255e-20
2.499244229704539779e-05 -7.938775788473259631e-05 4.284643300364056849e-08
-0.000000000000000000e+00 -0.000000000000000000e+00 0.000000000000000000e+00
-0.000000000000000000e+00 -0.000000000000000000e+00 2.286988957586610915e-20
-0.000000000000000000e+00 -0.000000000000000000e+00 2.286988957586610915e-20
0.000000000000000000e+00 0.000000000000000000e+00 0.000000000000000000e+00
0.000000000000000000e+00 0.000000000000000000e+00 -6.183340514956392475e-20
0.000000000000000000e+00 0.000000000000000000e+00 -6.225692162319107492e-20
0.000000000000000000e+00 0.000000000000000000e+00 6.225692162319107492e-20
5.036159524392874508e-06 2.518079762196437254e-06 3.393348128735050500e-07
0.000000000000000000e+00 0.000000000000000000e+00 -2.117582368135750848e-20
6.779241845912853651e-06 -1.355848369182551418e-05 -4.899542970454766985e-06
-0.000000000000000000e+00 -0.000000000000000000e+00 9.507944832929521306e-20
2.914611005692587179e-05 1.457305502846300704e-05 -3.271533957726635193e-05
-2.075102930471588645e-06 2.490123516566061719e-05 6.421167436991876073e-06
0.000000000000000000e+00 -0.000000000000000000e+00 3.032377951170395214e-19
2.803491480658326139e-05 -2.491992427251802164e-05 -1.191608812055231401e-05
-1.781387289958792544e-05 -8.906936449793894956e-06 7.049340077911245674e-07
0.000000000000000000e+00 0.000000000000000000e+00 1.063043460206432607e-05
0.000000000000000000e+00 0.000000000000000000e+00 -1.009973488195942305e-05
0.000000000000000000e+00 0.000000000000000000e+00 -9.987203895009633421e-06
8.756187073965038324e-06 1.138304319615461081e-04 -5.409403805988421775e-06
-7.832790730303080919e-06 -3.916395365151415945e-06 -8.721833421483516982e-06
-0.000000000000000000e+00 -0.000000000000000000e+00 -4.362219678359646746e-20
-7.135675557622333197e-06 1.427135111524471722e-05 6.263749426650669738e-06
0.000000000000000000e+00 0.000000000000000000e+00 9.150962280877445346e-06
5.822423384268784367e-06 2.911211692134392607e-06 -9.309650224044722339e-07
-0.000000000000000000e+00 -0.000000000000000000e+00 0.000000000000000000e+00
1.622404857996346625e-05 -3.244809715992752204e-05 2.503014981454240510e-06
0.000000000000000000e+00 0.000000000000000000e+00 4.573977915173221831e-20
0.000000000000000000e+00 0.000000000000000000e+00 0.000000000000000000e+00
0.000000000000000000e+00 0.000000000000000000e+00 2.286988957586610915e-20
0.000000000000000000e+00 0.000000000000000000e+00 0.000000000000000000e+00
-0.000000000000000000e+00 -0.000000000000000000e+00 -4.129285617864714153e-20
-0.000000000000000000e+00 -0.000000000000000000e+00 1.452661504541125082e-19
0.000000000000000000e+00 0.000000000000000000e+00 -8.343274530454858340e-20
5.071989819149979375e-06 2.535994909574943524e-06 3.247972090070327396e-07
-1.850766989750646241e-19 -2.405573570202212963e-19 -5.537477892674988467e-20
-1.509992598075520002e-05 1.342215642733803012e-05 5.229347509140372339e-06
-7.540396811177085176e-06 -3.770198405588482025e-06 -1.804453247595692610e-07
6.208016266994533604e-06 2.897074257930796578e-05 6.463087167091255663e-06
2.057842429244424995e-06 -2.469410915093322699e-05 3.508786409436232462e-06
2.063574580858059767e-06 -2.476289497029517730e-05 3.490972292269817244e-06
-9.859512958966435792e-06 -4.929756479483221284e-06 2.913037919694461044e-07
2.027128883368398994e-05 -1.801892340771996050e-05 -7.532174968594132947e-06
7.962109704190423187e-20 3.184843881676169275e-19 -2.879912020664621153e-20
4.006465840512840604e-19 1.007969207232617403e-19 -5.230428449295304594e-20
-2.080899307372655936e-06 2.497079168846972485e-05 6.578201206166884446e-06
-2.947674656444965180e-19 7.318364664277154930e-19 -5.285485590866834116e-19
2.324364728911128871e-05 1.162182364455527505e-05 -2.551207810743395061e-06
1.439956010332310576e-20 5.336307567702092136e-20 1.207021949837377983e-20
0.000000000000000000e+00 0.000000000000000000e+00 -7.803688462124657203e-06
-0.000000000000000000e+00 -0.000000000000000000e+00 -1.418780186650953068e-19
0.000000000000000000e+00 0.000000000000000000e+00 -2.202285662861180882e-20
5.750895536620089288e-06 2.875447768309994246e-06 -1.015632754528773533e-06
0.000000000000000000e+00 0.000000000000000000e+00 2.329340604949325932e-20
-0.000000000000000000e+00 -0.000000000000000000e+00 0.000000000000000000e+00
0.000000000000000000e+00 0.000000000000000000e+00 -4.573977915173221831e-20
0.000000000000000000e+00 0.000000000000000000e+00 -9.126780006665086153e-20
0.000000000000000000e+00 0.000000000000000000e+00 -8.372525035812024399e-06
0.000000000000000000e+00 0.000000000000000000e+00 -4.108109794183356644e-20
0.000000000000000000e+00 0.000000000000000000e+00 -8.300922883092143323e-20
-0.000000000000000000e+00 -0.000000000000000000e+00 -4.171637265227429170e-20
5.084008752370740743e-06 2.542004376185463545e-06 3.085748627776149686e-07
5.294270394420331033e-06 2.647135197210261231e-06 2.505577165274313374e-07
7.053445890546662689e-06 3.526722945273273323e-06 2.395154085827285802e-07
0.000000000000000000e+00 0.000000000000000000e+00 -1.207021949837377983e-19
2.046441640162840251e-06 -2.455729968195414400e-05 -6.332478369412619106e-06
-2.057842429244424995e-06 2.469410915093322699e-05 6.395268062863168047e-06
-4.104284069407210612e-06 -5.335569290229469087e-05 -2.773135252243744475e-06
8.976056100350393723e-06 -3.291220570128486225e-05 -3.175219845124150883e-06
-8.907009160072287273e-06 1.068841099208693514e-04 -1.482993209619560664e-05
-2.128056814565070762e-06 2.553668177477946171e-05 6.613477100451551378e-06
0.000000000000000000e+00 -0.000000000000000000e+00 -1.009973488195927397e-05
-1.280430804481887198e-05 4.694912949766965465e-05 -1.632606335910658557e-05
1.754344197143311895e-04 3.145720629360447725e-04 -2.523580293248311904e-04
1.864964886208085324e-06 -2.237957863449495036e-05 2.980453241942497572e-06
5.611316686692903158e-06 2.805658343346451579e-06 -7.096665221405663462e-07
-7.074461993165219486e-05 1.857046273205878331e-04 3.331523044240902464e-06
0.000000000000000000e+00 0.000000000000000000e+00 -7.072725109573407831e-20
0.000000000000000000e+00 0.000000000000000000e+00 1.096907666694318939e-19
0.000000000000000000e+00 0.000000000000000000e+00 2.202285662861180882e-20
-0.000000000000000000e+00 -0.000000000000000000e+00 0.000000000000000000e+00
0.000000000000000000e+00 0.000000000000000000e+00 -9.190307477709158679e-20
0.000000000000000000e+00 0.000000000000000000e+00 4.573977915173221831e-20
-0.000000000000000000e+00 -0.000000000000000000e+00 0.000000000000000000e+00
0.000000000000000000e+00 0.000000000000000000e+00 -1.135024149320762454e-19
4.839366556719129288e-06 2.419683278359429966e-06 4.716441470384317527e-07
0.000000000000000000e+00 0.000000000000000000e+00 4.150461441546071661e-20
0.000000000000000000e+00 0.000000000000000000e+00 -2.075230720773035831e-20
0.000000000000000000e+00 0.000000000000000000e+00 2.096406544454393339e-20
5.345422468371990053e-06 2.672711234186139446e-06 2.351128331678000314e-07
0.000000000000000000e+00 0.000000000000000000e+00 0.000000000000000000e+00
-4.491970832028530027e-05 -2.245985416014256882e-05 -7.746848092669481774e-07
2.057842429244424995e-06 -2.469410915093316262e-05 -6.367756800440095699e-06
1.000840779846313420e-05 -2.001681559692622097e-05 -6.377014915437905969e-06
3.146776151759333697e-05 9.440328455277970598e-05 2.147211962376987453e-05
-6.029143209783772234e-06 -3.014571604890754904e-06 -7.821765468948770820e-06
4.556770820827770322e-06 -5.468124984993228164e-05 -3.043533024178574981e-06
-2.128056814564939472e-06 2.553668177477945832e-05 6.613477100451608129e-06
0.000000000000000000e+00 0.000000000000000000e+00 -9.987203895009606316e-06
8.464672916035106170e-06 -1.015760749924183535e-04 1.375396184779216737e-05
5.670623618161588610e-05 -1.890207872720467308e-05 7.563863909929239150e-05
-7.320979180965500825e-06 -9.517272935255190799e-05 4.253606353004906745e-06
-2.270048298641524909e-19 -7.030373462210692814e-20 4.213988912590144187e-20
-1.726311877632332801e-05 5.021998189475861715e-05 2.644857502361503576e-06
5.228671953007639034e-05 1.315601330111620287e-04 -1.394117095767825319e-05
0.000000000000000000e+00 0.000000000000000000e+00 -4.383395502041004255e-20
0.000000000000000000e+00 0.000000000000000000e+00 -4.362219678359646746e-20
-0.000000000000000000e+00 -0.000000000000000000e+00 -4.616329562535936848e-20
0.000000000000000000e+00 0.000000000000000000e+00 2.286988957586610915e-20
-0.000000000000000000e+00 -0.000000000000000000e+00 -9.126780006665086153e-20
-0.000000000000000000e+00 -0.000000000000000000e+00 0.000000000000000000e+00
0.000000000000000000e+00 0.000000000000000000e+00 -4.150461441546071661e-20
0.000000000000000000e+00 0.000000000000000000e+00 2.075230720773035831e-20
-0.000000000000000000e+00 -0.000000000000000000e+00 6.225692162319107492e-20
5.012459950160221003e-06 2.506229975080110502e-06 3.377379431658658940e-07
-0.000000000000000000e+00 -0.000000000000000000e+00 2.117582368135750848e-20
-6.681778085465011919e-06 1.336355617093002384e-05 4.846968969483129716e-06
0.000000000000000000e+00 0.000000000000000000e+00 4.764560328305439407e-20
2.001421464108016639e-04 2.251599147121525698e-04 -2.564655713031466547e-05
-4.070270665517341904e-06 -5.291351865172376170e-05 -2.831776543228640314e-06
-4.743384504624081899e-20 1.592421940838084637e-19 1.524659305057740610e-20
6.962906291952760364e-06 -1.392581258390529711e-05 1.747615009694146769e-05
0.000000000000000000e+00 -0.000000000000000000e+00 -2.089795918367355162e-05
1.942440642800464674e-05 9.064722999735494360e-05 -1.215150701587953294e-05
0.000000000000000000e+00 -0.000000000000000000e+00 -1.009973488195942136e-05
0.000000000000000000e+00 -0.000000000000000000e+00 -9.987203895009608010e-06
1.852086847521641023e-05 1.893244333022130578e-04 -1.653837622577517360e-05
0.000000000000000000e+00 -0.000000000000000000e+00 1.820444444444437932e-05
-1.130542307012865778e-05 -5.652711535064428841e-06 1.354232496100959365e-06
1.338312056661794536e-19 4.489274620447791797e-20 -2.435219723356113475e-20
0.000000000000000000e+00 -0.000000000000000000e+00 -9.150962280877445346e-06
0.000000000000000000e+00 0.000000000000000000e+00 0.000000000000000000e+00
0.000000000000000000e+00 0.000000000000000000e+00 -4.383395502041004255e-20
5.736730769288551702e-06 2.868365384644326250e-06 -1.070651892236160570e-06
0.000000000000000000e+00 0.000000000000000000e+00 9.232659125071873696e-20
-0.000000000000000000e+00 -0.000000000000000000e+00 0.000000000000000000e+00
-0.000000000000000000e+00 -0.000000000000000000e+00 2.286988957586610915e-20
-0.000000000000000000e+00 -0.000000000000000000e+00 0.000000000000000000e+00
0.000000000000000000e+00 0.000000000000000000e+00 -4.108109794183356644e-20
0.000000000000000000e+00 0.000000000000000000e+00 1.452661504541125082e-19
0.000000000000000000e+00 0.000000000000000000e+00 6.225692162319107492e-20
5.048065338871260043e-06 2.524032669435583858e-06 3.232651467004572608e-07
5.218758871935213631e-06 2.609379435967654249e-06 2.644264187785825959e-07
-1.262546254505880743e-05 1.122263337338570637e-05 -2.885552090289423123e-06
7.540396811177085176e-06 3.770198405588482025e-06 1.804453247595692610e-07
8.051084832891103137e-06 -9.661301799469219410e-05 1.394301509696130942e-05
3.981366618729238129e-06 5.175776604348060136e-05 2.796537461872201341e-06
-8.140541331034409369e-06 -4.070270665516275490e-06 9.953661900219171844e-06
-2.803491480658326478e-05 2.491992427251802164e-05 1.191608812055231401e-05
-6.438324384118018991e-06 -3.004551379255074569e-05 -6.186414900639699630e-06
-6.384170443694950131e-06 -2.979279540390937538e-05 -6.105929860186302949e-06
2.116134927648560544e-06 -2.539361913178291626e-05 -6.604717382471378286e-06
2.080899307372655513e-06 -2.497079168846972485e-05 -6.578201206166884446e-06
-2.274379851176191295e-05 8.339392787646058127e-05 6.394210162700522432e-05
1.810761229314402491e-06 -2.172913475177324155e-05 2.918036879432572424e-06
0.000000000000000000e+00 0.000000000000000000e+00 6.522153693858112611e-20
5.750895536620089288e-06 2.875447768310044644e-06 -7.849818640226243201e-07
-1.444756299984906466e-05 -7.223781499924649218e-06 2.165202957597646614e-06
0.000000000000000000e+00 0.000000000000000000e+00 -2.159934015498465865e-20
0.000000000000000000e+00 0.000000000000000000e+00 0.000000000000000000e+00
-3.236446804353482095e-05 6.472893608707030598e-05 -4.993127823828930498e-06
0.000000000000000000e+00 0.000000000000000000e+00 -9.190307477709158679e-20
0.000000000000000000e+00 0.000000000000000000e+00 6.860966872759832746e-20
0.000000000000000000e+00 0.000000000000000000e+00 6.860966872759832746e-20
-6.423229463371537889e-06 -3.211614731685660101e-06 1.563730060534592926e-06
0.000000000000000000e+00 0.000000000000000000e+00 -4.129285617864714153e-20
-0.000000000000000000e+00 -0.000000000000000000e+00 -2.075230720773035831e-20
-0.000000000000000000e+00 -0.000000000000000000e+00 1.041850525122789417e-19
0.000000000000000000e+00 0.000000000000000000e+00 0.000000000000000000e+00
5.268938957126594406e-06 2.634469478563392494e-06 2.493588757785094637e-07
-7.053445890546662689e-06 -3.526722945273273323e-06 -2.395154085827285802e-07
-1.058046347212742024e-05 3.879503273113628657e-05 2.611167856891203128e-06
6.105405998275566893e-06 2.849189465862070808e-05 6.356260914960470897e-06
1.990683309364556384e-06 -2.388819971237561682e-05 3.420888136172705244e-06
-3.660351238671718377e-05 -3.313581121323807676e-04 3.442821499283657918e-05
-1.455614764400981869e-05 2.911229528801968821e-05 3.300431337465469433e-06
0.000000000000000000e+00 -0.000000000000000000e+00 1.015671493751228719e-05
0.000000000000000000e+00 0.000000000000000000e+00 -1.964380261047724019e-05
0.000000000000000000e+00 0.000000000000000000e+00 -9.987203895009580905e-06
6.208016266994255777e-06 2.897074257930783365e-05 5.854458121307242185e-06
-1.805958149130582860e-05 3.611916298261130484e-05 4.625956970232975379e-06
-6.289219633363180018e-20 -1.084202172485504434e-19 -6.913906431963226518e-20
5.583944410172361856e-06 2.791972205086180928e-06 -7.062047342276771930e-07
0.000000000000000000e+00 0.000000000000000000e+00 2.159934015498465865e-20
0.000000000000000000e+00 -0.000000000000000000e+00 -9.053870529651429291e-06
-0.000000000000000000e+00 -0.000000000000000000e+00 4.383395502041004255e-20
-0.000000000000000000e+00 -0.000000000000000000e+00 -2.181109839179823373e-20
0.000000000000000000e+00 0.000000000000000000e+00 0.000000000000000000e+00
-0.000000000000000000e+00 -0.000000000000000000e+00 -6.882142696441190255e-20
0.000000000000000000e+00 0.000000000000000000e+00 4.573977915173221831e-20
0.000000000000000000e+00 0.000000000000000000e+00 0.000000000000000000e+00
0.000000000000000000e+00 0.000000000000000000e+00 -1.135024149320762454e-19
0.000000000000000000e+00 0.000000000000000000e+00 0.000000000000000000e+00
-0.000000000000000000e+00 -0.000000000000000000e+00 -4.150461441546071661e-20
0.000000000000000000e+00 0.000000000000000000e+00 2.117582368135750848e-20
0.000000000000000000e+00 0.000000000000000000e+00 -2.075230720773035831e-20
-7.877406409464993153e-20 3.451659260061273882e-20 1.921705999083193894e-20
0.000000000000000000e+00 0.000000000000000000e+00 -9.150962280877386054e-06
1.058046347212742363e-05 -3.879503273113627979e-05 -2.611167856891203128e-06
4.058995677523982951e-06 5.276694380781203077e-05 2.823932286876335830e-06
1.990683309364556384e-06 -2.388819971237561682e-05 -6.266394278382346906e-06
6.962906291952760364e-06 -1.392581258390529711e-05 1.747615009694146769e-05
-5.939380404709251928e-06 -2.969690202355262086e-06 -7.745015570526308059e-06
-4.304375508928560204e-06 5.165250610714484003e-05 2.990044805399999416e-06
5.779245195551664318e-06 2.696981091257436234e-05 -3.692638931097190993e-06
0.000000000000000000e+00 -0.000000000000000000e+00 -9.987203895009582599e-06
-2.274379851176191295e-05 8.339392787646058127e-05 6.394210162700522432e-05
-5.346361515756862493e-06 -2.494968707353146254e-05 -5.351603046655093556e-06
1.805970991590993588e-06 6.862689768045590556e-05 -4.698421857803212830e-07
0.000000000000000000e+00 0.000000000000000000e+00 2.159934015498465865e-20
0.000000000000000000e+00 0.000000000000000000e+00 8.766791004082008509e-20
5.822423384268887705e-06 2.911211692134392607e-06 -9.115050512003938950e-07
-0.000000000000000000e+00 -0.000000000000000000e+00 2.202285662861180882e-20
-0.000000000000000000e+00 -0.000000000000000000e+00 4.362219678359646746e-20
0.000000000000000000e+00 0.000000000000000000e+00 -2.308164781267968424e-20
0.000000000000000000e+00 0.000000000000000000e+00 2.286988957586610915e-20
0.000000000000000000e+00 0.000000000000000000e+00 -9.105604182983728645e-20
-0.000000000000000000e+00 -0.000000000000000000e+00 0.000000000000000000e+00
0.000000000000000000e+00 0.000000000000000000e+00 -4.129285617864714153e-20
0.000000000000000000e+00 0.000000000000000000e+00 2.075230720773035831e-20
0.000000000000000000e+00 0.000000000000000000e+00 6.225692162319107492e-20
0.000000000000000000e+00 0.000000000000000000e+00 2.075230720773035831e-20
0.000000000000000000e+00 0.000000000000000000e+00 2.117582368135750848e-20
5.332572895130688738e-06 2.666286447565392650e-06 2.167248877165713880e-07
0.000000000000000000e+00 0.000000000000000000e+00 -4.743384504624081899e-20
-4.521914072927293632e-06 5.426296887512751681e-05 1.285642236419995703e-07
-3.970458764979443105e-06 -5.161596394473167955e-05 -2.788875715401179993e-06
5.955688147469166352e-06 2.779321135485548171e-05 6.173851055544797503e-06
1.220263532264296225e-05 -1.084678695346036289e-05 -5.458558528016369802e-06
6.475844544323837166e-05 -2.988851328149397734e-05 -4.561727679937192337e-05
8.185829722917539622e-06 1.064157863979285775e-04 -4.783457449047218001e-06
-8.185829722917539622e-06 9.822995667501103112e-05 -1.362918761620539941e-05
-4.138677511329836453e-06 -5.380280764728551405e-05 -2.464394336291890372e-06
3.592754938588591707e-06 -4.311305926306398478e-05 -3.120125144528320007e-06
-5.346361515756862493e-06 -2.494968707353146254e-05 -5.351603046655092709e-06
-0.000000000000000000e+00 -0.000000000000000000e+00 8.724439356719293492e-20
5.652711535064478816e-06 2.826355767532239408e-06 -7.526872578775727743e-07
1.726311877632332801e-05 -5.021998189475862393e-05 -2.644857502361503576e-06
-0.000000000000000000e+00 -0.000000000000000000e+00 0.000000000000000000e+00
-0.000000000000000000e+00 -0.000000000000000000e+00 2.202285662861180882e-20
0.000000000000000000e+00 0.000000000000000000e+00 -4.404571325722361763e-20
0.000000000000000000e+00 0.000000000000000000e+00 9.190307477709158679e-20
0.000000000000000000e+00 0.000000000000000000e+00 0.000000000000000000e+00
0.000000000000000000e+00 0.000000000000000000e+00 0.000000000000000000e+00
-0.000000000000000000e+00 -0.000000000000000000e+00 0.000000000000000000e+00
0.000000000000000000e+00 0.000000000000000000e+00 4.108109794183356644e-20
0.000000000000000000e+00 0.000000000000000000e+00 -2.075230720773035831e-20
0.000000000000000000e+00 0.000000000000000000e+00 6.225692162319107492e-20
0.000000000000000000e+00 0.000000000000000000e+00 4.192813088908786678e-20
5.193907639211381960e-06 2.596953819605737990e-06 2.631672453558054592e-07
5.371245765320523429e-06 2.685622882660213434e-06 2.003445947225010992e-07
-4.023406499457926611e-20 -1.740329288391024643e-04 6.421535876951057451e-06
4.521914072927293632e-06 -5.426296887512751681e-05 7.891586404811984614e-06
3.959550911229414300e-06 5.147416184598287972e-05 2.781213968930172197e-06
6.306789363089628929e-05 2.634012028113906956e-04 -5.372376720744899252e-06
-6.962906291952760364e-06 1.392581258390529711e-05 -9.843017530896690562e-06
6.438324384118019838e-06 3.004551379255074569e-05 6.186414900639699630e-06
-1.227874458437643649e-05 -5.730080806042310939e-05 -2.085854472176572306e-06
-4.173456313945766671e-06 -5.425493208129684883e-05 -2.485103532394942491e-06
-1.958197682575862980e-06 2.349837219090894968e-05 6.321208722390143182e-06
0.000000000000000000e+00 0.000000000000000000e+00 -9.005903088039719719e-06
-9.843872349265595081e-06 4.781309426786192648e-05 -2.924923553006166503e-05
0.000000000000000000e+00 0.000000000000000000e+00 6.500977870176755102e-20
2.193815333388637878e-19 3.345780141654486339e-20 -5.230428449295304594e-20
-1.444756299984906466e-05 -7.223781499924650065e-06 2.165202957597646614e-06
0.000000000000000000e+00 0.000000000000000000e+00 -2.202285662861180882e-20
-0.000000000000000000e+00 -0.000000000000000000e+00 0.000000000000000000e+00
-1.427135111524406415e-06 1.712562133829358002e-05 5.541786958467808195e-06
0.000000000000000000e+00 0.000000000000000000e+00 9.190307477709158679e-20
-0.000000000000000000e+00 -0.000000000000000000e+00 0.000000000000000000e+00
-0.000000000000000000e+00 -0.000000000000000000e+00 2.286988957586610915e-20
0.000000000000000000e+00 0.000000000000000000e+00 -9.105604182983728645e-20
-0.000000000000000000e+00 -0.000000000000000000e+00 0.000000000000000000e+00
0.000000000000000000e+00 0.000000000000000000e+00 -2.075230720773035831e-20
-0.000000000000000000e+00 -0.000000000000000000e+00 -4.171637265227429170e-20
-0.000000000000000000e+00 -0.000000000000000000e+00 0.000000000000000000e+00
5.256333840004399395e-06 2.628166920002151840e-06 2.487623234440727669e-07
-6.834561376940453308e-06 -3.417280688470282558e-06 8.493861304817675980e-06
5.909831248467448262e-06 2.954915624233723708e-06 1.216729962919984280e-07
1.477457812117016437e-06 -1.772949374540223891e-05 -5.342155613169961496e-06
1.926500651933216887e-06 -2.311800782318872285e-05 3.336348856301530938e-06
-3.693599656167127678e-05 -1.991331988542296516e-04 4.245750295305209389e-05
2.002922462692621844e-05 -2.575186023461934821e-05 -3.451177704051124897e-06
-2.098484371941812692e-05 -1.678787497553431180e-04 2.766183944832187502e-06
5.779245195551663471e-06 2.696981091257436234e-05 -3.692638931097192687e-06
-1.947526305559183212e-06 2.337031566670880772e-05 -3.242579225859597420e-06
3.583199739283933766e-06 4.658159661069061295e-05 2.468958750837891416e-06
0.000000000000000000e+00 0.000000000000000000e+00 0.000000000000000000e+00
-8.259458522376094026e-06 -6.607566817901367178e-05 -4.159984496952202405e-05
0.000000000000000000e+00 0.000000000000000000e+00 -2.159934015498465865e-20
0.000000000000000000e+00 0.000000000000000000e+00 2.202285662861180882e-20
7.991288825823312440e-05 1.011142667757214354e-04 -7.981128560100142467e-05
0.000000000000000000e+00 0.000000000000000000e+00 0.000000000000000000e+00
0.000000000000000000e+00 0.000000000000000000e+00 -4.383395502041004255e-20
1.324936973330502074e-05 6.624684866652733140e-06 -2.561308640957004446e-06
0.000000000000000000e+00 0.000000000000000000e+00 -6.882142696441190255e-20
-0.000000000000000000e+00 -0.000000000000000000e+00 -4.573977915173221831e-20
0.000000000000000000e+00 0.000000000000000000e+00 -1.139259314057033956e-19
0.000000000000000000e+00 0.000000000000000000e+00 1.135024149320762454e-19
0.000000000000000000e+00 0.000000000000000000e+00 0.000000000000000000e+00
-0.000000000000000000e+00 -0.000000000000000000e+00 6.225692162319107492e-20
0.000000000000000000e+00 0.000000000000000000e+00 -2.075230720773035831e-20
0.000000000000000000e+00 0.000000000000000000e+00 6.310395457044537526e-20
5.294270394420426748e-06 2.647135197210261231e-06 2.328629625353756776e-07
7.301247771835954010e-06 3.650623885918095590e-06 2.235275053143060731e-07
0.000000000000000000e+00 0.000000000000000000e+00 2.202285662861180882e-20
1.939833310309821153e-05 -2.327799972371874559e-04 3.385372196896419542e-05
-2.073699763407125277e-05 -1.281923490106263433e-04 -2.039927793512223764e-06
-1.346054947227148890e-06 1.615265936672491678e-05 5.136963171597112942e-06
7.296088856217688877e-06 -1.459217771243540316e-05 -5.585214544211836735e-06
8.185829722917539622e-06 1.064157863979285775e-04 -4.783457449047218001e-06
1.895344307156961753e-06 -2.274413168588758816e-05 3.181036421397117841e-06
-1.958197682575863403e-06 2.349837219090895985e-05 6.321208722390144029e-06
1.782120505252326461e-06 -2.138544606302695530e-05 -6.038720097075686463e-06
0.000000000000000000e+00 0.000000000000000000e+00 2.730666666666672822e-05
-2.624507940723278671e-04 1.926244360163940959e-05 -3.430994006892140161e-05
0.000000000000000000e+00 0.000000000000000000e+00 2.159934015498465865e-20
0.000000000000000000e+00 0.000000000000000000e+00 8.766791004082008509e-20
5.822423384268886858e-06 2.911211692134392607e-06 -9.115050512003941068e-07
0.000000000000000000e+00 0.000000000000000000e+00 8.766791004082008509e-20
0.000000000000000000e+00 0.000000000000000000e+00 4.362219678359646746e-20
-0.000000000000000000e+00 -0.000000000000000000e+00 -2.308164781267968424e-20
0.000000000000000000e+00 0.000000000000000000e+00 2.286988957586610915e-20
0.000000000000000000e+00 0.000000000000000000e+00 -9.147955830346443662e-20
-0.000000000000000000e+00 -0.000000000000000000e+00 2.286988957586610915e-20
-0.000000000000000000e+00 -0.000000000000000000e+00 -8.237395412048070797e-20
0.000000000000000000e+00 0.000000000000000000e+00 -2.075230720773035831e-20
0.000000000000000000e+00 0.000000000000000000e+00 2.075230720773035831e-20
0.000000000000000000e+00 0.000000000000000000e+00 2.096406544454393339e-20
0.000000000000000000e+00 0.000000000000000000e+00 2.117582368135750848e-20
5.306997005945383011e-06 2.653498502972739363e-06 2.156854398138631566e-07
9.175495691818129012e-06 -1.835099138363625802e-05 -5.723644772462886484e-06
0.000000000000000000e+00 0.000000000000000000e+00 4.404571325722361763e-20
-5.043661163633004671e-05 1.549124500258695122e-04 -1.613759653826232803e-05
-1.219727444046192488e-19 -1.084202172485504434e-19 -7.538593230563273018e-20
2.846030702774449139e-19 1.181610961419748973e-19 -1.482307657695025593e-20
1.349774436090177874e-05 -1.199799498746825323e-05 2.082406015037530409e-06
-1.165340468706788360e-05 -5.438255520631700586e-05 -2.109453201375645398e-06
-1.874964260843777585e-06 -7.124864191206154330e-05 6.381897069664684224e-07
3.592729525824499523e-06 4.670548383571902871e-05 2.475525130494492490e-06
1.782120505252209782e-06 -2.138544606302695530e-05 -6.038720097075633100e-06
6.452540999254751742e-05 1.055870345332594212e-04 -1.337874932514152015e-06
-1.125013982773223693e-05 -5.625069913866118465e-06 1.347610332305825714e-06
5.625069913866167593e-06 2.812534956933083796e-06 -7.490066355896430116e-07
0.000000000000000000e+00 0.000000000000000000e+00 -7.803688462124782564e-06
0.000000000000000000e+00 0.000000000000000000e+00 0.000000000000000000e+00
0.000000000000000000e+00 0.000000000000000000e+00 2.202285662861180882e-20
0.000000000000000000e+00 0.000000000000000000e+00 -4.383395502041004255e-20
0.000000000000000000e+00 0.000000000000000000e+00 -4.595153738854579339e-20
