ply
            format ascii 1.0
            element vertex 29587
            property float x
            property float y
            property float z
            property float nx
            property float ny
            property float nz
end_header
0.32098765432099 0.00938271604938 1.84691358024691 -0.00000000000000 -0.00000000000000 1.00000000000000
-0.27663956639566 0.00867208672087 1.62168021680217 0.00000000000000 0.00000000000000 1.00000000000000
-0.25427027027027 0.00864864864865 1.61729729729730 -0.00000000000000 -0.00000000000000 1.00000000000000
-0.23455040871935 0.00871934604905 1.63051771117166 0.88738068707942 0.44369034353970 0.12527727347003
-0.25106109324759 0.01028938906752 1.92411575562701 nan nan nan
-0.22606451612903 0.01032258064516 1.93032258064516 0.00000000000000 0.00000000000000 -1.00000000000000
-0.20025806451613 0.01032258064516 1.93032258064516 -0.00000000000000 -0.00000000000000 1.00000000000000
-0.17445161290323 0.01032258064516 1.93032258064516 -0.00000000000000 -0.00000000000000 -1.00000000000000
-0.14864516129032 0.01032258064516 1.93032258064516 -0.00000000000000 -0.00000000000000 1.00000000000000
-0.12283870967742 0.01032258064516 1.93032258064516 -0.00000000000000 -0.00000000000000 1.00000000000000
-0.09703225806452 0.01032258064516 1.93032258064516 -0.00000000000000 -0.00000000000000 1.00000000000000
-0.07122580645161 0.01032258064516 1.93032258064516 -0.00000000000000 -0.00000000000000 1.00000000000000
-0.04541935483871 0.01032258064516 1.93032258064516 -0.00000000000000 -0.00000000000000 1.00000000000000
-0.01961290322581 0.01032258064516 1.93032258064516 0.00000000000000 0.00000000000000 -1.00000000000000
0.00619354838710 0.01032258064516 1.93032258064516 nan nan nan
0.03200000000000 0.01032258064516 1.93032258064516 -0.00000000000000 -0.00000000000000 -1.00000000000000
0.05780645161290 0.01032258064516 1.93032258064516 -0.00000000000000 -0.00000000000000 -1.00000000000000
0.08361290322581 0.01032258064516 1.93032258064516 0.00000000000000 0.00000000000000 -1.00000000000000
0.10941935483871 0.01032258064516 1.93032258064516 -0.00000000000000 -0.00000000000000 1.00000000000000
0.13566343042071 0.01035598705502 1.93656957928803 0.00000000000000 0.00000000000000 1.00000000000000
0.14222222222222 0.00911680911681 1.70484330484330 0.00000000000000 0.00000000000000 -1.00000000000000
0.16501424501424 0.00911680911681 1.70484330484330 0.00000000000000 0.00000000000000 -1.00000000000000
0.21333333333333 0.01035598705502 1.93656957928803 0.00000000000000 0.00000000000000 -1.00000000000000
0.23541401273885 0.01019108280255 1.90573248407643 0.00000000000000 0.00000000000000 1.00000000000000
0.25520249221184 0.00996884735202 1.86417445482866 -0.00000000000000 -0.00000000000000 -1.00000000000000
0.27925465838509 0.00993788819876 1.85838509316770 -0.00000000000000 -0.00000000000000 -1.00000000000000
0.30222222222222 0.00987654320988 1.84691358024691 -0.00000000000000 -0.00000000000000 -1.00000000000000
0.32691358024691 0.00987654320988 1.84691358024691 0.00000000000000 0.00000000000000 -1.00000000000000
-0.27143631436314 0.00910569105691 1.62168021680217 nan nan nan
-0.24908108108108 0.00908108108108 1.61729729729730 0.00000000000000 0.00000000000000 1.00000000000000
-0.23057534246575 0.00920547945205 1.63945205479452 -0.71659674493835 0.63697488438964 0.28416914294229
-0.24488745980707 0.01080385852090 1.92411575562701 -0.00000000000000 -0.00000000000000 -1.00000000000000
-0.21987096774194 0.01083870967742 1.93032258064516 -0.00000000000000 -0.00000000000000 -1.00000000000000
-0.19406451612903 0.01083870967742 1.93032258064516 -0.00000000000000 -0.00000000000000 1.00000000000000
-0.16825806451613 0.01083870967742 1.93032258064516 -0.00000000000000 -0.00000000000000 -1.00000000000000
-0.14245161290323 0.01083870967742 1.93032258064516 -0.00000000000000 -0.00000000000000 1.00000000000000
-0.11664516129032 0.01083870967742 1.93032258064516 0.00000000000000 0.00000000000000 -1.00000000000000
-0.09083870967742 0.01083870967742 1.93032258064516 -0.00000000000000 -0.00000000000000 1.00000000000000
-0.06503225806452 0.01083870967742 1.93032258064516 -0.00000000000000 -0.00000000000000 1.00000000000000
-0.03922580645161 0.01083870967742 1.93032258064516 -0.00000000000000 -0.00000000000000 1.00000000000000
-0.01341935483871 0.01083870967742 1.93032258064516 -0.00000000000000 -0.00000000000000 1.00000000000000
0.01238709677419 0.01083870967742 1.93032258064516 -0.00000000000000 -0.00000000000000 1.00000000000000
0.03819354838710 0.01083870967742 1.93032258064516 -0.00000000000000 -0.00000000000000 1.00000000000000
0.06420711974110 0.01087378640777 1.93656957928803 -0.89396484244629 -0.44698242122314 0.03214927040348
0.08980645161290 0.01083870967742 1.93032258064516 -0.00000000000000 -0.00000000000000 -1.00000000000000
0.11598705501618 0.01087378640777 1.93656957928803 0.00000000000000 0.00000000000000 -1.00000000000000
0.14187702265372 0.01087378640777 1.93656957928803 -0.00000000000000 -0.00000000000000 -1.00000000000000
0.14769230769231 0.00957264957265 1.70484330484330 -0.00000000000000 -0.00000000000000 -1.00000000000000
0.17244956772334 0.00968299711816 1.72449567723343 -0.96543018166209 -0.11702184020147 0.23291726696784
0.21954692556634 0.01087378640777 1.93656957928803 -0.00000000000000 -0.00000000000000 -1.00000000000000
0.24000000000000 0.01063291139241 1.89367088607595 0.00000000000000 0.00000000000000 -1.00000000000000
0.26037267080745 0.01043478260870 1.85838509316770 nan nan nan
0.28433436532508 0.01040247678019 1.85263157894737 nan nan nan
0.30814814814815 0.01037037037037 1.84691358024691 0.00000000000000 0.00000000000000 -1.00000000000000
-0.43540983606557 0.01442622950820 2.45245901639344 0.00000000000000 0.00000000000000 1.00000000000000
-0.26551351351351 0.00951351351351 1.61729729729730 -0.00000000000000 -0.00000000000000 1.00000000000000
-0.24455284552846 0.00953929539295 1.62168021680217 -0.00000000000000 -0.00000000000000 -1.00000000000000
-0.33704918032787 0.01442622950820 2.45245901639344 0.00000000000000 0.00000000000000 -1.00000000000000
-0.23871382636656 0.01131832797428 1.92411575562701 0.00000000000000 0.00000000000000 -1.00000000000000
-0.21367741935484 0.01135483870968 1.93032258064516 -0.00000000000000 -0.00000000000000 -1.00000000000000
-0.18787096774194 0.01135483870968 1.93032258064516 0.00000000000000 0.00000000000000 -1.00000000000000
-0.16206451612903 0.01135483870968 1.93032258064516 -0.00000000000000 -0.00000000000000 1.00000000000000
-0.13625806451613 0.01135483870968 1.93032258064516 -0.00000000000000 -0.00000000000000 1.00000000000000
-0.11045161290323 0.01135483870968 1.93032258064516 0.00000000000000 0.00000000000000 -1.00000000000000
-0.08464516129032 0.01135483870968 1.93032258064516 0.00000000000000 0.00000000000000 -1.00000000000000
-0.05883870967742 0.01135483870968 1.93032258064516 -0.00000000000000 -0.00000000000000 -1.00000000000000
-0.03303225806452 0.01135483870968 1.93032258064516 -0.00000000000000 -0.00000000000000 -1.00000000000000
-0.00722580645161 0.01135483870968 1.93032258064516 -0.00000000000000 -0.00000000000000 1.00000000000000
0.01858064516129 0.01135483870968 1.93032258064516 -0.00000000000000 -0.00000000000000 1.00000000000000
0.04438709677419 0.01135483870968 1.93032258064516 -0.00000000000000 -0.00000000000000 1.00000000000000
0.07019354838710 0.01135483870968 1.93032258064516 -0.00000000000000 -0.00000000000000 1.00000000000000
0.09600000000000 0.01135483870968 1.93032258064516 -0.00000000000000 -0.00000000000000 1.00000000000000
0.12180645161290 0.01135483870968 1.93032258064516 0.00000000000000 0.00000000000000 -1.00000000000000
0.14809061488673 0.01139158576052 1.93656957928803 -0.00000000000000 -0.00000000000000 -1.00000000000000
0.15272727272727 0.01000000000000 1.70000000000000 0.00000000000000 0.00000000000000 -1.00000000000000
0.19987055016181 0.01139158576052 1.93656957928803 -0.00000000000000 -0.00000000000000 -1.00000000000000
0.22576051779935 0.01139158576052 1.93656957928803 0.00000000000000 0.00000000000000 -1.00000000000000
0.24300000000000 0.01100000000000 1.87000000000000 nan nan nan
0.26633540372671 0.01093167701863 1.85838509316770 -0.00000000000000 -0.00000000000000 1.00000000000000
0.29027863777090 0.01089783281734 1.85263157894737 -0.00000000000000 -0.00000000000000 -1.00000000000000
0.31407407407407 0.01086419753086 1.84691358024691 0.00000000000000 0.00000000000000 -1.00000000000000
-0.28502732240437 0.01005464480874 1.63497267759563 -0.88411529290007 -0.44205764645004 -0.15141065377073
-0.26032432432432 0.00994594594595 1.61729729729730 -0.00000000000000 -0.00000000000000 -1.00000000000000
-0.24000000000000 0.01000000000000 1.62608695652174 -0.00000000000000 -0.00000000000000 -1.00000000000000
-0.26421052631579 0.01210526315789 1.96842105263158 -0.90187025347623 0.36597633474397 -0.22954600476178
-0.23254019292604 0.01183279742765 1.92411575562701 -0.00000000000000 -0.00000000000000 -1.00000000000000
-0.20748387096774 0.01187096774194 1.93032258064516 -0.00000000000000 -0.00000000000000 -1.00000000000000
-0.18167741935484 0.01187096774194 1.93032258064516 0.00000000000000 0.00000000000000 -1.00000000000000
-0.15587096774194 0.01187096774194 1.93032258064516 -0.00000000000000 -0.00000000000000 -1.00000000000000
-0.13006451612903 0.01187096774194 1.93032258064516 -0.00000000000000 -0.00000000000000 1.00000000000000
-0.10425806451613 0.01187096774194 1.93032258064516 -0.00000000000000 -0.00000000000000 1.00000000000000
-0.07845161290323 0.01187096774194 1.93032258064516 0.00000000000000 0.00000000000000 -1.00000000000000
-0.05264516129032 0.01187096774194 1.93032258064516 -0.00000000000000 -0.00000000000000 -1.00000000000000
-0.02683870967742 0.01187096774194 1.93032258064516 -0.00000000000000 -0.00000000000000 1.00000000000000
-0.00103225806452 0.01187096774194 1.93032258064516 -0.00000000000000 -0.00000000000000 1.00000000000000
0.02477419354839 0.01187096774194 1.93032258064516 -0.00000000000000 -0.00000000000000 -1.00000000000000
0.05058064516129 0.01187096774194 1.93032258064516 -0.00000000000000 -0.00000000000000 1.00000000000000
0.07663430420712 0.01190938511327 1.93656957928803 0.00000000000000 0.00000000000000 -1.00000000000000
0.10219354838710 0.01187096774194 1.93032258064516 0.00000000000000 0.00000000000000 -1.00000000000000
0.12800000000000 0.01187096774194 1.93032258064516 0.00000000000000 0.00000000000000 -1.00000000000000
0.14275449101796 0.01101796407186 1.79161676646707 0.81411423384732 -0.26848448137518 -0.51491173758994
0.15818181818182 0.01045454545455 1.70000000000000 0.00000000000000 0.00000000000000 -1.00000000000000
0.20608414239482 0.01190938511327 1.93656957928803 -0.00000000000000 -0.00000000000000 -1.00000000000000
0.23197411003236 0.01190938511327 1.93656957928803 0.00000000000000 0.00000000000000 1.00000000000000
0.24822429906542 0.01146417445483 1.86417445482866 0.00000000000000 0.00000000000000 -1.00000000000000
0.27229813664596 0.01142857142857 1.85838509316770 0.00000000000000 0.00000000000000 1.00000000000000
0.29622291021672 0.01139318885449 1.85263157894737 -0.00000000000000 -0.00000000000000 1.00000000000000
0.32000000000000 0.01135802469136 1.84691358024691 -0.00000000000000 -0.00000000000000 -1.00000000000000
-0.27826086956522 0.01043478260870 1.62608695652174 0.00000000000000 0.00000000000000 1.00000000000000
-0.25513513513514 0.01037837837838 1.61729729729730 0.00000000000000 0.00000000000000 1.00000000000000
-0.23542234332425 0.01046321525886 1.63051771117166 0.88738068707942 0.44369034353970 0.12527727347003
-0.25209003215434 0.01234726688103 1.92411575562701 0.00000000000000 0.00000000000000 1.00000000000000
-0.22636655948553 0.01234726688103 1.92411575562701 0.00000000000000 0.00000000000000 1.00000000000000
-0.20129032258065 0.01238709677419 1.93032258064516 -0.00000000000000 -0.00000000000000 -1.00000000000000
-0.17548387096774 0.01238709677419 1.93032258064516 0.00000000000000 0.00000000000000 -1.00000000000000
-0.14967741935484 0.01238709677419 1.93032258064516 -0.00000000000000 -0.00000000000000 -1.00000000000000
-0.12387096774194 0.01238709677419 1.93032258064516 0.00000000000000 0.00000000000000 -1.00000000000000
-0.09806451612903 0.01238709677419 1.93032258064516 0.00000000000000 0.00000000000000 -1.00000000000000
-0.07225806451613 0.01238709677419 1.93032258064516 0.00000000000000 0.00000000000000 -1.00000000000000
-0.04645161290323 0.01238709677419 1.93032258064516 0.00000000000000 0.00000000000000 -1.00000000000000
-0.02064516129032 0.01238709677419 1.93032258064516 -0.00000000000000 -0.00000000000000 -1.00000000000000
0.00516129032258 0.01238709677419 1.93032258064516 nan nan nan
0.03096774193548 0.01238709677419 1.93032258064516 0.00000000000000 0.00000000000000 1.00000000000000
0.05677419354839 0.01238709677419 1.93032258064516 0.00000000000000 0.00000000000000 1.00000000000000
0.08284789644013 0.01242718446602 1.93656957928803 0.00000000000000 0.00000000000000 1.00000000000000
0.10838709677419 0.01238709677419 1.93032258064516 0.00000000000000 0.00000000000000 -1.00000000000000
0.13462783171521 0.01242718446602 1.93656957928803 -0.00000000000000 0.00000000000000 1.00000000000000
0.14171428571429 0.01097142857143 1.70971428571429 0.00000000000000 0.00000000000000 -1.00000000000000
0.16410256410256 0.01094017094017 1.70484330484330 -0.00000000000000 -0.00000000000000 -1.00000000000000
0.21229773462783 0.01242718446602 1.93656957928803 0.00000000000000 0.00000000000000 1.00000000000000
0.23439490445860 0.01222929936306 1.90573248407643 -0.00000000000000 0.00000000000000 1.00000000000000
0.25420560747664 0.01196261682243 1.86417445482866 0.00000000000000 0.00000000000000 -1.00000000000000
0.27826086956522 0.01192546583851 1.85838509316770 -0.00000000000000 -0.00000000000000 -1.00000000000000
0.30123456790123 0.01185185185185 1.84691358024691 0.00000000000000 0.00000000000000 1.00000000000000
0.32592592592593 0.01185185185185 1.84691358024691 -0.00000000000000 -0.00000000000000 -1.00000000000000
-0.27230352303523 0.01084010840108 1.62168021680217 0.00000000000000 0.00000000000000 -1.00000000000000
-0.24994594594595 0.01081081081081 1.61729729729730 -0.00000000000000 -0.00000000000000 -1.00000000000000
-0.23081967213115 0.01092896174863 1.63497267759563 0.71659674493835 -0.63697488438964 -0.28416914294229
-0.24591639871383 0.01286173633441 1.92411575562701 0.00000000000000 0.00000000000000 -1.00000000000000
-0.22090322580645 0.01290322580645 1.93032258064516 0.00000000000000 0.00000000000000 -1.00000000000000
-0.19509677419355 0.01290322580645 1.93032258064516 -0.00000000000000 -0.00000000000000 -1.00000000000000
-0.16929032258065 0.01290322580645 1.93032258064516 0.00000000000000 0.00000000000000 -1.00000000000000
-0.14348387096774 0.01290322580645 1.93032258064516 -0.00000000000000 -0.00000000000000 -1.00000000000000
-0.11767741935484 0.01290322580645 1.93032258064516 -0.00000000000000 -0.00000000000000 -1.00000000000000
-0.09187096774194 0.01290322580645 1.93032258064516 -0.00000000000000 -0.00000000000000 -1.00000000000000
-0.06606451612903 0.01290322580645 1.93032258064516 -0.00000000000000 -0.00000000000000 -1.00000000000000
-0.04025806451613 0.01290322580645 1.93032258064516 0.00000000000000 0.00000000000000 -1.00000000000000
-0.01445161290323 0.01290322580645 1.93032258064516 0.00000000000000 0.00000000000000 1.00000000000000
0.01135483870968 0.01290322580645 1.93032258064516 0.00000000000000 0.00000000000000 1.00000000000000
0.03716129032258 0.01290322580645 1.93032258064516 0.00000000000000 0.00000000000000 -1.00000000000000
0.06317152103560 0.01294498381877 1.93656957928803 0.89396484244629 0.44698242122314 -0.03214927040348
0.08877419354839 0.01290322580645 1.93032258064516 0.00000000000000 0.00000000000000 -1.00000000000000
0.11458064516129 0.01290322580645 1.93032258064516 0.00000000000000 0.00000000000000 1.00000000000000
0.14084142394822 0.01294498381877 1.93656957928803 nan nan nan
0.14678062678063 0.01139601139601 1.70484330484330 0.00000000000000 0.00000000000000 -1.00000000000000
0.20176271186441 0.01355932203390 2.02847457627119 0.29797423614063 0.80162980342258 0.51826731795579
0.21851132686084 0.01294498381877 1.93656957928803 0.00000000000000 0.00000000000000 -1.00000000000000
0.23898734177215 0.01265822784810 1.89367088607595 0.00000000000000 0.00000000000000 1.00000000000000
0.25937888198758 0.01242236024845 1.85838509316770 nan nan nan
0.28334365325077 0.01238390092879 1.85263157894737 0.00000000000000 0.00000000000000 1.00000000000000
0.30716049382716 0.01234567901235 1.84691358024691 -0.00000000000000 -0.00000000000000 -1.00000000000000
-0.43672131147541 0.01704918032787 2.45245901639344 -0.00000000000000 -0.00000000000000 1.00000000000000
-0.26637837837838 0.01124324324324 1.61729729729730 0.00000000000000 0.00000000000000 1.00000000000000
-0.24542005420054 0.01127371273713 1.62168021680217 0.00000000000000 0.00000000000000 -1.00000000000000
-0.25247706422018 0.01272171253823 1.82996941896024 0.97359189963927 -0.11180002675283 0.19904664522382
-0.23974276527331 0.01337620578778 1.92411575562701 -0.00000000000000 -0.00000000000000 -1.00000000000000
-0.21470967741935 0.01341935483871 1.93032258064516 0.00000000000000 0.00000000000000 -1.00000000000000
-0.18890322580645 0.01341935483871 1.93032258064516 0.00000000000000 0.00000000000000 -1.00000000000000
-0.16309677419355 0.01341935483871 1.93032258064516 0.00000000000000 0.00000000000000 1.00000000000000
-0.13729032258065 0.01341935483871 1.93032258064516 0.00000000000000 0.00000000000000 1.00000000000000
-0.11148387096774 0.01341935483871 1.93032258064516 0.00000000000000 0.00000000000000 1.00000000000000
-0.08567741935484 0.01341935483871 1.93032258064516 0.00000000000000 0.00000000000000 1.00000000000000
-0.05987096774194 0.01341935483871 1.93032258064516 0.00000000000000 0.00000000000000 -1.00000000000000
-0.03406451612903 0.01341935483871 1.93032258064516 0.00000000000000 0.00000000000000 1.00000000000000
-0.00825806451613 0.01341935483871 1.93032258064516 0.00000000000000 0.00000000000000 1.00000000000000
0.01754838709677 0.01341935483871 1.93032258064516 0.00000000000000 0.00000000000000 1.00000000000000
0.04335483870968 0.01341935483871 1.93032258064516 0.00000000000000 0.00000000000000 -1.00000000000000
0.06916129032258 0.01341935483871 1.93032258064516 0.00000000000000 0.00000000000000 -1.00000000000000
0.09496774193548 0.01341935483871 1.93032258064516 0.00000000000000 0.00000000000000 -1.00000000000000
0.12077419354839 0.01341935483871 1.93032258064516 -0.00000000000000 -0.00000000000000 -1.00000000000000
0.14705501618123 0.01346278317152 1.93656957928803 nan nan nan
0.15181818181818 0.01181818181818 1.70000000000000 -0.00000000000000 -0.00000000000000 1.00000000000000
0.19883495145631 0.01346278317152 1.93656957928803 nan nan nan
0.22472491909385 0.01346278317152 1.93656957928803 -0.00000000000000 -0.00000000000000 -1.00000000000000
0.24200000000000 0.01300000000000 1.87000000000000 -0.00000000000000 -0.00000000000000 -1.00000000000000
0.26534161490683 0.01291925465839 1.85838509316770 0.00000000000000 0.00000000000000 1.00000000000000
0.28928792569659 0.01287925696594 1.85263157894737 nan nan nan
0.31308641975309 0.01283950617284 1.84691358024691 nan nan nan
-0.28747252747253 0.01186813186813 1.64395604395604 -0.94601516769284 0.14937081595151 -0.28765198041569
-0.26118918918919 0.01167567567568 1.61729729729730 -0.00000000000000 -0.00000000000000 -1.00000000000000
-0.24086956521739 0.01173913043478 1.62608695652174 0.00000000000000 0.00000000000000 -1.00000000000000
-0.29323636363636 0.01570909090909 2.17600000000000 -0.87907106210940 0.42349408831548 -0.21883058498229
-0.23356913183280 0.01389067524116 1.92411575562701 0.00000000000000 0.00000000000000 -1.00000000000000
-0.20851612903226 0.01393548387097 1.93032258064516 0.00000000000000 0.00000000000000 -1.00000000000000
-0.18270967741935 0.01393548387097 1.93032258064516 nan nan nan
-0.15690322580645 0.01393548387097 1.93032258064516 0.00000000000000 0.00000000000000 -1.00000000000000
-0.13109677419355 0.01393548387097 1.93032258064516 nan nan nan
-0.10529032258065 0.01393548387097 1.93032258064516 -0.00000000000000 -0.00000000000000 -1.00000000000000
-0.07948387096774 0.01393548387097 1.93032258064516 -0.00000000000000 -0.00000000000000 -1.00000000000000
-0.05367741935484 0.01393548387097 1.93032258064516 0.00000000000000 0.00000000000000 -1.00000000000000
-0.02787096774194 0.01393548387097 1.93032258064516 -0.00000000000000 -0.00000000000000 -1.00000000000000
-0.00206451612903 0.01393548387097 1.93032258064516 -0.00000000000000 -0.00000000000000 -1.00000000000000
0.02374193548387 0.01393548387097 1.93032258064516 0.00000000000000 0.00000000000000 -1.00000000000000
0.04954838709677 0.01393548387097 1.93032258064516 nan nan nan
0.07535483870968 0.01393548387097 1.93032258064516 0.00000000000000 0.00000000000000 1.00000000000000
0.10116129032258 0.01393548387097 1.93032258064516 -0.00000000000000 -0.00000000000000 -1.00000000000000
0.12696774193548 0.01393548387097 1.93032258064516 0.00000000000000 0.00000000000000 -1.00000000000000
0.16219178082192 0.01479452054795 2.04931506849315 -0.89198711662372 -0.44599355831186 0.07381551138905
0.15727272727273 0.01227272727273 1.70000000000000 0.00000000000000 0.00000000000000 -1.00000000000000
0.20504854368932 0.01398058252427 1.93656957928803 0.00000000000000 0.00000000000000 -1.00000000000000
0.23093851132686 0.01398058252427 1.93656957928803 -0.00000000000000 -0.00000000000000 -1.00000000000000
0.24800000000000 0.01350000000000 1.87000000000000 nan nan nan
0.27130434782609 0.01341614906832 1.85838509316770 -0.00000000000000 -0.00000000000000 1.00000000000000
0.29523219814241 0.01337461300310 1.85263157894737 nan nan nan
0.31901234567901 0.01333333333333 1.84691358024691 0.00000000000000 0.00000000000000 -1.00000000000000
-0.27913043478261 0.01217391304348 1.62608695652174 -0.00000000000000 -0.00000000000000 -1.00000000000000
-0.25600000000000 0.01210810810811 1.61729729729730 0.00000000000000 0.00000000000000 -1.00000000000000
-0.23565217391304 0.01217391304348 1.62608695652174 0.41962459925850 -0.83924919851700 -0.34579759757078
-0.25311897106109 0.01440514469453 1.92411575562701 0.00000000000000 0.00000000000000 -1.00000000000000
-0.22739549839228 0.01440514469453 1.92411575562701 -0.00000000000000 -0.00000000000000 -1.00000000000000
-0.20232258064516 0.01445161290323 1.93032258064516 0.00000000000000 0.00000000000000 -1.00000000000000
-0.17651612903226 0.01445161290323 1.93032258064516 0.00000000000000 0.00000000000000 1.00000000000000
-0.15070967741935 0.01445161290323 1.93032258064516 0.00000000000000 0.00000000000000 -1.00000000000000
-0.12490322580645 0.01445161290323 1.93032258064516 0.00000000000000 0.00000000000000 1.00000000000000
-0.09909677419355 0.01445161290323 1.93032258064516 0.00000000000000 0.00000000000000 1.00000000000000
-0.07329032258065 0.01445161290323 1.93032258064516 -0.00000000000000 -0.00000000000000 -1.00000000000000
-0.04748387096774 0.01445161290323 1.93032258064516 -0.00000000000000 -0.00000000000000 -1.00000000000000
-0.02167741935484 0.01445161290323 1.93032258064516 0.00000000000000 0.00000000000000 1.00000000000000
0.00412903225806 0.01445161290323 1.93032258064516 0.00000000000000 0.00000000000000 1.00000000000000
0.02993548387097 0.01445161290323 1.93032258064516 0.00000000000000 0.00000000000000 1.00000000000000
0.05574193548387 0.01445161290323 1.93032258064516 0.00000000000000 0.00000000000000 1.00000000000000
0.08181229773463 0.01449838187702 1.93656957928803 0.00000000000000 -0.00000000000000 -1.00000000000000
0.10735483870968 0.01445161290323 1.93032258064516 -0.00000000000000 -0.00000000000000 -1.00000000000000
0.13316129032258 0.01445161290323 1.93032258064516 0.00000000000000 0.00000000000000 1.00000000000000
0.14080000000000 0.01280000000000 1.70971428571429 0.00000000000000 0.00000000000000 -1.00000000000000
0.16319088319088 0.01276353276353 1.70484330484330 0.00000000000000 0.00000000000000 -1.00000000000000
0.21126213592233 0.01449838187702 1.93656957928803 -0.00000000000000 -0.00000000000000 -1.00000000000000
0.23412140575080 0.01431309904153 1.91182108626198 -0.97739293782074 -0.20958739775445 0.02785978823809
0.25320872274143 0.01395638629283 1.86417445482866 -0.00000000000000 -0.00000000000000 -1.00000000000000
0.27726708074534 0.01391304347826 1.85838509316770 0.00000000000000 0.00000000000000 -1.00000000000000
0.30024691358025 0.01382716049383 1.84691358024691 0.00000000000000 0.00000000000000 -1.00000000000000
0.32493827160494 0.01382716049383 1.84691358024691 0.00000000000000 0.00000000000000 -1.00000000000000
-0.27317073170732 0.01257452574526 1.62168021680217 0.00000000000000 0.00000000000000 1.00000000000000
-0.25081081081081 0.01254054054054 1.61729729729730 0.00000000000000 0.00000000000000 -1.00000000000000
-0.23043478260870 0.01260869565217 1.62608695652174 0.41946162343799 -0.83892324687598 -0.34678485017922
-0.24694533762058 0.01491961414791 1.92411575562701 -0.00000000000000 -0.00000000000000 -1.00000000000000
-0.22193548387097 0.01496774193548 1.93032258064516 0.00000000000000 0.00000000000000 1.00000000000000
-0.19612903225806 0.01496774193548 1.93032258064516 0.00000000000000 0.00000000000000 -1.00000000000000
-0.17032258064516 0.01496774193548 1.93032258064516 0.00000000000000 0.00000000000000 1.00000000000000
-0.14451612903226 0.01496774193548 1.93032258064516 0.00000000000000 0.00000000000000 -1.00000000000000
-0.11870967741935 0.01496774193548 1.93032258064516 0.00000000000000 0.00000000000000 1.00000000000000
-0.09290322580645 0.01496774193548 1.93032258064516 0.00000000000000 0.00000000000000 1.00000000000000
-0.06709677419355 0.01496774193548 1.93032258064516 0.00000000000000 0.00000000000000 -1.00000000000000
-0.04129032258065 0.01496774193548 1.93032258064516 -0.00000000000000 -0.00000000000000 -1.00000000000000
-0.01548387096774 0.01496774193548 1.93032258064516 0.00000000000000 0.00000000000000 -1.00000000000000
0.01032258064516 0.01496774193548 1.93032258064516 0.00000000000000 0.00000000000000 -1.00000000000000
0.03612903225806 0.01496774193548 1.93032258064516 -0.00000000000000 -0.00000000000000 -1.00000000000000
0.06193548387097 0.01496774193548 1.93032258064516 0.00000000000000 0.00000000000000 -1.00000000000000
0.08774193548387 0.01496774193548 1.93032258064516 -0.00000000000000 -0.00000000000000 -1.00000000000000
0.11354838709677 0.01496774193548 1.93032258064516 -0.00000000000000 -0.00000000000000 -1.00000000000000
0.13980582524272 0.01501618122977 1.93656957928803 0.00000000000000 0.00000000000000 -1.00000000000000
0.14586894586895 0.01321937321937 1.70484330484330 0.00000000000000 0.00000000000000 1.00000000000000
0.18557993730408 0.01454545454545 1.87586206896552 0.58712936525347 0.79292728709489 0.16292767057013
0.21747572815534 0.01501618122977 1.93656957928803 -0.00000000000000 -0.00000000000000 -1.00000000000000
0.23873015873016 0.01473015873016 1.89968253968254 0.20161657832248 0.92869636389793 -0.31124559278533
0.25838509316770 0.01440993788820 1.85838509316770 nan nan nan
0.28235294117647 0.01436532507740 1.85263157894737 nan nan nan
0.30617283950617 0.01432098765432 1.84691358024691 0.00000000000000 0.00000000000000 -1.00000000000000
-0.43803278688525 0.01967213114754 2.45245901639344 0.00000000000000 0.00000000000000 1.00000000000000
-0.26724324324324 0.01297297297297 1.61729729729730 -0.00000000000000 -0.00000000000000 1.00000000000000
-0.24562162162162 0.01297297297297 1.61729729729730 0.68425819700966 0.68996034865141 0.23610471641609
-0.22583106267030 0.01307901907357 1.63051771117166 0.88802519511398 0.44401259755700 0.11943226554609
-0.24077170418006 0.01543408360129 1.92411575562701 0.00000000000000 0.00000000000000 -1.00000000000000
-0.21574193548387 0.01548387096774 1.93032258064516 0.00000000000000 0.00000000000000 -1.00000000000000
-0.18993548387097 0.01548387096774 1.93032258064516 -0.00000000000000 -0.00000000000000 -1.00000000000000
-0.16412903225806 0.01548387096774 1.93032258064516 0.00000000000000 0.00000000000000 1.00000000000000
-0.13832258064516 0.01548387096774 1.93032258064516 -0.00000000000000 -0.00000000000000 -1.00000000000000
-0.11251612903226 0.01548387096774 1.93032258064516 -0.00000000000000 -0.00000000000000 -1.00000000000000
-0.08670967741935 0.01548387096774 1.93032258064516 -0.00000000000000 -0.00000000000000 -1.00000000000000
-0.06090322580645 0.01548387096774 1.93032258064516 -0.00000000000000 -0.00000000000000 -1.00000000000000
-0.03509677419355 0.01548387096774 1.93032258064516 -0.00000000000000 -0.00000000000000 -1.00000000000000
-0.00929032258065 0.01548387096774 1.93032258064516 0.00000000000000 0.00000000000000 -1.00000000000000
0.01651612903226 0.01548387096774 1.93032258064516 0.00000000000000 0.00000000000000 -1.00000000000000
0.04232258064516 0.01548387096774 1.93032258064516 -0.00000000000000 -0.00000000000000 -1.00000000000000
0.06812903225806 0.01548387096774 1.93032258064516 0.00000000000000 0.00000000000000 1.00000000000000
0.09393548387097 0.01548387096774 1.93032258064516 -0.00000000000000 -0.00000000000000 -1.00000000000000
0.11974193548387 0.01548387096774 1.93032258064516 0.00000000000000 0.00000000000000 1.00000000000000
0.14601941747573 0.01553398058252 1.93656957928803 0.00000000000000 0.00000000000000 -1.00000000000000
0.15133903133903 0.01367521367521 1.70484330484330 0.41704452940743 -0.83408905881487 0.36106689471157
0.19779935275081 0.01553398058252 1.93656957928803 0.00000000000000 0.00000000000000 -1.00000000000000
0.22368932038835 0.01553398058252 1.93656957928803 0.00000000000000 0.00000000000000 -1.00000000000000
0.24100000000000 0.01500000000000 1.87000000000000 0.00000000000000 0.00000000000000 -1.00000000000000
0.26434782608696 0.01490683229814 1.85838509316770 0.00000000000000 0.00000000000000 1.00000000000000
0.28829721362229 0.01486068111455 1.85263157894737 0.00000000000000 0.00000000000000 1.00000000000000
0.31209876543210 0.01481481481481 1.84691358024691 -0.00000000000000 -0.00000000000000 -1.00000000000000
-0.30074498567335 0.01421203438395 1.71461318051576 0.92951706270340 -0.08082757066986 0.35981235938035
-0.26205405405405 0.01340540540541 1.61729729729730 0.00000000000000 0.00000000000000 -1.00000000000000
-0.24043243243243 0.01340540540541 1.61729729729730 0.41962459925850 -0.83924919851700 -0.34579759757078
-0.22426592797784 0.01373961218837 1.65761772853186 0.40328983856022 -0.51851550672029 0.75398871039603
-0.23459807073955 0.01594855305466 1.92411575562701 -0.00000000000000 -0.00000000000000 -1.00000000000000
-0.20954838709677 0.01600000000000 1.93032258064516 nan nan nan
-0.18374193548387 0.01600000000000 1.93032258064516 -0.00000000000000 -0.00000000000000 -1.00000000000000
-0.15793548387097 0.01600000000000 1.93032258064516 nan nan nan
-0.13212903225806 0.01600000000000 1.93032258064516 -0.00000000000000 -0.00000000000000 -1.00000000000000
-0.10632258064516 0.01600000000000 1.93032258064516 nan nan nan
-0.08051612903226 0.01600000000000 1.93032258064516 0.00000000000000 0.00000000000000 -1.00000000000000
-0.05470967741935 0.01600000000000 1.93032258064516 -0.00000000000000 -0.00000000000000 -1.00000000000000
-0.02890322580645 0.01600000000000 1.93032258064516 nan nan nan
-0.00309677419355 0.01600000000000 1.93032258064516 0.00000000000000 0.00000000000000 -1.00000000000000
0.02270967741935 0.01600000000000 1.93032258064516 -0.00000000000000 -0.00000000000000 -1.00000000000000
0.04851612903226 0.01600000000000 1.93032258064516 -0.00000000000000 -0.00000000000000 -1.00000000000000
0.07432258064516 0.01600000000000 1.93032258064516 nan nan nan
0.10012903225806 0.01600000000000 1.93032258064516 0.00000000000000 0.00000000000000 -1.00000000000000
0.12593548387097 0.01600000000000 1.93032258064516 -0.00000000000000 -0.00000000000000 -1.00000000000000
0.15223300970874 0.01605177993528 1.93656957928803 0.00000000000000 0.00000000000000 1.00000000000000
0.15636363636364 0.01409090909091 1.70000000000000 0.00000000000000 0.00000000000000 -1.00000000000000
0.20401294498382 0.01605177993528 1.93656957928803 -0.00000000000000 -0.00000000000000 1.00000000000000
0.22990291262136 0.01605177993528 1.93656957928803 0.00000000000000 0.00000000000000 -1.00000000000000
0.24700000000000 0.01550000000000 1.87000000000000 nan nan nan
0.27031055900621 0.01540372670807 1.85838509316770 -0.00000000000000 -0.00000000000000 1.00000000000000
0.29424148606811 0.01535603715170 1.85263157894737 -0.00000000000000 -0.00000000000000 -1.00000000000000
0.31802469135802 0.01530864197531 1.84691358024691 0.00000000000000 0.00000000000000 1.00000000000000
-0.28000000000000 0.01391304347826 1.62608695652174 0.00000000000000 0.00000000000000 -1.00000000000000
-0.25617250673854 0.01380053908356 1.61293800539084 0.60380693838493 0.75088811568382 0.26755227317858
-0.23524324324324 0.01383783783784 1.61729729729730 0.00000000000000 0.00000000000000 1.00000000000000
-0.25745928338762 0.01667752442997 1.94918566775244 0.96522857138123 -0.22711260503088 0.12943596727896
-0.22842443729904 0.01646302250804 1.92411575562701 0.00000000000000 0.00000000000000 -1.00000000000000
-0.20335483870968 0.01651612903226 1.93032258064516 -0.00000000000000 -0.00000000000000 1.00000000000000
-0.17754838709677 0.01651612903226 1.93032258064516 -0.00000000000000 -0.00000000000000 -1.00000000000000
-0.15174193548387 0.01651612903226 1.93032258064516 -0.00000000000000 -0.00000000000000 1.00000000000000
-0.12593548387097 0.01651612903226 1.93032258064516 -0.00000000000000 -0.00000000000000 1.00000000000000
-0.10012903225806 0.01651612903226 1.93032258064516 -0.00000000000000 -0.00000000000000 -1.00000000000000
-0.07432258064516 0.01651612903226 1.93032258064516 -0.00000000000000 -0.00000000000000 1.00000000000000
-0.04851612903226 0.01651612903226 1.93032258064516 0.00000000000000 0.00000000000000 -1.00000000000000
-0.02270967741935 0.01651612903226 1.93032258064516 -0.00000000000000 -0.00000000000000 1.00000000000000
0.00309677419355 0.01651612903226 1.93032258064516 -0.00000000000000 -0.00000000000000 1.00000000000000
0.02890322580645 0.01651612903226 1.93032258064516 -0.00000000000000 -0.00000000000000 1.00000000000000
0.05470967741935 0.01651612903226 1.93032258064516 -0.00000000000000 -0.00000000000000 1.00000000000000
0.08051612903226 0.01651612903226 1.93032258064516 0.00000000000000 0.00000000000000 -1.00000000000000
0.10632258064516 0.01651612903226 1.93032258064516 -0.00000000000000 -0.00000000000000 1.00000000000000
0.13212903225806 0.01651612903226 1.93032258064516 -0.00000000000000 -0.00000000000000 1.00000000000000
0.13988571428571 0.01462857142857 1.70971428571429 -0.00000000000000 -0.00000000000000 -1.00000000000000
0.16181818181818 0.01454545454545 1.70000000000000 0.00000000000000 0.00000000000000 -1.00000000000000
0.21022653721683 0.01656957928803 1.93656957928803 0.00000000000000 0.00000000000000 1.00000000000000
0.23384615384615 0.01641025641026 1.91794871794872 0.96623968679370 -0.22735051453969 0.12121308181608
0.25221183800623 0.01595015576324 1.86417445482866 0.00000000000000 0.00000000000000 -1.00000000000000
0.27627329192547 0.01590062111801 1.85838509316770 -0.00000000000000 -0.00000000000000 1.00000000000000
0.29925925925926 0.01580246913580 1.84691358024691 -0.00000000000000 -0.00000000000000 -1.00000000000000
0.32395061728395 0.01580246913580 1.84691358024691 0.00000000000000 0.00000000000000 1.00000000000000
-0.27329729729730 0.01427027027027 1.61729729729730 0.94783369944307 -0.28717800873044 -0.13834764002931
-0.25099730458221 0.01423180592992 1.61293800539084 0.09174411188559 0.92972827669767 0.35663475635881
-0.23067750677507 0.01430894308943 1.62168021680217 0.88770667270065 0.44385333635033 0.12235636090300
-0.24797427652733 0.01697749196141 1.92411575562701 0.00000000000000 0.00000000000000 -1.00000000000000
-0.22296774193548 0.01703225806452 1.93032258064516 0.00000000000000 0.00000000000000 -1.00000000000000
-0.19716129032258 0.01703225806452 1.93032258064516 -0.00000000000000 -0.00000000000000 1.00000000000000
-0.17135483870968 0.01703225806452 1.93032258064516 -0.00000000000000 -0.00000000000000 1.00000000000000
-0.14554838709677 0.01703225806452 1.93032258064516 -0.00000000000000 -0.00000000000000 -1.00000000000000
-0.11974193548387 0.01703225806452 1.93032258064516 -0.00000000000000 -0.00000000000000 1.00000000000000
-0.09393548387097 0.01703225806452 1.93032258064516 0.00000000000000 0.00000000000000 -1.00000000000000
-0.06812903225806 0.01703225806452 1.93032258064516 -0.00000000000000 -0.00000000000000 1.00000000000000
-0.04232258064516 0.01703225806452 1.93032258064516 0.00000000000000 0.00000000000000 -1.00000000000000
-0.01651612903226 0.01703225806452 1.93032258064516 -0.00000000000000 -0.00000000000000 -1.00000000000000
0.00929032258065 0.01703225806452 1.93032258064516 nan nan nan
0.03509677419355 0.01703225806452 1.93032258064516 -0.00000000000000 -0.00000000000000 1.00000000000000
0.06090322580645 0.01703225806452 1.93032258064516 0.00000000000000 0.00000000000000 -1.00000000000000
0.08670967741935 0.01703225806452 1.93032258064516 0.00000000000000 0.00000000000000 -1.00000000000000
0.11251612903226 0.01703225806452 1.93032258064516 0.00000000000000 0.00000000000000 -1.00000000000000
0.13877022653722 0.01708737864078 1.93656957928803 -0.00000000000000 -0.00000000000000 -1.00000000000000
0.14454545454545 0.01500000000000 1.70000000000000 0.00000000000000 0.00000000000000 -1.00000000000000
0.16822857142857 0.01508571428571 1.70971428571429 0.83936827618148 -0.38740074285299 -0.38128934075985
0.21644012944984 0.01708737864078 1.93656957928803 0.00000000000000 0.00000000000000 1.00000000000000
0.23847133757962 0.01681528662420 1.90573248407643 0.00000000000000 0.00000000000000 1.00000000000000
0.25739130434783 0.01639751552795 1.85838509316770 0.00000000000000 0.00000000000000 1.00000000000000
0.28136222910217 0.01634674922601 1.85263157894737 nan nan nan
0.30518518518519 0.01629629629630 1.84691358024691 nan nan nan
0.32886153846154 0.01624615384615 1.84123076923077 0.00000000000000 0.00000000000000 1.00000000000000
-0.26810810810811 0.01470270270270 1.61729729729730 0.00000000000000 0.00000000000000 1.00000000000000
-0.24582210242588 0.01466307277628 1.61293800539084 0.30340704687169 0.89309332345295 0.33215731139380
-0.22608695652174 0.01478260869565 1.62608695652174 nan nan nan
-0.24180064308682 0.01749196141479 1.92411575562701 0.00000000000000 0.00000000000000 -1.00000000000000
-0.21677419354839 0.01754838709677 1.93032258064516 -0.00000000000000 -0.00000000000000 -1.00000000000000
-0.19096774193548 0.01754838709677 1.93032258064516 0.00000000000000 0.00000000000000 -1.00000000000000
-0.16516129032258 0.01754838709677 1.93032258064516 -0.00000000000000 -0.00000000000000 -1.00000000000000
-0.13935483870968 0.01754838709677 1.93032258064516 0.00000000000000 0.00000000000000 -1.00000000000000
-0.11354838709677 0.01754838709677 1.93032258064516 0.00000000000000 0.00000000000000 -1.00000000000000
-0.08774193548387 0.01754838709677 1.93032258064516 0.00000000000000 0.00000000000000 -1.00000000000000
-0.06193548387097 0.01754838709677 1.93032258064516 0.00000000000000 0.00000000000000 -1.00000000000000
-0.03612903225806 0.01754838709677 1.93032258064516 0.00000000000000 0.00000000000000 -1.00000000000000
-0.01032258064516 0.01754838709677 1.93032258064516 nan nan nan
0.01548387096774 0.01754838709677 1.93032258064516 -0.00000000000000 -0.00000000000000 -1.00000000000000
0.04129032258065 0.01754838709677 1.93032258064516 0.00000000000000 0.00000000000000 -1.00000000000000
0.06709677419355 0.01754838709677 1.93032258064516 -0.00000000000000 -0.00000000000000 -1.00000000000000
0.09290322580645 0.01754838709677 1.93032258064516 -0.00000000000000 -0.00000000000000 1.00000000000000
0.11870967741935 0.01754838709677 1.93032258064516 -0.00000000000000 -0.00000000000000 1.00000000000000
0.14498381877023 0.01760517799353 1.93656957928803 nan nan nan
0.15000000000000 0.01545454545455 1.70000000000000 0.00000000000000 0.00000000000000 -1.00000000000000
0.19676375404531 0.01760517799353 1.93656957928803 0.00000000000000 0.00000000000000 1.00000000000000
0.22265372168285 0.01760517799353 1.93656957928803 -0.00000000000000 -0.00000000000000 -1.00000000000000
0.24000000000000 0.01700000000000 1.87000000000000 0.00000000000000 0.00000000000000 1.00000000000000
0.26335403726708 0.01689440993789 1.85838509316770 -0.00000000000000 -0.00000000000000 1.00000000000000
0.28730650154799 0.01684210526316 1.85263157894737 -0.00000000000000 -0.00000000000000 1.00000000000000
0.31111111111111 0.01679012345679 1.84691358024691 0.00000000000000 0.00000000000000 -1.00000000000000
-0.32493827160494 0.01728395061728 1.84691358024691 -0.24533077461728 -0.90175636075541 0.35587677201926
-0.26150537634409 0.01505376344086 1.60860215053763 0.00000000000000 0.00000000000000 -1.00000000000000
-0.24064690026954 0.01509433962264 1.61293800539084 0.00000000000000 0.00000000000000 -1.00000000000000
-0.22207650273224 0.01530054644809 1.63497267759563 -0.88833622969107 -0.44416811484555 -0.11650505900093
-0.23562700964630 0.01800643086817 1.92411575562701 0.00000000000000 0.00000000000000 -1.00000000000000
-0.21058064516129 0.01806451612903 1.93032258064516 -0.00000000000000 -0.00000000000000 -1.00000000000000
-0.18477419354839 0.01806451612903 1.93032258064516 0.00000000000000 0.00000000000000 -1.00000000000000
-0.15896774193548 0.01806451612903 1.93032258064516 -0.00000000000000 -0.00000000000000 -1.00000000000000
-0.13316129032258 0.01806451612903 1.93032258064516 0.00000000000000 0.00000000000000 -1.00000000000000
-0.10735483870968 0.01806451612903 1.93032258064516 0.00000000000000 0.00000000000000 -1.00000000000000
-0.08154838709677 0.01806451612903 1.93032258064516 0.00000000000000 0.00000000000000 1.00000000000000
-0.05574193548387 0.01806451612903 1.93032258064516 0.00000000000000 0.00000000000000 1.00000000000000
-0.02993548387097 0.01806451612903 1.93032258064516 0.00000000000000 0.00000000000000 1.00000000000000
-0.00412903225806 0.01806451612903 1.93032258064516 0.00000000000000 0.00000000000000 1.00000000000000
0.02167741935484 0.01806451612903 1.93032258064516 0.00000000000000 0.00000000000000 1.00000000000000
0.04748387096774 0.01806451612903 1.93032258064516 0.00000000000000 0.00000000000000 -1.00000000000000
0.07329032258065 0.01806451612903 1.93032258064516 0.00000000000000 0.00000000000000 -1.00000000000000
0.09909677419355 0.01806451612903 1.93032258064516 0.00000000000000 0.00000000000000 1.00000000000000
0.12530744336570 0.01812297734628 1.93656957928803 -0.07845592283137 0.94147107397646 -0.32783667433387
0.15070967741935 0.01806451612903 1.93032258064516 0.89198711662372 0.44599355831187 -0.07381551138905
0.15545454545455 0.01590909090909 1.70000000000000 -0.00000000000000 -0.00000000000000 -1.00000000000000
0.20297734627832 0.01812297734628 1.93656957928803 -0.00000000000000 -0.00000000000000 -1.00000000000000
0.22886731391586 0.01812297734628 1.93656957928803 -0.00000000000000 -0.00000000000000 -1.00000000000000
0.24600000000000 0.01750000000000 1.87000000000000 0.00000000000000 0.00000000000000 1.00000000000000
0.26931677018634 0.01739130434783 1.85838509316770 0.00000000000000 0.00000000000000 1.00000000000000
0.29325077399381 0.01733746130031 1.85263157894737 0.00000000000000 0.00000000000000 -1.00000000000000
0.31606153846154 0.01723076923077 1.84123076923077 nan nan nan
-0.27935135135135 0.01556756756757 1.61729729729730 0.00000000000000 0.00000000000000 -1.00000000000000
-0.25634408602151 0.01548387096774 1.60860215053763 0.00000000000000 0.00000000000000 -1.00000000000000
-0.23610810810811 0.01556756756757 1.61729729729730 -0.00000000000000 -0.00000000000000 -1.00000000000000
-0.34060085836910 0.02472103004292 2.56824034334764 0.82372856426893 0.24683155584365 0.51043651461005
-0.22945337620579 0.01852090032154 1.92411575562701 -0.00000000000000 -0.00000000000000 1.00000000000000
-0.20438709677419 0.01858064516129 1.93032258064516 -0.00000000000000 -0.00000000000000 -1.00000000000000
-0.17858064516129 0.01858064516129 1.93032258064516 0.00000000000000 0.00000000000000 -1.00000000000000
-0.15277419354839 0.01858064516129 1.93032258064516 -0.00000000000000 -0.00000000000000 -1.00000000000000
-0.12696774193548 0.01858064516129 1.93032258064516 -0.00000000000000 -0.00000000000000 -1.00000000000000
-0.10116129032258 0.01858064516129 1.93032258064516 0.00000000000000 0.00000000000000 -1.00000000000000
-0.07535483870968 0.01858064516129 1.93032258064516 0.00000000000000 0.00000000000000 -1.00000000000000
-0.04954838709677 0.01858064516129 1.93032258064516 0.00000000000000 0.00000000000000 1.00000000000000
-0.02374193548387 0.01858064516129 1.93032258064516 0.00000000000000 0.00000000000000 1.00000000000000
0.00206451612903 0.01858064516129 1.93032258064516 0.00000000000000 0.00000000000000 1.00000000000000
0.02787096774194 0.01858064516129 1.93032258064516 0.00000000000000 0.00000000000000 -1.00000000000000
0.05367741935484 0.01858064516129 1.93032258064516 -0.00000000000000 -0.00000000000000 -1.00000000000000
0.07948387096774 0.01858064516129 1.93032258064516 0.00000000000000 0.00000000000000 -1.00000000000000
0.10529032258065 0.01858064516129 1.93032258064516 0.00000000000000 0.00000000000000 -1.00000000000000
0.13152103559871 0.01864077669903 1.93656957928803 -0.00000000000000 0.00000000000000 -1.00000000000000
0.13897142857143 0.01645714285714 1.70971428571429 0.00000000000000 0.00000000000000 -1.00000000000000
0.16090909090909 0.01636363636364 1.70000000000000 0.00000000000000 0.00000000000000 -1.00000000000000
0.20919093851133 0.01864077669903 1.93656957928803 0.00000000000000 0.00000000000000 -1.00000000000000
0.23432258064516 0.01858064516129 1.93032258064516 -0.88878276803095 -0.44439138401548 0.11216723703493
0.25121495327103 0.01794392523364 1.86417445482866 -0.00000000000000 -0.00000000000000 -1.00000000000000
0.27527950310559 0.01788819875776 1.85838509316770 0.00000000000000 0.00000000000000 -1.00000000000000
0.29827160493827 0.01777777777778 1.84691358024691 0.00000000000000 0.00000000000000 -1.00000000000000
0.32196923076923 0.01772307692308 1.84123076923077 0.00000000000000 0.00000000000000 1.00000000000000
-0.27342318059299 0.01595687331536 1.61293800539084 0.00000000000000 0.00000000000000 -1.00000000000000
-0.25118279569892 0.01591397849462 1.60860215053763 0.00000000000000 0.00000000000000 1.00000000000000
-0.23154471544715 0.01604336043360 1.62168021680217 0.88770667270065 0.44385333635033 0.12235636090299
-0.24900321543408 0.01903536977492 1.92411575562701 0.00000000000000 0.00000000000000 -1.00000000000000
-0.22327974276527 0.01903536977492 1.92411575562701 0.00000000000000 0.00000000000000 -1.00000000000000
-0.19819354838710 0.01909677419355 1.93032258064516 nan nan nan
-0.17238709677419 0.01909677419355 1.93032258064516 nan nan nan
-0.14658064516129 0.01909677419355 1.93032258064516 -0.00000000000000 -0.00000000000000 -1.00000000000000
-0.12077419354839 0.01909677419355 1.93032258064516 0.00000000000000 0.00000000000000 -1.00000000000000
-0.09496774193548 0.01909677419355 1.93032258064516 -0.00000000000000 -0.00000000000000 -1.00000000000000
-0.06916129032258 0.01909677419355 1.93032258064516 -0.00000000000000 -0.00000000000000 -1.00000000000000
-0.04335483870968 0.01909677419355 1.93032258064516 -0.00000000000000 -0.00000000000000 -1.00000000000000
-0.01754838709677 0.01909677419355 1.93032258064516 nan nan nan
0.00825806451613 0.01909677419355 1.93032258064516 0.00000000000000 0.00000000000000 -1.00000000000000
0.03406451612903 0.01909677419355 1.93032258064516 nan nan nan
0.05987096774194 0.01909677419355 1.93032258064516 -0.00000000000000 -0.00000000000000 -1.00000000000000
0.08567741935484 0.01909677419355 1.93032258064516 nan nan nan
0.11148387096774 0.01909677419355 1.93032258064516 nan nan nan
