-6.982332820491205850e-05 2.252365425964345219e-05 -2.431446544431421363e-04
0.000000000000000000e+00 -0.000000000000000000e+00 9.299554638516021641e-06
4.059026823899567638e-06 -5.682637553459662526e-05 -2.930313482493681842e-07
-0.000000000000000000e+00 0.000000000000000000e+00 -2.304709141274246137e-06
0.000000000000000000e+00 0.000000000000000000e+00 2.412045150470102053e-06
0.000000000000000000e+00 -0.000000000000000000e+00 7.960149501557839933e-06
-6.038221721503588586e-06 -1.610192459067628931e-05 7.464899598839423957e-06
9.926146912448504425e-06 -5.757165209220084252e-05 -4.878143856973287645e-07
2.075102930471847413e-06 -3.112654395707577319e-05 -4.686181644589433320e-06
2.057842429244424995e-06 -2.880979400942214051e-05 3.940163004229861909e-06
0.000000000000000000e+00 0.000000000000000000e+00 1.932133800265655089e-05
-1.131067783676421816e-05 -1.508090378235261162e-05 5.663907613713154813e-06
0.000000000000000000e+00 0.000000000000000000e+00 2.590656097149554587e-06
0.000000000000000000e+00 0.000000000000000000e+00 2.760028462793559710e-06
-6.293471013528947255e-06 9.440206520293367096e-06 7.738950051128233281e-06
1.796577750562507647e-05 9.581748002999895320e-05 1.742136000545056335e-06
-6.693646841685338318e-06 1.004047026252795115e-05 8.231037921099155656e-06
3.905723988134904314e-06 2.538720592287584043e-05 3.837321602781188729e-06
-0.000000000000000000e+00 0.000000000000000000e+00 2.185032769395051096e-06
0.000000000000000000e+00 0.000000000000000000e+00 2.273251993535453288e-06
-2.035135332758768784e-06 1.017567666379334502e-05 1.035524742844706406e-06
1.467484581118075337e-19 2.052142034705062626e-06 -7.681815103152099296e-08
3.413093049533309466e-05 -2.874183620659646714e-05 -2.724854795849652371e-05
1.580823010696525276e-05 1.501781860161592336e-04 5.754787510865464546e-06
1.382045989289420998e-05 3.948702826541292033e-06 2.175587445018885172e-05
7.394634719224864113e-06 -1.257087902268218141e-04 6.317667464796574068e-05
7.768878777488898786e-06 -1.165331816623359551e-05 -4.192909575497684183e-06
-2.682646955115310704e-05 -1.031787290428965721e-05 1.684958303482361722e-05
-3.790633085293550515e-06 -4.169696393823027030e-05 -4.029828114204999829e-06
-1.880018072867580395e-06 2.632025302014594426e-05 5.679765830302266412e-06
-4.059026823899567638e-06 5.682637553459662526e-05 2.930313482493679724e-07
7.748145143709006755e-06 6.198516114966943840e-06 8.535389837454336963e-07
0.000000000000000000e+00 0.000000000000000000e+00 -2.412045150470091042e-06
-0.000000000000000000e+00 0.000000000000000000e+00 5.412901661059311232e-06
-0.000000000000000000e+00 -0.000000000000000000e+00 -2.331352594312912196e-06
6.268043809681822509e-20 -3.997995511040297600e-19 5.082197683525802034e-21
1.467484581118075337e-19 1.419627219598207368e-18 1.389134033497052556e-19
-4.127181184909264871e-06 5.778053658873009274e-05 1.632112559486710783e-06
-4.165608883766486756e-04 1.249682665129948954e-03 -4.410644700458440351e-05
-0.000000000000000000e+00 0.000000000000000000e+00 6.323697154190909963e-06
-0.000000000000000000e+00 0.000000000000000000e+00 5.872153820205676603e-06
-1.046085689859060919e-19 -2.018362239356726685e-05 -2.482477620598895679e-07
2.813953676333945370e-05 -4.220930514500905519e-05 2.264706033626945694e-06
9.871905672490012494e-06 5.923143403493703581e-05 3.985715926592954592e-07
-1.421934672264605769e-05 2.132902008396919495e-05 -1.877600101331263781e-05
3.873883846927226148e-06 4.261272231619915390e-05 3.186114094424626049e-06
-9.989945780671246825e-06 -2.854270223049014001e-06 -1.293198099720794067e-06
-1.985229382489492854e-06 -6.948302838713884318e-05 -5.244402753741745757e-07
8.185766560651232254e-06 -3.069662460244272997e-05 -2.570089942204203029e-06
-2.029528899335059254e-06 -7.306304037606021714e-05 -3.261355263369096352e-07
0.000000000000000000e+00 -0.000000000000000000e+00 4.108852490589254546e-07
7.007769111753460716e-05 1.026432064015612121e-03 -2.408003053085955693e-04
7.569231781160131530e-05 3.557538937145255558e-04 -1.857760676171200920e-04
-5.779245195551664318e-06 -1.541132052147114551e-05 -7.985351004156886128e-06
2.827590731019727591e-05 -1.102760385097692388e-03 2.311404214548145691e-05
7.684777712603284110e-06 -1.152716656890523787e-05 -7.318004230865502032e-06
-2.253107639696438902e-19 -1.890207872720830855e-06 -3.077905332851342722e-07
-7.540396811176964051e-06 1.131059521676538509e-05 7.432532846097342215e-06
0.000000000000000000e+00 -0.000000000000000000e+00 8.911104768137177455e-06
-0.000000000000000000e+00 0.000000000000000000e+00 7.757379864144876787e-06
-0.000000000000000000e+00 0.000000000000000000e+00 7.680000000000051830e-06
3.393484385219935700e-05 -1.996167285423492186e-06 -1.888993384109834351e-05
-8.028783335846942639e-06 2.007195833961711689e-05 8.745792328941357153e-06
-1.922764790267261770e-19 8.006726238770703872e-06 2.035934933976043101e-06
1.543717546370962368e-19 -9.520650327138335811e-19 2.375927417048312451e-19
2.012740573834571739e-06 -2.817836803368349867e-05 -6.080736829881307022e-06
-5.333077106784519031e-03 -3.333173191740288616e-04 -7.166857095908797833e-03
0.000000000000000000e+00 0.000000000000000000e+00 1.153144775175999728e-05
0.000000000000000000e+00 0.000000000000000000e+00 1.579861111111100874e-05
0.000000000000000000e+00 0.000000000000000000e+00 -7.163681799250358649e-06
0.000000000000000000e+00 -0.000000000000000000e+00 -2.603924596663419194e-05
5.046382189239366595e-06 1.345701917130493975e-05 -1.975375274076580732e-06
-5.747921373353575249e-06 -1.532779032894290912e-05 -6.507651087853012671e-06
3.245961726974410310e-05 -1.081987242324810608e-05 -5.016486305323785901e-06
-5.625069913866068490e-06 8.437604870799053183e-06 -7.190012492844039301e-06
9.844785052510164288e-06 -3.937914021004012860e-05 -2.550694309059439683e-06
-2.029528899334996573e-06 -7.306304037605997320e-05 -3.261355263370445781e-07
-7.504812787277796260e-05 6.790068712299043385e-05 6.968659177023114849e-05
-3.799709724238037887e-04 -3.924557329462976391e-03 7.709956458635686951e-04
2.099506335657369161e-05 2.309456969223112075e-04 3.614912045044328909e-05
1.772061309451931216e-05 2.165852711552221913e-05 -1.973431912798606210e-05
4.383160284934744621e-04 7.703736258370152187e-04 -7.042710797476504523e-04
2.479913385378068418e-05 7.549958528817692820e-04 -1.353350474371615303e-04
-1.162165154078153275e-05 -2.324330308156208634e-05 2.051811901705350534e-05
-0.000000000000000000e+00 0.000000000000000000e+00 9.299554638516021641e-06
-7.601811607364044670e-06 1.140271741104600559e-05 7.493069115119513994e-06
0.000000000000000000e+00 -0.000000000000000000e+00 8.864265927977848451e-06
0.000000000000000000e+00 -0.000000000000000000e+00 8.040150501567276201e-06
-0.000000000000000000e+00 0.000000000000000000e+00 -8.479999999999976408e-06
0.000000000000000000e+00 0.000000000000000000e+00 1.035377430481364698e-05
-1.926415065183847025e-06 2.696981091257437928e-05 -1.305790061964631131e-05
-2.012740573834445108e-06 2.817836803368352916e-05 -3.713883074875091272e-06
2.023891491141022047e-06 -2.833448087597564274e-05 3.707401231499110971e-06
4.014422133527226955e-06 -5.620190986938016940e-05 -2.414020154626126903e-06
7.477991284256007209e-04 1.378920378657122209e-04 3.162143502233024988e-04
-1.180555555555569080e-05 -3.373015873015975911e-06 -7.173069985569926807e-06
0.000000000000000000e+00 -0.000000000000000000e+00 7.360075900783675184e-07
0.000000000000000000e+00 -0.000000000000000000e+00 8.245510062098968548e-06
-1.942219694372286530e-06 2.719107572121151845e-05 -3.402000325623583972e-06
1.664763587886616360e-06 -2.330669023041642883e-05 -5.697141486995541524e-06
-1.910781450220529932e-06 2.675094030308729876e-05 6.104793462215305378e-06
0.000000000000000000e+00 -0.000000000000000000e+00 -7.528673659445133464e-06
5.583944410172361856e-06 -9.771902717801658235e-06 -3.098044024360869340e-07
-2.541098841762901017e-20 1.985229382490062060e-06 5.058619255382135752e-07
0.000000000000000000e+00 0.000000000000000000e+00 -9.713969142969992228e-06
8.884990360278840777e-05 -4.784225578611678179e-05 -8.499767002001021722e-05
4.401488738838095147e-04 2.617418636695745000e-03 -3.660642079919188105e-04
7.128532176376239601e-05 7.128532176376239601e-05 1.717328206127033608e-05
2.089729400370142444e-04 -1.567297050277594635e-04 -3.266366253029528305e-05
0.000000000000000000e+00 0.000000000000000000e+00 2.646502835538786859e-06
2.269932038943724416e-05 -3.508076787458482942e-05 -2.101645876601075224e-05
2.625802136488331051e-19 2.913793338554793166e-19 -1.423015351387224570e-19
-7.520072291470200454e-06 1.128010843720536040e-05 7.387365133385469694e-06
1.931664152554984511e-06 -2.704329813576941384e-05 -5.758321828030894232e-06
5.220843239470167548e-06 -1.740281079823436899e-06 2.868206571131456689e-06
0.000000000000000000e+00 -0.000000000000000000e+00 5.082197683525802034e-21
0.000000000000000000e+00 -0.000000000000000000e+00 -1.329841727189251532e-19
0.000000000000000000e+00 -0.000000000000000000e+00 -1.495951248017348002e-05
-1.915973791117817476e-06 2.682363307564996813e-05 5.865236346125212330e-06
2.012740573834445108e-06 -2.817836803368352916e-05 3.713883074874923560e-06
2.012740573834445108e-06 -2.817836803368355966e-05 3.686974778433294418e-06
-1.339004094571387426e-04 3.025157398846467678e-04 -9.335900404277406206e-05
1.684511031857778649e-03 2.197188302423189990e-04 2.694688915819462680e-04
0.000000000000000000e+00 -0.000000000000000000e+00 -2.286988957586610915e-20
-2.457270234536612210e-05 -9.451039363602890499e-06 -1.448586578821273367e-05
-0.000000000000000000e+00 0.000000000000000000e+00 4.489274620447791797e-20
7.811447976269735784e-06 -1.171717196440373208e-05 -9.005095708472571193e-06
-0.000000000000000000e+00 0.000000000000000000e+00 -8.635520323831948010e-06
1.915973791117817476e-06 -2.682363307564993764e-05 -6.121382574884364289e-06
0.000000000000000000e+00 0.000000000000000000e+00 2.185032769395051096e-06
0.000000000000000000e+00 0.000000000000000000e+00 2.121701860633003733e-06
6.054948097463203062e-06 1.614652825990242258e-05 8.636126060936264774e-06
3.981396667913173081e-06 -5.573955335078441975e-05 -1.515911458585251930e-06
-2.497098652466801688e-05 -4.994197304933603376e-05 -2.207662217749038885e-05
1.541824965248398546e-05 1.696007461773242771e-04 -2.081463703085357841e-05
-2.827590731019727591e-05 1.102760385097692388e-03 -2.311404214548146030e-05
3.347226917853478220e-05 7.875828042008619322e-06 -9.407297545631315260e-06
-0.000000000000000000e+00 0.000000000000000000e+00 -1.939705449212347776e-19
-1.146468870132305762e-05 -3.057250320352823496e-05 3.215630600986198987e-06
-3.770198405588360900e-06 -4.147218246147318200e-05 -4.008103973427969872e-06
7.520072291470200454e-06 -1.128010843720542138e-05 1.912189505130559147e-06
-1.931664152554984511e-06 2.704329813576941384e-05 5.758321828030894232e-06
0.000000000000000000e+00 -0.000000000000000000e+00 8.080604025150838640e-06
0.000000000000000000e+00 -0.000000000000000000e+00 7.999999999999981003e-06
0.000000000000000000e+00 0.000000000000000000e+00 5.412901661059310385e-06
-1.990683309364644222e-05 5.972049928093904205e-06 -3.182964221924983246e-07
3.176373552203626272e-19 2.710505431213761085e-20 8.597384414631148442e-20
2.018316032487942159e-06 7.265937716956161142e-05 -8.040884728371952535e-08
4.003363119385009735e-06 4.403699431323714335e-05 3.560210089592202966e-06
1.317349098252018711e-03 -1.904601105906572264e-04 2.098880603741713269e-04
0.000000000000000000e+00 0.000000000000000000e+00 6.323697154190909963e-06
0.000000000000000000e+00 0.000000000000000000e+00 5.872153820205677450e-06
-2.929579809202813697e-05 1.883301305916097181e-05 3.809125160628860430e-05
-3.612044453981193328e-06 -2.528431117787159404e-05 -2.326581574770509196e-06
-5.046382189239366595e-06 -1.345701917130493975e-05 1.975375274076580732e-06
5.747921373353575249e-06 1.532779032894290912e-05 6.507651087853011824e-06
3.133139681440760165e-05 -8.224491663781921741e-05 1.289488036004711695e-05
0.000000000000000000e+00 -0.000000000000000000e+00 -5.254483878562224482e-06
1.729074985335761117e-05 -4.995105513192257661e-05 4.412582924550271780e-07
2.007195833961703896e-06 -2.810074167546385454e-05 4.132998694475535935e-06
-2.045028912006337249e-05 -1.397436423204320927e-04 2.444101176073887590e-05
0.000000000000000000e+00 0.000000000000000000e+00 -4.108852490589271487e-07
2.357671057804948313e-04 1.355660858237836986e-03 -3.818134807315528168e-04
-1.872778908618474966e-04 1.000234189830320129e-04 1.292201514214199850e-05
5.779245195551663471e-06 1.541132052147114551e-05 7.985351004156887822e-06
-1.694350760196208349e-04 1.143686763132432341e-03 -2.518444008948854135e-04
-4.309280119156252975e-20 -8.233160247311799296e-19 -3.324604317973128831e-20
3.709795669666633457e-06 -5.193713937533490975e-05 -2.007654127113784473e-06
7.540396811176964051e-06 -1.131059521676538509e-05 1.892155723874199696e-06
0.000000000000000000e+00 -0.000000000000000000e+00 -8.198216386686252183e-06
0.000000000000000000e+00 -0.000000000000000000e+00 -7.434155703138732822e-06
0.000000000000000000e+00 -0.000000000000000000e+00 -7.359999999999997295e-06
2.201849715661869365e-05 -1.000840779846291058e-05 -7.697375452272473223e-06
1.158998491532953776e-05 3.090662644087930494e-05 -4.387046874813528647e-06
-1.990683309364556384e-06 2.786956633110495066e-05 5.987485707765382135e-06
9.871905672489655046e-06 5.923143403493707647e-05 1.190435684035568103e-06
1.990683309364556384e-06 -2.786956633110492017e-05 3.646569880335883673e-06
-1.785032080737932977e-04 -5.689789757352106594e-04 1.091303703905680770e-04
-5.112572280015129920e-06 -1.192933532003716916e-05 -5.981071635248493126e-06
-7.419537723371187211e-06 1.112930658505696123e-05 -9.995545673584300514e-06
9.317362419797303730e-20 -1.812650507124202726e-19 -2.964615315390051187e-21
1.864897284077766373e-05 -7.459589136311089888e-05 -1.515852337859897649e-06
1.873773989418410610e-04 1.873773989418414676e-04 -7.591540207129080626e-05
-1.295960409299079519e-19 1.389134033497052556e-19 -2.117582368135750848e-20
-0.000000000000000000e+00 0.000000000000000000e+00 7.250829695398736455e-06
-0.000000000000000000e+00 0.000000000000000000e+00 0.000000000000000000e+00
-1.880413142904546753e-19 2.507217523872729004e-19 -8.046812998915853221e-20
0.000000000000000000e+00 -0.000000000000000000e+00 -9.713969142969992228e-06
0.000000000000000000e+00 -0.000000000000000000e+00 8.458839156495196176e-06
1.541824965248398207e-05 1.696007461773242771e-04 -2.081463703085357841e-05
-3.874427051803193926e-05 1.291475683934420902e-05 2.819146386000072164e-05
-3.959550911229288939e-06 -4.355506002352405281e-05 2.471966690542608760e-05
-1.310250512823590288e-04 -3.708256168368648855e-05 4.148719002199815998e-04
1.910781450220529932e-06 -2.675094030308729876e-05 -5.619434537693990360e-06
-3.770198405588603151e-06 -4.147218246147318200e-05 -4.008103973427841970e-06
1.840018975195626993e-06 -2.576026565273979011e-05 3.591972871097078481e-06
7.601811607364044670e-06 -1.140271741104600559e-05 -7.493069115119512300e-06
0.000000000000000000e+00 0.000000000000000000e+00 8.864265927977801017e-06
0.000000000000000000e+00 -0.000000000000000000e+00 1.101142831430590441e-20
0.000000000000000000e+00 0.000000000000000000e+00 -7.960149501557816216e-06
1.397317099796439279e-05 -1.397317099796447918e-05 -1.319231732454868554e-05
1.885112972794100847e-05 -7.540451891176251599e-05 4.334751755620711667e-07
-3.992364869057061675e-06 5.589310816680119449e-05 2.294008583851156602e-06
-8.942626272932582420e-05 -1.356812262100111626e-04 -2.599594908346816513e-05
0.000000000000000000e+00 -0.000000000000000000e+00 -1.932133800265655428e-05
-1.017047974012429503e-04 -4.830977876558886861e-04 9.421630580114186246e-05
0.000000000000000000e+00 0.000000000000000000e+00 -8.635520323832017467e-06
0.000000000000000000e+00 -0.000000000000000000e+00 -7.115076756936122848e-20
-0.000000000000000000e+00 0.000000000000000000e+00 4.489274620447791797e-20
-4.545164780940812209e-05 1.515054926980266445e-05 -3.489892565758105267e-05
6.624640633968618995e-06 -9.936960950952928068e-06 4.003125088975676290e-07
-1.897353801849632760e-19 3.794707603699265519e-19 1.567010952420455627e-20
0.000000000000000000e+00 -0.000000000000000000e+00 -6.606856988583542645e-20
5.570325033562128670e-06 -8.355487550343193852e-06 1.131937707354601665e-07
-1.974351413270458399e-06 2.764091978578816925e-05 5.542437296237387180e-06
-1.974381134498225268e-06 -7.107772084192478992e-05 -3.172735459448845523e-07
1.798420316816367489e-05 -6.539710242968649016e-06 -4.934945784283086909e-06
0.000000000000000000e+00 0.000000000000000000e+00 2.054426245295273390e-05
-1.382045989289420998e-05 -3.948702826541292033e-06 -2.175587445018885510e-05
3.310844016572491577e-05 7.790221215465135390e-06 -9.305044311439737335e-06
-5.701358705523033291e-06 -1.520362321472796737e-05 -7.852325853515603198e-06
-6.277720001649711109e-05 9.625837335862927682e-05 -5.628630610035249935e-05
-9.053934571176103214e-06 -5.432360742705608396e-05 -2.326425433930641569e-06
7.340396553454503210e-06 -1.101059483018175481e-05 1.106653100712638767e-05
-1.931664152554984511e-06 2.704329813576941384e-05 5.758321828030894232e-06
-4.567474920009767530e-06 -1.217993312002610039e-05 -6.555262801864218187e-06
0.000000000000000000e+00 0.000000000000000000e+00 8.040150501567266036e-06
0.000000000000000000e+00 0.000000000000000000e+00 7.960149501557795888e-06
-1.974351413270458399e-06 2.764091978578806083e-05 5.911968309416089290e-06
-9.579868955589332174e-06 3.831947582235705765e-05 4.505612163871952526e-06
1.947526305558935879e-06 -2.726536827782695985e-05 -5.909752952349848487e-06
7.876005397561523181e-06 8.663605937317346681e-05 -2.551278219022681329e-06
-5.773014365607157401e-05 5.995053379668967107e-05 4.590626931367671024e-05
-1.477168410837468154e-05 -2.110240586909896540e-06 -1.848266066990178561e-05
0.000000000000000000e+00 -0.000000000000000000e+00 1.151964808265848461e-19
1.869937547008220901e-06 -2.617912565810801142e-05 -5.924302137565440861e-06
6.293471013528947255e-06 -9.440206520293473823e-06 -7.738950051128229893e-06
5.640054218602620059e-06 1.504014458294064316e-05 8.774255471097545099e-06
-3.075552619623220252e-05 3.417280688470282558e-06 -3.305990638241309003e-05
-5.655297608382723038e-06 -1.508079362235392810e-05 -6.377582944640653901e-06
0.000000000000000000e+00 0.000000000000000000e+00 -7.765293989177102848e-06
-7.479641795279567062e-06 1.121946269291935059e-05 -2.901861028061692575e-06
-3.959580795760007157e-06 5.543413114064360352e-05 1.454669522292438974e-06
-1.947555303866352034e-06 -7.011199093918087035e-05 -3.129627640704889028e-07
2.330663633246719103e-05 3.690217419307295025e-05 5.476020917972239626e-05
2.201849715661853102e-05 1.901597481707969562e-04 -8.126773611454626411e-05
-9.855790397217860453e-05 -8.718583812923369914e-05 1.454043285052306327e-04
-5.779245195551663471e-06 -1.541132052147114551e-05 -7.985351004156886128e-06
0.000000000000000000e+00 0.000000000000000000e+00 -1.931235119739804773e-19
-2.280636210482203663e-19 -9.249691074770816914e-05 3.338792232871728932e-06
-3.554836680661455130e-06 4.976771352926141875e-05 1.971318522912374907e-06
-7.520072291470200454e-06 1.128010843720542138e-05 7.412499064841030622e-06
-0.000000000000000000e+00 -0.000000000000000000e+00 6.733911930671687696e-20
0.000000000000000000e+00 0.000000000000000000e+00 8.080604025150770877e-06
0.000000000000000000e+00 0.000000000000000000e+00 7.999999999999981003e-06
7.103134329244201769e-05 -8.589836863271999457e-05 -3.127419676972871087e-05
1.974351413270458399e-06 -2.764091978578806083e-05 -5.911968309416089290e-06
-2.871441691192078149e-19 -9.486769009248163798e-20 4.260575724689130706e-19
1.958197682575614799e-06 -2.741476755606047066e-05 -5.942135160308170805e-06
-3.852858580705639520e-06 5.394002012988152826e-05 2.342620431156528219e-06
-4.477297732068889324e-05 1.444946086258604872e-04 4.675152065488904167e-05
1.477168410837468324e-05 2.110240586909896540e-06 1.848266066990178561e-05
0.000000000000000000e+00 0.000000000000000000e+00 0.000000000000000000e+00
1.109800517808007450e-05 3.170858622308515694e-06 -1.650287782974361736e-06
7.053445890546663536e-06 -1.058016883581993686e-05 5.676703778220515019e-07
9.089217997741581690e-06 -1.272490519683829805e-04 -3.219867627060840707e-05
1.890207872720685588e-06 -2.646291021808723078e-05 -6.039062532389682113e-06
-1.109946930198719627e-05 -2.959858480529910986e-05 2.428330418501534942e-05
-0.000000000000000000e+00 0.000000000000000000e+00 8.724439356719293492e-20
-6.776263578034402713e-21 2.591920818598159038e-19 6.268043809681822509e-20
-1.198855571261667067e-03 8.742324809200349841e-04 1.306493211080807064e-04
0.000000000000000000e+00 -0.000000000000000000e+00 8.458839156495152130e-06
-4.355538875336258933e-05 1.583832318304128224e-05 -6.881624378054661175e-09
-1.281143878462920735e-05 -3.660411081323013046e-06 8.022074713385067839e-06
-5.998997493734102050e-06 8.998496240601254719e-06 6.093634085213111227e-06
-1.100924857830933056e-04 -1.080908042234004026e-04 1.363878378443919765e-04
-1.910781450220529932e-06 2.675094030308729876e-05 5.619434537693990360e-06
5.490616621983953751e-06 1.464164432529099847e-05 7.562076529368665873e-06
-0.000000000000000000e+00 0.000000000000000000e+00 0.000000000000000000e+00
-1.211257114573649485e-19 -5.421010862427522170e-20 -9.190307477709158679e-20
0.000000000000000000e+00 0.000000000000000000e+00 8.864265927977846757e-06
0.000000000000000000e+00 -0.000000000000000000e+00 8.040150501567198274e-06
0.000000000000000000e+00 -0.000000000000000000e+00 7.960149501557904308e-06
-1.958226999545630619e-06 -7.049617198364253455e-05 2.565591523463594584e-08
8.958125739734745311e-06 -3.583250295894035682e-05 1.372701032471147443e-05
-1.931664152554984511e-06 2.704329813576934947e-05 -3.615930677015074408e-06
-8.828667473104580363e-05 9.155655157293630714e-05 -1.953856328864147845e-04
1.931664152554861267e-06 -2.704329813576934947e-05 3.564281902882776581e-06
-7.416772018541879807e-05 7.911223486444681732e-05 5.653536930996577378e-05
1.180555555555569080e-05 3.373015873015975911e-06 7.173069985570008122e-06
7.419537723371187211e-06 -1.112930658505696123e-05 7.707193597671947049e-07
-0.000000000000000000e+00 -0.000000000000000000e+00 -8.245510062098912644e-06
1.483918267866725381e-05 -2.225877401800052072e-05 1.144680268127187314e-06
-2.918453512264389918e-06 4.085834917169859504e-05 2.691375979625518137e-06
1.890207872720391668e-06 -2.646291021808760686e-05 -6.039062532389687195e-06
0.000000000000000000e+00 -0.000000000000000000e+00 -8.809142651444723526e-20
-0.000000000000000000e+00 0.000000000000000000e+00 -7.689350249903719641e-06
-9.764309970337088838e-06 3.905723988134860607e-05 2.529843946860005966e-06
-3.739430586705964785e-05 1.359792940620363013e-05 -1.298084155367249578e-04
0.000000000000000000e+00 -0.000000000000000000e+00 -2.286988957586610915e-20
1.900452901841011167e-06 -2.660634062577403564e-05 -5.487430718444057883e-06
-1.068027445436664372e-04 -4.207380845659584661e-05 -4.117643002448025141e-05
-3.065558065788557429e-05 -2.490765928453211932e-05 -4.465243518219666024e-05
-5.732344350661590642e-06 -1.528625160176411748e-05 -7.895001537502084469e-06
1.910781450220529932e-06 -2.675094030308729876e-05 -5.619434537693990360e-06
1.758721047708593460e-06 6.331395771751383689e-05 3.766672618218374900e-07
-1.782120505252209782e-06 2.494968707353146254e-05 5.479305799437560877e-06
-1.864883807828536659e-06 2.610837330959800466e-05 5.609111752476711487e-06
-9.706049847914721034e-05 -2.309370481055567439e-04 7.178950994371813862e-05
0.000000000000000000e+00 0.000000000000000000e+00 8.040150501567194886e-06
0.000000000000000000e+00 0.000000000000000000e+00 7.960149501557751842e-06
1.942219694372162863e-06 -2.719107572121160993e-05 3.687620868913532612e-06
-7.072105800309922884e-06 1.060815870046505754e-05 -1.278273668719076645e-06
1.942219694372286530e-06 -2.719107572121157943e-05 -5.893650083270001367e-06
-1.131076001256964615e-05 6.409430673789392801e-05 1.156278229449115883e-06
-2.696981091257422681e-05 9.632075325919418508e-06 -3.579423414699456178e-05
1.515719308770357163e-03 7.698258594544168595e-03 -1.488171440950522995e-03
0.000000000000000000e+00 -0.000000000000000000e+00 -1.846531825014374739e-19
-0.000000000000000000e+00 0.000000000000000000e+00 -1.905824131322175763e-19
6.245712938176988704e-06 -9.368569407265589781e-06 5.444124111886381020e-07
0.000000000000000000e+00 -0.000000000000000000e+00 -1.859910927703210088e-05
-6.624640633968618995e-06 9.936960950952928068e-06 -4.003125088975672055e-07
-5.685949627940507884e-06 -1.516253234117468825e-05 -6.412149789868922042e-06
-0.000000000000000000e+00 0.000000000000000000e+00 -7.842368395255314677e-06
-5.570325033562128670e-06 8.355487550343193852e-06 -7.746326336779966239e-06
-2.919207377775369090e-04 -1.258279042144558194e-04 5.061060729337659965e-04
-2.293341704691018168e-19 -1.050320854595332420e-19 5.248957295016492414e-20
-1.098758678729236469e-04 3.995486104469935765e-05 -4.391651727573869625e-06
1.900452901841011167e-06 -2.660634062577403564e-05 3.887798168980014993e-06
-5.998997493734205388e-06 8.998496240601256413e-06 6.053533834586524849e-06
-3.831947582235512980e-06 -4.215142340459272140e-05 -4.099364245060173097e-06
1.880018072867459693e-06 -2.632025302014576130e-05 -5.528962241569746185e-06
-1.069272303151349290e-05 -2.851392808403593928e-05 -1.491739693514166806e-05
-3.006966962752766204e-20 1.297654475193588119e-18 -9.052664623780334874e-20
1.456365911935374091e-05 -2.184548867903061305e-05 3.751894535159715475e-06
5.594651423485368150e-06 1.491907046262738695e-05 7.456044807074774236e-06
0.000000000000000000e+00 -0.000000000000000000e+00 8.080604025150860662e-06
0.000000000000000000e+00 -0.000000000000000000e+00 8.000000000000013191e-06
0.000000000000000000e+00 -0.000000000000000000e+00 7.920596024850878479e-06
0.000000000000000000e+00 0.000000000000000000e+00 1.900674888075450130e-05
0.000000000000000000e+00 -0.000000000000000000e+00 -9.299554638516616258e-06
3.873883846927013543e-06 4.261272231619956047e-05 3.548643331436397678e-06
-1.900452901841011167e-06 2.660634062577397466e-05 -3.532098427993716966e-06
1.782120505252211265e-06 -2.494968707353146254e-05 2.130015206023598757e-05
2.959858480529910986e-05 2.404885015430551257e-05 3.804189768341393495e-05
-0.000000000000000000e+00 0.000000000000000000e+00 -8.635520323831936151e-06
-4.076811655321028652e-05 0.000000000000000000e+00 -4.087712221244792545e-06
4.710020427765461952e-05 -7.065030641648209530e-05 3.948105358568102142e-06
-8.733635076403177820e-06 -2.328969353707503582e-05 -1.132803843733517368e-05
-7.301247771835835426e-06 1.095187165775393144e-05 -4.167958286862649095e-07
-6.691560283308972679e-20 -1.355252715606880543e-19 -6.352747104407252543e-20
-0.000000000000000000e+00 0.000000000000000000e+00 2.159934015498465865e-20
7.479641795279567062e-06 -1.121946269291935059e-05 2.901861028061693846e-06
-1.089827124008718360e-04 1.431414730041308757e-04 -4.291373706039759960e-06
0.000000000000000000e+00 0.000000000000000000e+00 -8.458839156495070815e-06
-3.760063463637961846e-06 5.264088849093146669e-05 1.557309707266257881e-06
-1.885126668761671220e-06 -6.786456007541688421e-05 -2.777285546759863780e-07
0.000000000000000000e+00 -0.000000000000000000e+00 7.999999999999970839e-06
1.869910448819771487e-06 -2.617874628347824416e-05 -5.499236638120466648e-06
0.000000000000000000e+00 0.000000000000000000e+00 -9.299554638515972513e-06
-2.673180757878384660e-05 1.782120505252250567e-05 -4.048606115742309106e-05
1.749464621141817275e-06 -2.449250469598630920e-05 3.461975310446675270e-06
-1.869910448820012468e-06 2.617874628347830515e-05 5.624230652078957122e-06
-5.248393863425683064e-06 -1.399571696913502948e-05 -7.158304036719985164e-06
0.000000000000000000e+00 -0.000000000000000000e+00 8.040150501567193192e-06
0.000000000000000000e+00 -0.000000000000000000e+00 7.960149501557817911e-06
1.301918883534935880e-05 3.719768238671858622e-06 -9.842964271125717606e-06
3.233479444729803263e-05 8.622611852612805088e-05 -1.238347698217801481e-05
0.000000000000000000e+00 -0.000000000000000000e+00 0.000000000000000000e+00
-7.520126927275923693e-06 -8.272139620003492091e-05 2.360595992679483234e-06
-3.831975878371409404e-06 5.364766229719936574e-05 2.329923301448318503e-06
0.000000000000000000e+00 0.000000000000000000e+00 8.287525331986623494e-06
0.000000000000000000e+00 0.000000000000000000e+00 -1.859910927703231772e-05
0.000000000000000000e+00 0.000000000000000000e+00 -9.102222222222135451e-06
-4.708123302633537349e-06 -1.255499547368957467e-05 -6.022789105409983359e-06
7.053445890546662689e-06 -1.058016883581993517e-05 5.676703778220515019e-07
4.334523987378198988e-06 1.155873063300822514e-05 5.622132583628738221e-06
-1.885099202794241013e-06 2.639138883911925390e-05 6.022740741761632794e-06
-8.544482283478468726e-05 3.107084466719411140e-05 9.842562358143702993e-06
5.666600261194812581e-06 -8.499900391792219719e-06 1.530285097274823257e-07
9.451039363602731257e-06 -3.780415745441107411e-05 -2.473948539296028845e-06
7.836259551062695517e-05 2.535260442990844456e-05 -9.434755434162424943e-05
0.000000000000000000e+00 -0.000000000000000000e+00 4.573977915173221831e-20
1.895316542646836032e-06 -2.653443159705570572e-05 -5.472599824610414418e-06
3.460008825963096162e-05 9.885739502751781974e-06 2.982902948891672387e-06
4.544608998870832350e-05 -3.029739332580562241e-05 1.207035188648546660e-06
-0.000000000000000000e+00 0.000000000000000000e+00 -3.231430693775155794e-19
-3.770225945587910653e-06 5.278316323823390349e-05 1.788337119645051551e-06
5.248466748674534577e-06 1.399591132979838957e-05 -1.542263357431400652e-06
-3.508185668850441228e-06 4.911459936390790852e-05 -6.942267950578353674e-06
-2.193815333388637878e-19 4.912791094074941967e-19 -1.312901068244165526e-20
-5.179877724502310265e-06 -1.381300726533962731e-05 -7.064854618365370440e-06
-0.000000000000000000e+00 0.000000000000000000e+00 -8.040150501567198274e-06
0.000000000000000000e+00 -0.000000000000000000e+00 -6.860966872759832746e-20
-7.479641795279567062e-06 1.121946269291927605e-05 7.797626566790293295e-06
6.942853651788907592e-06 -1.041428047768339019e-05 1.278116240442895031e-06
0.000000000000000000e+00 0.000000000000000000e+00 1.859910927703239565e-05
-1.044588528678288587e-05 -2.984538653366575425e-06 -7.065137157107239795e-06
3.739848068672375230e-06 -5.235787296141011581e-05 -4.642911381725131756e-05
0.000000000000000000e+00 0.000000000000000000e+00 8.287525331986554038e-06
0.000000000000000000e+00 0.000000000000000000e+00 -8.635520323832017467e-06
0.000000000000000000e+00 0.000000000000000000e+00 9.200094875978445403e-06
9.321253400158560713e-06 -5.282043593423091908e-05 -2.053666524526724086e-06
1.468089806342809700e-05 -2.202134709514179059e-05 1.132470345267174583e-06
-5.779365316504265883e-06 8.669047974756397977e-06 7.435138026834320522e-06
-3.699823100662239231e-06 -4.069805410728630782e-05 -3.042956111667594583e-06
5.836871084974007953e-06 -8.755306627461165666e-06 2.161515094301359380e-07
5.611316686692803208e-06 -8.416975030039204389e-06 1.327811568910435745e-07
1.153630703733939068e-04 -3.917991069285126147e-05 -2.351260237657724293e-05
-1.895344307157179440e-06 -6.823239505766181580e-05 -3.045727081821193991e-07
-0.000000000000000000e+00 0.000000000000000000e+00 -8.458839156495048792e-06
8.396214089658252111e-20 -2.981555974335137194e-19 1.393369198233324058e-19
0.000000000000000000e+00 -0.000000000000000000e+00 8.000000000000147022e-06
-1.880045464802504386e-06 -6.768163673289609558e-05 -2.267113648733362001e-07
-1.880018072867459269e-06 2.632025302014576130e-05 5.528962241569746185e-06
-3.517515560654319719e-06 4.924521784916486200e-05 1.856571047254688878e-06
1.199195650281917879e-05 8.908310544951522289e-05 -2.676432461649378046e-06
1.782120505252210418e-06 -2.494968707353145915e-05 -5.479305799437560030e-06
-5.594651423485368150e-06 -1.491907046262738695e-05 -7.456044807074774236e-06
0.000000000000000000e+00 -0.000000000000000000e+00 8.080604025150831863e-06
0.000000000000000000e+00 -0.000000000000000000e+00 8.000000000000075871e-06
0.000000000000000000e+00 -0.000000000000000000e+00 7.920596024850900502e-06
1.910809593404089383e-05 1.910809593404139188e-05 6.570323896036695881e-06
7.072105800309922884e-06 -1.060815870046505754e-05 1.278273668719075798e-06
1.869910448820012256e-06 -2.617874628347830515e-05 3.525331169687008341e-06
-1.131076001256964446e-05 6.409430673789392801e-05 1.156278229449115883e-06
-1.864883807828536236e-06 2.610837330959794368e-05 4.976995922748204216e-05
3.950502045240701589e-05 4.465784920706908812e-05 1.856763516497056675e-05
0.000000000000000000e+00 -0.000000000000000000e+00 1.160435137738391465e-19
0.000000000000000000e+00 0.000000000000000000e+00 -9.200094875978599563e-06
6.245712938176988704e-06 -9.368569407265589781e-06 5.444124111886381020e-07
3.014628413216706977e-06 -4.220479778502223911e-05 -1.067936145633665380e-05
1.840752881463453955e-05 -6.693646841685338318e-06 -1.037560004089845839e-05
3.689930525526764396e-06 4.058923578079569246e-05 3.034819865379716506e-06
5.779365316504163392e-06 -8.669047974756194689e-06 1.947058903421771649e-07
9.126559714794942301e-06 -3.650623885917976920e-05 -2.413413785543419045e-06
8.539589046019346039e-05 6.958183667126876257e-05 7.135520944107477757e-05
7.459535231313785801e-06 -1.118930284697049574e-05 -1.577970935362023842e-05
3.739848068671892422e-06 -5.235787296141011581e-05 -1.548937074431421328e-06
-1.854911167144579818e-06 -6.677680201721682509e-05 -2.732770195444279472e-07
0.000000000000000000e+00 0.000000000000000000e+00 8.893845946170153560e-20
-3.629536178984676953e-19 -7.775762455794477113e-19 1.257843926672636004e-19
-5.640054218602620059e-06 -1.504014458294064316e-05 -7.767892855621045202e-06
-5.179877724502310265e-06 -1.381300726533956971e-05 -7.295686959029535301e-06
6.659054351547599616e-06 -9.988581527322200294e-06 -6.786359802385806168e-06
3.621548211860533431e-06 -5.070167496604817615e-05 -1.935688469387498458e-06
1.227856435946555435e-05 3.508161245561529116e-06 -2.016723710691152978e-08
0.000000000000000000e+00 0.000000000000000000e+00 8.080604025150926731e-06
0.000000000000000000e+00 0.000000000000000000e+00 8.000000000000075871e-06
-0.000000000000000000e+00 0.000000000000000000e+00 -7.920596024850878479e-06
-3.760036145735160790e-06 -4.136039760308646545e-05 2.440404208598306022e-05
-3.729794568155340809e-06 5.221712395417777152e-05 2.217931315395065234e-06
1.874964260843636977e-06 6.749871339037392460e-05 -4.963140690447916502e-08
-3.554836680661687641e-06 4.976771352926141875e-05 2.303990404792560903e-06
0.000000000000000000e+00 0.000000000000000000e+00 8.329862557267772615e-06
-1.053845815171923158e-04 5.971792952640908288e-04 -7.352500036689703562e-05
-0.000000000000000000e+00 -0.000000000000000000e+00 2.286988957586610915e-20
1.577381446630665666e-05 1.577381446630673459e-05 4.390518946370266528e-06
0.000000000000000000e+00 0.000000000000000000e+00 8.725944003981216755e-06
0.000000000000000000e+00 -0.000000000000000000e+00 7.803688462124738518e-06
7.301247771835835426e-06 -1.095187165775393144e-05 4.167958286862649095e-07
2.045872531269179025e-05 -7.439536477342699958e-06 6.942738553487918951e-06
0.000000000000000000e+00 -0.000000000000000000e+00 1.092672501958047437e-19
7.479641795279567909e-06 -1.121946269291935059e-05 2.901861028061693422e-06
9.321253400158230370e-06 2.485667573375591795e-05 1.449945058760840116e-05
0.000000000000000000e+00 -0.000000000000000000e+00 0.000000000000000000e+00
1.854884430842707017e-06 -2.596838203179969480e-05 3.844173589160911895e-06
-1.621039562052038193e-05 -4.322772165472116756e-05 3.896563011456506570e-06
0.000000000000000000e+00 -0.000000000000000000e+00 4.404571325722361763e-20
2.328281813765258057e-19 -4.269046054161673709e-19 3.648594420297898711e-19
-5.432283687943325634e-06 -1.448608983451545540e-05 -7.554360283688018675e-06
-6.888423780228257860e-06 1.033263567034244439e-05 6.835931780833515717e-06
4.994290763660646984e-06 -6.992007069124877487e-05 9.949855743325327874e-06
3.583224950359296484e-06 -5.016514930503085466e-05 -1.915204993521267997e-06
-5.207140238841651895e-06 -1.388570730357787278e-05 -7.102038063725352053e-06
-0.000000000000000000e+00 0.000000000000000000e+00 0.000000000000000000e+00
0.000000000000000000e+00 -0.000000000000000000e+00 -6.691560283308972679e-20
-1.301918883534936049e-05 -3.719768238671856928e-06 9.842964271125717606e-06
-5.139339674152281062e-06 -1.370490579773936873e-05 -6.757636204346227193e-06
-5.461411214420323314e-06 7.645975700188232919e-05 -1.036937995550768318e-05
-3.022145905406419763e-06 4.231004267568998087e-05 1.038276811191634817e-05
0.000000000000000000e+00 -0.000000000000000000e+00 -1.647479082409614159e-19
0.000000000000000000e+00 -0.000000000000000000e+00 -6.776263578034402713e-20
-2.774879549639051347e-06 1.426288088514206112e-03 -2.086360706518464603e-04
-0.000000000000000000e+00 0.000000000000000000e+00 9.102222222222135451e-06
-1.488547956791216145e-06 2.083967139507816952e-05 5.253300663553077502e-06
-7.053445890546662689e-06 1.058016883581993517e-05 -5.676703778220506549e-07
0.000000000000000000e+00 -0.000000000000000000e+00 7.803688462124728353e-06
3.689930525526728821e-06 4.058923578079607871e-05 3.034819865379735141e-06
-5.880502061130227531e-06 8.820753091695238382e-06 -8.138363280323209639e-06
0.000000000000000000e+00 0.000000000000000000e+00 -7.689350249903741664e-06
3.689930525526816912e-06 4.058923578079561115e-05 4.243420104355648782e-06
9.321253400158230370e-06 2.485667573375591795e-05 1.449945058760840116e-05
-0.000000000000000000e+00 0.000000000000000000e+00 1.600892270310627641e-19
1.196434037996699229e-20 -4.370690007832189750e-19 3.494010907423988899e-20
4.328004307546244643e-05 1.236572659298941489e-05 3.648550613733558475e-06
1.061784844479449338e-04 -3.122896601410478145e-06 2.038149281920340471e-05
1.835099138363625802e-06 -2.569138793709076123e-05 3.729569131203614632e-06
1.074959921785168525e-05 2.866559791427112115e-05 -3.062965124730211280e-06
5.086013462977095714e-06 1.356270256793787328e-05 -1.517191360123455534e-06
3.269876841890495032e-06 -4.577827578646826199e-05 -1.944440132718061873e-06
-1.854884430842946304e-06 2.596838203179975579e-05 5.579036086243302701e-06
-4.183998377602601203e-05 -3.409183863231750333e-05 -4.734655323912232032e-06
0.000000000000000000e+00 -0.000000000000000000e+00 7.999999999999981003e-06
0.000000000000000000e+00 0.000000000000000000e+00 7.960149501557885673e-06
-7.520072291470321580e-06 1.128010843720540614e-05 -1.484912670387967743e-06
6.942853651788907592e-06 -1.041428047768339019e-05 1.278116240442895031e-06
-8.887154230442639513e-06 1.244201592261978239e-04 -1.687371181560792411e-05
-1.514860102960658393e-06 2.120804144144926875e-05 2.132509881304094388e-05
1.782120505252209782e-06 -2.494968707353146254e-05 2.130015206023598418e-05
6.244775659373438814e-04 4.908684122949368532e-03 -5.919256729187370985e-04
-0.000000000000000000e+00 0.000000000000000000e+00 1.160435137738391465e-19
3.611916298261306412e-06 -5.056682817565593926e-05 -2.437560624815602160e-06
-4.443426736690452227e-06 -1.184913796450821707e-05 -5.783187222450074749e-06
1.468089806342809530e-05 -2.202134709514179059e-05 1.132470345267174583e-06
-7.517823343902021392e-06 1.052495268146419265e-04 2.663198970143639132e-05
3.660411081322531931e-06 4.026452189454882364e-05 3.010541306456615910e-06
0.000000000000000000e+00 0.000000000000000000e+00 -7.842368395255314677e-06
-5.611316686692803208e-06 8.416975030039204389e-06 -7.803331039435712840e-06
-4.567474920009767530e-06 -1.217993312002604618e-05 -7.186241957480494221e-06
-1.479939877442522931e-05 2.219909816163748821e-05 -1.469453672428517598e-05
0.000000000000000000e+00 0.000000000000000000e+00 8.502497608672646777e-06
-8.036225087075174467e-20 -4.540096597283049817e-19 -1.056673601699739673e-19
0.000000000000000000e+00 0.000000000000000000e+00 7.999999999999992862e-06
-3.719768238671014978e-06 -4.091745062538414292e-05 -4.004221103981293310e-06
1.825311942958988503e-06 -2.555436720142584115e-05 3.709678095837348483e-06
5.179877724502310265e-06 1.381300726533956971e-05 7.295686959029535301e-06
2.303929616531696922e-19 5.488773498207866197e-19 -8.046812998915853221e-20
-3.438953765852459377e-19 -1.700842158086635081e-18 5.522654816098038211e-19
6.098637220230962441e-20 8.809142651444723526e-20 3.726944967918921492e-20
0.000000000000000000e+00 0.000000000000000000e+00 8.080604025150899626e-06
0.000000000000000000e+00 0.000000000000000000e+00 8.000000000000003026e-06
0.000000000000000000e+00 -0.000000000000000000e+00 -6.564505341220827628e-20
1.612439882677752873e-05 4.299839687140672746e-05 2.091429377237911382e-05
7.072105800309923731e-06 -1.060815870046505924e-05 1.278273668719075798e-06
-8.981950542234164896e-06 1.257473075912776174e-04 -1.705369807497436941e-05
1.019851657940663422e-05 2.719604421175094778e-05 4.365728621291419076e-06
-2.002574560527840418e-05 9.830820569864051552e-05 -3.145025336794269109e-06
-7.404304211410135932e-05 -9.670927949597017616e-05 -2.074667777756709035e-05
-0.000000000000000000e+00 0.000000000000000000e+00 -8.635520323831948010e-06
4.076811655321028652e-05 0.000000000000000000e+00 4.087712221244792545e-06
-5.909831248467447415e-06 8.864746872701070326e-06 7.405461001588736985e-06
-1.013892368334745383e-05 -2.896835338099344703e-06 -6.063603059976083538e-06
0.000000000000000000e+00 0.000000000000000000e+00 -9.005903088039733271e-06
3.631205673758898530e-06 3.994326241134750732e-05 2.986521030075455775e-06
-0.000000000000000000e+00 0.000000000000000000e+00 -6.564505341220827628e-20
-9.126559714794942301e-06 3.650623885917976920e-05 2.413413785543419045e-06
0.000000000000000000e+00 -0.000000000000000000e+00 8.080604025150860662e-06
-6.489447886213741491e-06 9.734171829320502123e-06 6.092966912416934372e-06
1.796364762912367076e-06 -2.514910668077173256e-05 -5.282945461837609190e-06
-2.360283687943259671e-05 -3.268085106382999063e-05 -7.627959191413503218e-06
0.000000000000000000e+00 -0.000000000000000000e+00 7.960149501557809440e-06
-1.820470404806575668e-06 -6.553693457304226363e-05 -2.195273135208282258e-07
5.432283687943325634e-06 1.448608983451545540e-05 7.554360283688017828e-06
0.000000000000000000e+00 -0.000000000000000000e+00 8.771689372550112539e-06
0.000000000000000000e+00 -0.000000000000000000e+00 8.458839156495226669e-06
2.151463686025922861e-19 1.524659305057740610e-18 -4.336808689942017736e-19
1.418172940327399836e-05 6.736321466555181237e-05 -2.670544779543017076e-05
0.000000000000000000e+00 0.000000000000000000e+00 -8.040150501567183027e-06
0.000000000000000000e+00 0.000000000000000000e+00 -7.960149501557817911e-06
1.115732900694014790e-04 -8.987848366701828350e-05 -2.889105158184571988e-05
5.139339674152281062e-06 1.370490579773936873e-05 -1.991150584985746014e-06
-1.744872850482637463e-06 -6.281542261737572031e-05 -9.377525212503039293e-08
1.578694483770010101e-05 1.298037686655338424e-04 5.239286455361374728e-05
-3.554836680661688064e-06 4.976771352926141875e-05 2.303990404792560903e-06
-0.000000000000000000e+00 0.000000000000000000e+00 -8.329862557267772615e-06
-1.484845101177543798e-06 2.078783141648363281e-05 5.180680140444919902e-06
-3.554836680661687641e-06 4.976771352926130356e-05 2.399039513901155706e-06
1.484845101177175339e-06 -2.078783141648380561e-05 -5.240232751454623904e-06
-0.000000000000000000e+00 0.000000000000000000e+00 -8.725944003981218449e-06
0.000000000000000000e+00 -0.000000000000000000e+00 -6.564505341220827628e-20
5.446808510638315396e-06 1.452482269503523159e-05 6.263829787234055336e-06
4.689540322777748638e-05 -1.272875230468370868e-04 3.641755862730082787e-04
-0.000000000000000000e+00 0.000000000000000000e+00 -7.765293989176992733e-06
7.320822162645072333e-06 -1.098123324396808030e-05 -6.310783596889656488e-06
0.000000000000000000e+00 0.000000000000000000e+00 8.080604025150814923e-06
-0.000000000000000000e+00 0.000000000000000000e+00 1.143494478793305458e-19
-0.000000000000000000e+00 0.000000000000000000e+00 1.770298859761487709e-19
-3.460008825963095485e-05 -9.885739502751780279e-06 -2.982902948891672810e-06
5.969077306733047511e-06 -8.953615960099571691e-06 -6.063241895261824516e-06
-1.856060945670985618e-19 -1.761828530288944705e-19 -2.727446090158847092e-19
1.260808548262716024e-05 3.602310137893543568e-06 9.635216434336166827e-06
1.338747385259053841e-05 6.359050079980371869e-05 7.418593465106890385e-07
-4.867085914660251061e-06 -1.297889577242737287e-05 -6.920198003259786589e-06
5.179948906002112825e-06 -7.251928468402995902e-05 1.031973243278675932e-05
-5.179877724502310265e-06 -1.381300726533962731e-05 -7.064854618365369593e-06
0.000000000000000000e+00 0.000000000000000000e+00 8.040150501567198274e-06
0.000000000000000000e+00 0.000000000000000000e+00 7.960149501557729819e-06
-2.535137831627405473e-05 -9.778388779134312135e-05 -2.261772892793013863e-05
-6.798964703101702408e-06 1.019844705465263832e-05 7.428868785889442923e-06
0.000000000000000000e+00 -0.000000000000000000e+00 -1.859910927703239226e-05
-0.000000000000000000e+00 -0.000000000000000000e+00 2.202285662861180882e-20
0.000000000000000000e+00 -0.000000000000000000e+00 8.680555555555614840e-06
-0.000000000000000000e+00 0.000000000000000000e+00 2.286988957586610915e-20
0.000000000000000000e+00 -0.000000000000000000e+00 8.680555555555516585e-06
-0.000000000000000000e+00 0.000000000000000000e+00 3.413542777434830366e-19
4.443426736690452227e-06 1.184913796450821707e-05 5.783187222450085760e-06
-7.053445890546663536e-06 1.058016883581993686e-05 -5.676703778220506549e-07
0.000000000000000000e+00 -0.000000000000000000e+00 -4.404571325722361763e-20
1.796364762912249762e-06 -2.514910668077184776e-05 -5.811288039164482019e-06
5.880502061130227531e-06 -8.820753091695238382e-06 2.374213399012113495e-07
-0.000000000000000000e+00 0.000000000000000000e+00 1.524659305057740610e-19
-1.722105945057070056e-05 -1.722105945057081575e-05 8.168491835645182392e-06
1.077849353711416087e-04 1.976057148470934416e-04 -1.908811645119984292e-05
0.000000000000000000e+00 0.000000000000000000e+00 8.458839156495209728e-06
1.796364762912249762e-06 -2.514910668077184776e-05 3.746909496117269386e-06
0.000000000000000000e+00 0.000000000000000000e+00 -1.329841727189251532e-19
3.544832884259246919e-19 -8.958125739734818156e-05 3.449117931876244648e-06
1.782120505252326461e-06 -2.494968707353140494e-05 -5.336354956770511919e-06
-1.722105945057150015e-06 2.410948323079890082e-05 5.294785096848001786e-06
-4.573977915173221831e-20 2.286988957586610915e-19 7.411538288475127967e-20
-4.854606207186676993e-06 -1.294561655249809443e-05 -6.880820188314766134e-06
-1.418172940327399836e-05 -6.736321466555181237e-05 2.670544779543017076e-05
0.000000000000000000e+00 0.000000000000000000e+00 -8.080604025150853886e-06
0.000000000000000000e+00 -0.000000000000000000e+00 0.000000000000000000e+00
0.000000000000000000e+00 -0.000000000000000000e+00 7.920596024850832739e-06
2.079228659992598844e-05 -7.560831490882351871e-06 -8.535754214539335323e-06
-6.942853651788907592e-06 1.041428047768339019e-05 -1.278116240442895878e-06
-2.061131501864746899e-05 3.091697252796989906e-05 -2.983405183247155184e-05
0.000000000000000000e+00 0.000000000000000000e+00 -8.680555555555587735e-06
-3.399505526468727018e-06 4.759307737056420943e-05 2.271487783595242264e-06
-6.325580559516290659e-06 9.488370839274598196e-06 7.461309796338465467e-06
0.000000000000000000e+00 -0.000000000000000000e+00 1.160435137738391465e-19
-3.592754938588356655e-06 5.029856914024145788e-05 2.424629268715886748e-06
0.000000000000000000e+00 -0.000000000000000000e+00 7.920596024850819187e-06
-7.335305323222240936e-19 -6.708500942254058685e-19 1.694065894508600678e-20
2.996574458196376840e-05 -3.329527175773566451e-06 -1.247771467797985424e-05
1.805945374981133082e-06 -2.528323524973621721e-05 -5.842281575373472632e-06
