ply
            format ascii 1.0
            element vertex 30644
            property float x
            property float y
            property float z
            property float nx
            property float ny
            property float nz
end_header
-0.16590909090909 0.19272727272727 1.70000000000000 -0.00000000000000 0.00000000000000 1.00000000000000
-0.14318181818182 0.19272727272727 1.70000000000000 -0.00000000000000 0.00000000000000 1.00000000000000
-0.11648351648352 0.18637362637363 1.64395604395604 0.00000000000000 0.00000000000000 1.00000000000000
-0.10361445783133 0.20433734939759 1.80240963855422 0.00000000000000 -0.00000000000000 1.00000000000000
-0.07975830815710 0.20495468277946 1.80785498489426 0.00000000000000 0.00000000000000 -1.00000000000000
-0.04959568733154 0.18285714285714 1.61293800539084 0.96152274856365 0.27472078530390 -0.00157927724172
-0.02765957446809 0.18042553191489 1.59148936170213 0.00000000000000 0.00000000000000 1.00000000000000
-0.00634920634921 0.17947089947090 1.58306878306878 0.00000000000000 0.00000000000000 1.00000000000000
0.01517615176152 0.18384823848238 1.62168021680217 -0.43881639039207 0.65822458558811 -0.61170300837141
0.04184615384615 0.20873846153846 1.84123076923077 nan nan nan
0.06371681415929 0.20011799410029 1.76519174041298 -0.00000000000000 0.00000000000000 -1.00000000000000
0.08705882352941 0.19952941176471 1.76000000000000 -0.00000000000000 0.00000000000000 -1.00000000000000
0.10273224043716 0.18535519125683 1.63497267759563 0.00000000000000 0.00000000000000 -1.00000000000000
0.12192513368984 0.18139037433155 1.60000000000000 -0.00000000000000 0.00000000000000 1.00000000000000
0.14293333333333 0.18090666666667 1.59573333333333 0.00000000000000 -0.00000000000000 1.00000000000000
0.16648648648649 0.18335135135135 1.61729729729730 -0.00000000000000 0.00000000000000 -1.00000000000000
0.20115606936416 0.19606936416185 1.72947976878613 0.00000000000000 -0.00000000000000 1.00000000000000
0.22623906705539 0.19778425655977 1.74460641399417 0.00000000000000 0.00000000000000 1.00000000000000
0.24956268221574 0.19778425655977 1.74460641399417 -0.00000000000000 0.00000000000000 -1.00000000000000
0.23636363636364 0.17131313131313 1.51111111111111 -0.47427673454243 0.66398742835945 0.57808500590516
0.24780487804878 0.16546341463415 1.45951219512195 0.00000000000000 -0.00000000000000 -1.00000000000000
0.26537530266344 0.16426150121065 1.44891041162228 0.00000000000000 0.00000000000000 -1.00000000000000
-0.31279279279279 0.20420420420420 1.79699699699700 -0.00000000000000 -0.00000000000000 1.00000000000000
-0.28876876876877 0.20420420420420 1.79699699699700 0.00000000000000 -0.00000000000000 1.00000000000000
-0.24219780219780 0.18681318681319 1.64395604395604 0.80833498154859 -0.29393999329039 0.51009198969331
-0.21841961852861 0.18528610354223 1.63051771117166 0.00000000000000 0.00000000000000 1.00000000000000
-0.19715846994536 0.18579234972678 1.63497267759563 0.00000000000000 -0.00000000000000 -1.00000000000000
-0.17921787709497 0.18994413407821 1.67150837988827 0.00000000000000 -0.00000000000000 -1.00000000000000
-0.15954545454545 0.19318181818182 1.70000000000000 0.00000000000000 -0.00000000000000 1.00000000000000
-0.13681818181818 0.19318181818182 1.70000000000000 0.00000000000000 -0.00000000000000 -1.00000000000000
-0.11640579710145 0.19710144927536 1.73449275362319 -0.36750407577386 0.73500815154770 0.56982784369319
-0.09686746987952 0.20481927710843 1.80240963855422 0.00000000000000 0.00000000000000 1.00000000000000
-0.07433846153846 0.20923076923077 1.84123076923077 nan nan nan
-0.04309333333333 0.18133333333333 1.59573333333333 0.00000000000000 -0.00000000000000 1.00000000000000
-0.02092307692308 0.17435897435897 1.53435897435897 0.81576205547166 0.57583203915646 -0.05431143096590
-0.00042216358839 0.17941952506596 1.57889182058047 0.00000000000000 0.00000000000000 1.00000000000000
0.02412307692308 0.20923076923077 1.84123076923077 0.00000000000000 0.00000000000000 -1.00000000000000
0.04873846153846 0.20923076923077 1.84123076923077 -0.00000000000000 0.00000000000000 -1.00000000000000
0.07011764705882 0.20000000000000 1.76000000000000 0.00000000000000 -0.00000000000000 -1.00000000000000
0.09364705882353 0.20000000000000 1.76000000000000 0.00000000000000 0.00000000000000 1.00000000000000
0.10796747967480 0.18428184281843 1.62168021680217 -0.00000000000000 -0.00000000000000 -1.00000000000000
0.12791443850267 0.18181818181818 1.60000000000000 0.00000000000000 -0.00000000000000 -1.00000000000000
0.14930481283422 0.18181818181818 1.60000000000000 -0.00000000000000 0.00000000000000 -1.00000000000000
0.18397694524496 0.19596541786744 1.72449567723343 -0.76146847825869 -0.21756242235963 0.61059999098870
0.20763005780347 0.19653179190751 1.72947976878613 0.00000000000000 -0.00000000000000 1.00000000000000
0.23276967930029 0.19825072886297 1.74460641399417 0.00000000000000 0.00000000000000 1.00000000000000
0.25534883720930 0.19767441860465 1.73953488372093 nan nan nan
0.23490196078431 0.16666666666667 1.46666666666667 0.00000000000000 0.00000000000000 -1.00000000000000
0.25265206812652 0.16545012165450 1.45596107055961 0.00000000000000 -0.00000000000000 1.00000000000000
-0.33108433734940 0.20530120481928 1.80240963855422 -0.51163472420985 0.76745208631479 0.38632525699697
-0.30514970059880 0.20407185628743 1.79161676646707 -0.31706733108013 -0.84551288288035 -0.42962340770155
-0.28204204204204 0.20468468468468 1.79699699699700 0.00000000000000 -0.00000000000000 1.00000000000000
-0.23475409836066 0.18622950819672 1.63497267759563 0.00000000000000 -0.00000000000000 1.00000000000000
-0.21173913043478 0.18521739130435 1.62608695652174 0.00000000000000 -0.00000000000000 1.00000000000000
-0.19156164383562 0.18673972602740 1.63945205479452 nan nan nan
-0.17590909090909 0.19363636363636 1.70000000000000 0.00000000000000 0.00000000000000 -1.00000000000000
-0.15318181818182 0.19363636363636 1.70000000000000 -0.00000000000000 0.00000000000000 -1.00000000000000
-0.13045454545455 0.19363636363636 1.70000000000000 -0.00000000000000 0.00000000000000 -1.00000000000000
-0.11387387387387 0.20468468468468 1.79699699699700 0.00000000000000 -0.00000000000000 1.00000000000000
-0.09012048192771 0.20530120481928 1.80240963855422 0.00000000000000 -0.00000000000000 -1.00000000000000
-0.06744615384615 0.20972307692308 1.84123076923077 -0.00000000000000 0.00000000000000 -1.00000000000000
-0.03712000000000 0.18176000000000 1.59573333333333 0.00000000000000 0.00000000000000 1.00000000000000
-0.01491183879093 0.17168765743073 1.50730478589421 0.00000000000000 -0.00000000000000 1.00000000000000
0.00565217391304 0.18521739130435 1.62608695652174 0.00000000000000 -0.00000000000000 1.00000000000000
0.03101538461538 0.20972307692308 1.84123076923077 -0.00000000000000 0.00000000000000 -1.00000000000000
0.05364985163205 0.20225519287834 1.77566765578635 0.00000000000000 -0.00000000000000 -1.00000000000000
0.07670588235294 0.20047058823529 1.76000000000000 0.00000000000000 -0.00000000000000 -1.00000000000000
0.10053097345133 0.20106194690265 1.76519174041298 -0.00000000000000 0.00000000000000 -1.00000000000000
0.11311827956989 0.18322580645161 1.60860215053763 0.00000000000000 0.00000000000000 -1.00000000000000
0.13390374331551 0.18224598930481 1.60000000000000 -0.00000000000000 0.00000000000000 1.00000000000000
0.15612903225806 0.18322580645161 1.60860215053763 0.00000000000000 0.00000000000000 -1.00000000000000
0.19098265895954 0.19699421965318 1.72947976878613 0.00000000000000 -0.00000000000000 1.00000000000000
0.21472463768116 0.19756521739130 1.73449275362319 0.00000000000000 0.00000000000000 1.00000000000000
0.23930029154519 0.19871720116618 1.74460641399417 0.00000000000000 0.00000000000000 1.00000000000000
0.26262390670554 0.19871720116618 1.74460641399417 0.00000000000000 0.00000000000000 -1.00000000000000
0.23980440097800 0.16665036674817 1.46308068459658 0.00000000000000 0.00000000000000 -1.00000000000000
0.25747572815534 0.16543689320388 1.45242718446602 0.00000000000000 0.00000000000000 -1.00000000000000
-0.32433734939759 0.20578313253012 1.80240963855422 0.00000000000000 0.00000000000000 1.00000000000000
-0.29844311377246 0.20455089820359 1.79161676646707 -0.50924889085042 0.76387333627565 0.39643800687462
-0.27531531531532 0.20516516516517 1.79699699699700 0.00000000000000 0.00000000000000 1.00000000000000
-0.22801089918256 0.18615803814714 1.63051771117166 0.00000000000000 -0.00000000000000 1.00000000000000
-0.20565217391304 0.18565217391304 1.62608695652174 0.00000000000000 -0.00000000000000 1.00000000000000
-0.18593406593407 0.18769230769231 1.64395604395604 0.49272248160498 -0.73908372240747 -0.45932538291864
-0.16954545454545 0.19409090909091 1.70000000000000 -0.00000000000000 0.00000000000000 1.00000000000000
-0.14681818181818 0.19409090909091 1.70000000000000 -0.00000000000000 0.00000000000000 1.00000000000000
-0.12338983050847 0.19299435028249 1.69039548022599 0.83653936478731 -0.30419613264994 0.45570451395840
-0.10714714714715 0.20516516516517 1.79699699699700 0.00000000000000 -0.00000000000000 1.00000000000000
-0.08337349397590 0.20578313253012 1.80240963855422 0.00000000000000 -0.00000000000000 1.00000000000000
-0.06055384615385 0.21021538461538 1.84123076923077 0.00000000000000 0.00000000000000 1.00000000000000
-0.03106382978723 0.18170212765957 1.59148936170213 -0.00000000000000 -0.00000000000000 -1.00000000000000
-0.00943589743590 0.17517948717949 1.53435897435897 -0.75836672104010 0.63862460719166 0.13053171073799
0.01173913043478 0.18565217391304 1.62608695652174 -0.00000000000000 0.00000000000000 -1.00000000000000
0.03790769230769 0.21021538461538 1.84123076923077 0.00000000000000 -0.00000000000000 1.00000000000000
0.05994100294985 0.20153392330383 1.76519174041298 0.00000000000000 0.00000000000000 -1.00000000000000
0.08329411764706 0.20094117647059 1.76000000000000 0.00000000000000 -0.00000000000000 1.00000000000000
0.10777448071217 0.20272997032641 1.77566765578635 -0.95767674245118 -0.27362192641461 0.08936609174209
0.11882037533512 0.18316353887399 1.60428954423592 -0.00000000000000 0.00000000000000 -1.00000000000000
0.13952000000000 0.18218666666667 1.59573333333333 0.00000000000000 -0.00000000000000 1.00000000000000
0.16258760107817 0.18415094339623 1.61293800539084 -0.00000000000000 0.00000000000000 -1.00000000000000
0.19745664739884 0.19745664739884 1.72947976878613 0.00000000000000 0.00000000000000 1.00000000000000
0.22121739130435 0.19802898550725 1.73449275362319 0.00000000000000 -0.00000000000000 1.00000000000000
0.24583090379009 0.19918367346939 1.74460641399417 0.00000000000000 0.00000000000000 1.00000000000000
0.36780876494024 0.27219123505976 2.38406374501992 0.96923986637789 -0.22475127336300 -0.10030426982674
0.24468292682927 0.16663414634146 1.45951219512195 0.00000000000000 0.00000000000000 -1.00000000000000
0.26291262135922 0.16582524271845 1.45242718446602 -0.00000000000000 0.00000000000000 -1.00000000000000
-0.31663663663664 0.20564564564565 1.79699699699700 0.00000000000000 0.00000000000000 1.00000000000000
-0.29261261261261 0.20564564564565 1.79699699699700 0.00000000000000 -0.00000000000000 1.00000000000000
-0.24844444444444 0.19022222222222 1.66222222222222 -0.91406466280944 0.10156274031215 -0.39264589897687
-0.22190735694823 0.18659400544959 1.63051771117166 0.00000000000000 0.00000000000000 1.00000000000000
-0.20010899182561 0.18659400544959 1.63051771117166 -0.00000000000000 0.00000000000000 -1.00000000000000
-0.18077348066298 0.18917127071823 1.65303867403315 0.00000000000000 -0.00000000000000 1.00000000000000
-0.16318181818182 0.19454545454545 1.70000000000000 0.00000000000000 -0.00000000000000 -1.00000000000000
-0.14045454545455 0.19454545454545 1.70000000000000 0.00000000000000 0.00000000000000 1.00000000000000
-0.11447513812155 0.18917127071823 1.65303867403315 0.97716810154405 -0.10857423350489 -0.18263115052922
-0.10072289156627 0.20626506024096 1.80240963855422 0.00000000000000 0.00000000000000 1.00000000000000
-0.07685800604230 0.20688821752266 1.80785498489426 0.00000000000000 0.00000000000000 1.00000000000000
-0.04650666666667 0.18261333333333 1.59573333333333 0.00000000000000 -0.00000000000000 1.00000000000000
-0.02503978779841 0.18164456233422 1.58726790450928 0.00000000000000 0.00000000000000 1.00000000000000
-0.00379947229551 0.18068601583113 1.57889182058047 0.00000000000000 -0.00000000000000 1.00000000000000
0.01802197802198 0.18813186813187 1.64395604395604 -0.08918869818223 0.68378001939711 0.72421699868882
0.04480000000000 0.21070769230769 1.84123076923077 -0.00000000000000 0.00000000000000 -1.00000000000000
0.06654867256637 0.20200589970501 1.76519174041298 -0.00000000000000 0.00000000000000 -1.00000000000000
0.08988235294118 0.20141176470588 1.76000000000000 -0.00000000000000 0.00000000000000 -1.00000000000000
0.10478260869565 0.18608695652174 1.62608695652174 -0.00000000000000 -0.00000000000000 -1.00000000000000
0.12449197860963 0.18310160427807 1.60000000000000 -0.00000000000000 0.00000000000000 -1.00000000000000
0.14549333333333 0.18261333333333 1.59573333333333 -0.00000000000000 0.00000000000000 -1.00000000000000
0.16953929539295 0.18558265582656 1.62168021680217 0.84704361606919 -0.30801586038880 -0.43317818761496
0.20393063583815 0.19791907514451 1.72947976878613 -0.00000000000000 0.00000000000000 1.00000000000000
0.22837209302326 0.19906976744186 1.73953488372093 0.55910788675850 -0.82869649256888 0.02570008109866
0.25162790697674 0.19906976744186 1.73953488372093 0.00000000000000 -0.00000000000000 1.00000000000000
0.23233415233415 0.16825552825553 1.47027027027027 0.00000000000000 0.00000000000000 -1.00000000000000
0.25014634146341 0.16702439024390 1.45951219512195 -0.00000000000000 0.00000000000000 -1.00000000000000
0.26769975786925 0.16581113801453 1.44891041162228 -0.00000000000000 0.00000000000000 -1.00000000000000
-0.30898203592814 0.20550898203593 1.79161676646707 nan nan nan
-0.28588588588589 0.20612612612613 1.79699699699700 0.00000000000000 0.00000000000000 1.00000000000000
-0.23890410958904 0.18805479452055 1.63945205479452 -0.00000000000000 -0.00000000000000 1.00000000000000
-0.21521739130435 0.18652173913043 1.62608695652174 0.00000000000000 -0.00000000000000 1.00000000000000
-0.19453551912568 0.18754098360656 1.63497267759563 0.00000000000000 -0.00000000000000 1.00000000000000
-0.17653631284916 0.19173184357542 1.67150837988827 -0.00000000000000 0.00000000000000 -1.00000000000000
-0.15681818181818 0.19500000000000 1.70000000000000 -0.00000000000000 0.00000000000000 -1.00000000000000
-0.13409090909091 0.19500000000000 1.70000000000000 0.00000000000000 0.00000000000000 1.00000000000000
-0.11771771771772 0.20612612612613 1.79699699699700 0.00000000000000 0.00000000000000 -1.00000000000000
-0.09369369369369 0.20612612612613 1.79699699699700 0.00000000000000 -0.00000000000000 1.00000000000000
-0.07138461538462 0.21120000000000 1.84123076923077 0.00000000000000 -0.00000000000000 -1.00000000000000
-0.04053333333333 0.18304000000000 1.59573333333333 0.00000000000000 0.00000000000000 1.00000000000000
-0.01813602015113 0.17289672544081 1.50730478589421 0.00000000000000 -0.00000000000000 1.00000000000000
0.00217391304348 0.18652173913043 1.62608695652174 0.00000000000000 0.00000000000000 1.00000000000000
0.02707692307692 0.21120000000000 1.84123076923077 0.00000000000000 -0.00000000000000 -1.00000000000000
0.05000000000000 0.20428571428571 1.78095238095238 0.00000000000000 0.00000000000000 -1.00000000000000
0.07294117647059 0.20188235294118 1.76000000000000 -0.00000000000000 0.00000000000000 -1.00000000000000
0.09675516224189 0.20247787610619 1.76519174041298 0.00000000000000 0.00000000000000 -1.00000000000000
0.11027027027027 0.18551351351351 1.61729729729730 -0.83088620187800 -0.23739605767943 -0.50326059981586
0.13048128342246 0.18352941176471 1.60000000000000 nan nan nan
0.15227882037534 0.18402144772118 1.60428954423592 0.00000000000000 0.00000000000000 -1.00000000000000
0.18728323699422 0.19838150289017 1.72947976878613 0.00000000000000 -0.00000000000000 1.00000000000000
0.21040462427746 0.19838150289017 1.72947976878613 0.00000000000000 -0.00000000000000 -1.00000000000000
0.23488372093023 0.19953488372093 1.73953488372093 0.55458320214428 -0.83187480321643 0.02053737259277
0.25813953488372 0.19953488372093 1.73953488372093 -0.00000000000000 0.00000000000000 1.00000000000000
0.23725490196078 0.16823529411765 1.46666666666667 -0.00000000000000 0.00000000000000 -1.00000000000000
0.25498783454988 0.16700729927007 1.45596107055961 0.00000000000000 0.00000000000000 1.00000000000000
-0.32819277108434 0.20722891566265 1.80240963855422 0.00000000000000 0.00000000000000 1.00000000000000
-0.30137313432836 0.20537313432836 1.78626865671642 0.00000000000000 -0.00000000000000 1.00000000000000
-0.27915915915916 0.20660660660661 1.79699699699700 0.00000000000000 0.00000000000000 1.00000000000000
-0.23213114754098 0.18797814207650 1.63497267759563 -0.00000000000000 0.00000000000000 -1.00000000000000
-0.20913043478261 0.18695652173913 1.62608695652174 -0.00000000000000 0.00000000000000 -1.00000000000000
-0.18893150684932 0.18849315068493 1.63945205479452 0.00000000000000 -0.00000000000000 -1.00000000000000
-0.17318181818182 0.19545454545455 1.70000000000000 0.00000000000000 -0.00000000000000 -1.00000000000000
-0.15045454545455 0.19545454545455 1.70000000000000 0.00000000000000 0.00000000000000 1.00000000000000
-0.12956772334294 0.19827089337176 1.72449567723343 -0.36750407577386 0.73500815154770 0.56982784369319
-0.11099099099099 0.20660660660661 1.79699699699700 0.00000000000000 -0.00000000000000 1.00000000000000
-0.08722891566265 0.20722891566265 1.80240963855422 -0.00000000000000 0.00000000000000 1.00000000000000
-0.06449230769231 0.21169230769231 1.84123076923077 nan nan nan
-0.03446808510638 0.18297872340426 1.59148936170213 0.00000000000000 0.00000000000000 -1.00000000000000
-0.01249370277078 0.17329974811083 1.50730478589421 0.00000000000000 -0.00000000000000 1.00000000000000
0.00826086956522 0.18695652173913 1.62608695652174 -0.00000000000000 0.00000000000000 -1.00000000000000
0.03396923076923 0.21169230769231 1.84123076923077 0.00000000000000 -0.00000000000000 1.00000000000000
0.05633136094675 0.20355029585799 1.77041420118343 0.00000000000000 0.00000000000000 -1.00000000000000
0.07952941176471 0.20235294117647 1.76000000000000 -0.00000000000000 0.00000000000000 -1.00000000000000
0.10366863905325 0.20355029585799 1.77041420118343 0.00000000000000 0.00000000000000 -1.00000000000000
0.11538873994638 0.18445040214477 1.60428954423592 0.00000000000000 -0.00000000000000 1.00000000000000
0.13647058823529 0.18395721925134 1.60000000000000 0.00000000000000 -0.00000000000000 1.00000000000000
0.15870967741935 0.18494623655914 1.60860215053763 -0.00000000000000 0.00000000000000 -1.00000000000000
0.19375722543353 0.19884393063584 1.72947976878613 0.00000000000000 0.00000000000000 1.00000000000000
0.21687861271676 0.19884393063584 1.72947976878613 0.00000000000000 -0.00000000000000 1.00000000000000
0.24139534883721 0.20000000000000 1.73953488372093 0.00000000000000 -0.00000000000000 1.00000000000000
0.26542274052478 0.20058309037901 1.74460641399417 -0.00000000000000 0.00000000000000 1.00000000000000
0.24215158924205 0.16821515892421 1.46308068459658 -0.00000000000000 0.00000000000000 -1.00000000000000
0.25980582524272 0.16699029126214 1.45242718446602 0.00000000000000 -0.00000000000000 1.00000000000000
-0.32048048048048 0.20708708708709 1.79699699699700 0.31706733108013 0.84551288288036 0.42962340770152
-0.29556886227545 0.20646706586826 1.79161676646707 0.00000000000000 -0.00000000000000 1.00000000000000
-0.27161676646707 0.20646706586826 1.79161676646707 0.31802611104922 0.84806962946461 0.42383640272004
-0.22539509536785 0.18790190735695 1.63051771117166 -0.00000000000000 0.00000000000000 -1.00000000000000
-0.20304347826087 0.18739130434783 1.62608695652174 0.00000000000000 -0.00000000000000 -1.00000000000000
-0.18380165289256 0.18997245179063 1.64848484848485 0.49309493900301 -0.73964240850451 -0.45802455029317
-0.16681818181818 0.19590909090909 1.70000000000000 -0.00000000000000 0.00000000000000 -1.00000000000000
-0.14409090909091 0.19590909090909 1.70000000000000 0.00000000000000 0.00000000000000 1.00000000000000
-0.11736263736264 0.18945054945055 1.64395604395604 0.00000000000000 0.00000000000000 1.00000000000000
-0.10426426426426 0.20708708708709 1.79699699699700 nan nan nan
-0.08048192771084 0.20771084337349 1.80240963855422 0.00000000000000 -0.00000000000000 1.00000000000000
-0.05032258064516 0.18537634408602 1.60860215053763 0.96152274856365 0.27472078530390 -0.00157927724172
-0.02843501326260 0.18291777188329 1.58726790450928 0.00000000000000 -0.00000000000000 1.00000000000000
-0.00717678100264 0.18195250659631 1.57889182058047 0.00000000000000 0.00000000000000 -1.00000000000000
0.01434782608696 0.18739130434783 1.62608695652174 0.00000000000000 -0.00000000000000 -1.00000000000000
0.04086153846154 0.21218461538462 1.84123076923077 0.00000000000000 -0.00000000000000 -1.00000000000000
0.06277286135693 0.20342182890855 1.76519174041298 -0.00000000000000 0.00000000000000 -1.00000000000000
0.08611764705882 0.20282352941176 1.76000000000000 -0.00000000000000 0.00000000000000 1.00000000000000
0.10185792349727 0.18841530054645 1.63497267759563 0.00000000000000 0.00000000000000 1.00000000000000
0.12106951871658 0.18438502673797 1.60000000000000 0.00000000000000 0.00000000000000 -1.00000000000000
0.14208000000000 0.18389333333333 1.59573333333333 0.00000000000000 0.00000000000000 1.00000000000000
0.16562162162162 0.18637837837838 1.61729729729730 0.00000000000000 0.00000000000000 -1.00000000000000
0.19965417867435 0.19873198847262 1.72449567723343 0.00000000000000 -0.00000000000000 1.00000000000000
0.22400000000000 0.19988405797101 1.73449275362319 0.55453717438688 -0.83180576158031 0.02424246738295
0.24790697674419 0.20046511627907 1.73953488372093 0.00000000000000 -0.00000000000000 1.00000000000000
0.28352583586626 0.20960486322188 1.81884498480243 0.94681600831671 -0.27091785488708 -0.17361728686568
0.24702439024390 0.16819512195122 1.45951219512195 -0.00000000000000 0.00000000000000 -1.00000000000000
0.26460048426150 0.16697336561743 1.44891041162228 0.00000000000000 -0.00000000000000 1.00000000000000
-0.31281437125749 0.20694610778443 1.79161676646707 nan nan nan
-0.28972972972973 0.20756756756757 1.79699699699700 0.00000000000000 0.00000000000000 1.00000000000000
-0.24441988950276 0.19093922651934 1.65303867403315 -0.80873997204973 0.29408726256354 -0.50936464306710
-0.21869565217391 0.18782608695652 1.62608695652174 0.00000000000000 -0.00000000000000 1.00000000000000
-0.19749318801090 0.18833787465940 1.63051771117166 0.00000000000000 -0.00000000000000 -1.00000000000000
-0.17812154696133 0.19093922651934 1.65303867403315 0.49309493900301 -0.73964240850451 -0.45802455029317
-0.16045454545455 0.19636363636364 1.70000000000000 -0.00000000000000 0.00000000000000 1.00000000000000
-0.14217008797654 0.20269794721408 1.75483870967742 0.29931845148368 0.79818253728982 -0.52279355559054
-0.11275766016713 0.19253481894150 1.66685236768802 0.00000000000000 0.00000000000000 1.00000000000000
-0.09753753753754 0.20756756756757 1.79699699699700 0.00000000000000 -0.00000000000000 1.00000000000000
-0.07532307692308 0.21267692307692 1.84123076923077 0.00000000000000 0.00000000000000 -1.00000000000000
-0.04394666666667 0.18432000000000 1.59573333333333 -0.00000000000000 0.00000000000000 -1.00000000000000
-0.02146835443038 0.17498734177215 1.51493670886076 -0.80129610341468 -0.56562077888095 -0.19492995960230
-0.00126649076517 0.18237467018470 1.57889182058047 -0.00000000000000 0.00000000000000 -1.00000000000000
0.02299694189602 0.21137614678899 1.82996941896024 0.88817999545675 -0.32297454380245 -0.32683901194021
0.04775384615385 0.21267692307692 1.84123076923077 nan nan nan
0.06917647058824 0.20329411764706 1.76000000000000 0.00000000000000 0.00000000000000 -1.00000000000000
0.09270588235294 0.20329411764706 1.76000000000000 0.00000000000000 0.00000000000000 1.00000000000000
0.10710027100271 0.18731707317073 1.62168021680217 -0.00000000000000 -0.00000000000000 1.00000000000000
0.12705882352941 0.18481283422460 1.60000000000000 nan nan nan
0.14844919786096 0.18481283422460 1.60000000000000 0.00000000000000 0.00000000000000 -1.00000000000000
0.18045454545455 0.19636363636364 1.70000000000000 -0.96307194641230 -0.02918399837613 0.26765784179134
0.20670520231214 0.19976878612717 1.72947976878613 -0.00000000000000 0.00000000000000 -1.00000000000000
0.23049275362319 0.20034782608696 1.73449275362319 0.55456113939664 -0.83184170909497 0.02239003530719
0.25441860465116 0.20093023255814 1.73953488372093 0.00000000000000 -0.00000000000000 1.00000000000000
0.23469287469287 0.16982800982801 1.47027027027027 0.00000000000000 -0.00000000000000 -1.00000000000000
0.25187347931873 0.16817518248175 1.45596107055961 0.00000000000000 -0.00000000000000 1.00000000000000
-0.33105105105105 0.20804804804805 1.79699699699700 -0.99285045931286 0.10879883375918 0.04909968650494
-0.30519402985075 0.20680597014925 1.78626865671642 0.00000000000000 0.00000000000000 -1.00000000000000
-0.28215568862275 0.20742514970060 1.79161676646707 -0.31783493445933 -0.84755982522488 -0.42499799658587
-0.23562841530055 0.18928961748634 1.63497267759563 0.00000000000000 0.00000000000000 -1.00000000000000
-0.21260869565217 0.18826086956522 1.62608695652174 -0.00000000000000 0.00000000000000 -1.00000000000000
-0.19191256830601 0.18928961748634 1.63497267759563 -0.00000000000000 0.00000000000000 1.00000000000000
-0.17385474860335 0.19351955307263 1.67150837988827 -0.54823517193210 0.82235275789815 -0.15223054172500
-0.15409090909091 0.19681818181818 1.70000000000000 0.00000000000000 0.00000000000000 1.00000000000000
-0.13600000000000 0.20376470588235 1.76000000000000 -0.62120908190711 -0.13541342384896 0.77185651593908
-0.11483483483483 0.20804804804805 1.79699699699700 0.00000000000000 -0.00000000000000 1.00000000000000
-0.09081081081081 0.20804804804805 1.79699699699700 nan nan nan
-0.06843076923077 0.21316923076923 1.84123076923077 -0.00000000000000 0.00000000000000 -1.00000000000000
-0.03787234042553 0.18425531914894 1.59148936170213 0.00000000000000 -0.00000000000000 1.00000000000000
-0.01571788413098 0.17450881612091 1.50730478589421 -0.00000000000000 0.00000000000000 1.00000000000000
0.00479564032698 0.18877384196185 1.63051771117166 0.00000000000000 -0.00000000000000 1.00000000000000
0.03003076923077 0.21316923076923 1.84123076923077 -0.00000000000000 0.00000000000000 -1.00000000000000
0.05285714285714 0.20619047619048 1.78095238095238 0.00000000000000 0.00000000000000 1.00000000000000
0.07576470588235 0.20376470588235 1.76000000000000 0.00000000000000 -0.00000000000000 -1.00000000000000
0.09958702064897 0.20436578171091 1.76519174041298 -0.00000000000000 0.00000000000000 -1.00000000000000
0.11225806451613 0.18623655913978 1.60860215053763 -0.00000000000000 -0.00000000000000 1.00000000000000
0.13304812834225 0.18524064171123 1.60000000000000 0.00000000000000 -0.00000000000000 -1.00000000000000
0.15485254691689 0.18573726541555 1.60428954423592 -0.00000000000000 0.00000000000000 -1.00000000000000
0.19005780346821 0.20023121387283 1.72947976878613 0.00000000000000 0.00000000000000 1.00000000000000
0.21317919075145 0.20023121387283 1.72947976878613 -0.00000000000000 0.00000000000000 -1.00000000000000
0.23767441860465 0.20139534883721 1.73953488372093 0.00000000000000 0.00000000000000 1.00000000000000
0.26093023255814 0.20139534883721 1.73953488372093 0.00000000000000 -0.00000000000000 1.00000000000000
0.23960784313725 0.16980392156863 1.46666666666667 -0.00000000000000 0.00000000000000 -1.00000000000000
0.25669902912621 0.16815533980583 1.45242718446602 0.00000000000000 0.00000000000000 -1.00000000000000
-0.32335329341317 0.20790419161677 1.79161676646707 0.00000000000000 -0.00000000000000 1.00000000000000
-0.29850746268657 0.20728358208955 1.78626865671642 0.00000000000000 -0.00000000000000 1.00000000000000
-0.27544910179641 0.20790419161677 1.79161676646707 -0.31802611104922 -0.84806962946461 -0.42383640272004
-0.22888283378747 0.18920980926431 1.63051771117166 0.00000000000000 -0.00000000000000 1.00000000000000
-0.20652173913043 0.18869565217391 1.62608695652174 0.00000000000000 -0.00000000000000 -1.00000000000000
-0.18630136986301 0.19024657534247 1.63945205479452 -0.00000000000000 0.00000000000000 -1.00000000000000
-0.17045454545455 0.19727272727273 1.70000000000000 -0.00000000000000 0.00000000000000 -1.00000000000000
-0.14814814814815 0.19783475783476 1.70484330484330 -0.29743626253506 -0.79316336676015 0.53143536141179
-0.12979351032448 0.20483775811209 1.76519174041298 0.15261936524085 0.91571619144506 -0.37171384972697
-0.10810810810811 0.20852852852853 1.79699699699700 -0.00000000000000 0.00000000000000 1.00000000000000
-0.08433734939759 0.20915662650602 1.80240963855422 0.00000000000000 0.00000000000000 1.00000000000000
-0.06153846153846 0.21366153846154 1.84123076923077 0.00000000000000 0.00000000000000 1.00000000000000
-0.03183023872679 0.18419098143236 1.58726790450928 0.00000000000000 -0.00000000000000 1.00000000000000
-0.01007556675063 0.17491183879093 1.50730478589421 -0.00000000000000 0.00000000000000 -1.00000000000000
0.01086956521739 0.18869565217391 1.62608695652174 0.00000000000000 -0.00000000000000 -1.00000000000000
0.03692307692308 0.21366153846154 1.84123076923077 -0.00000000000000 0.00000000000000 -1.00000000000000
0.05917159763314 0.20544378698225 1.77041420118343 nan nan nan
0.08235294117647 0.20423529411765 1.76000000000000 0.00000000000000 -0.00000000000000 -1.00000000000000
0.10682492581602 0.20605341246291 1.77566765578635 0.78453498411900 0.22415285260542 -0.57815253814392
0.11796246648794 0.18616621983914 1.60428954423592 -0.00000000000000 0.00000000000000 -1.00000000000000
0.13903743315508 0.18566844919786 1.60000000000000 0.00000000000000 -0.00000000000000 -1.00000000000000
0.16172506738544 0.18716981132075 1.61293800539084 0.00000000000000 0.00000000000000 -1.00000000000000
0.19596541786744 0.20011527377522 1.72449567723343 0.00000000000000 -0.00000000000000 1.00000000000000
0.21965317919075 0.20069364161850 1.72947976878613 -0.00000000000000 0.00000000000000 -1.00000000000000
0.24418604651163 0.20186046511628 1.73953488372093 -0.00000000000000 0.00000000000000 -1.00000000000000
0.26822157434402 0.20244897959184 1.74460641399417 -0.00000000000000 0.00000000000000 -1.00000000000000
0.24449877750611 0.16977995110024 1.46308068459658 -0.00000000000000 0.00000000000000 -1.00000000000000
0.26213592233010 0.16854368932039 1.45242718446602 0.00000000000000 0.00000000000000 1.00000000000000
-0.31664670658683 0.20838323353293 1.79161676646707 -0.00000000000000 -0.00000000000000 -1.00000000000000
-0.29269461077844 0.20838323353293 1.79161676646707 -0.00000000000000 0.00000000000000 1.00000000000000
-0.27036144578313 0.20963855421687 1.80240963855422 -0.64451813081716 -0.18414803737633 0.74208212441643
-0.22277929155313 0.18964577656676 1.63051771117166 0.00000000000000 0.00000000000000 1.00000000000000
-0.20043478260870 0.18913043478261 1.62608695652174 -0.00000000000000 0.00000000000000 1.00000000000000
-0.18115702479339 0.19173553719008 1.64848484848485 0.00000000000000 -0.00000000000000 -1.00000000000000
-0.16409090909091 0.19772727272727 1.70000000000000 0.00000000000000 0.00000000000000 1.00000000000000
-0.14721893491124 0.20591715976331 1.77041420118343 0.69497891539922 -0.27194827124317 0.66561884357219
-0.11504132231405 0.19173553719008 1.64848484848485 -0.99325083276557 -0.01453537804047 0.11507174282040
-0.10138138138138 0.20900900900901 1.79699699699700 -0.00000000000000 0.00000000000000 1.00000000000000
-0.07759036144578 0.20963855421687 1.80240963855422 0.49715789546795 -0.74573684320193 -0.44352067332323
-0.04736000000000 0.18560000000000 1.59573333333333 0.00000000000000 -0.00000000000000 1.00000000000000
-0.02588859416446 0.18461538461538 1.58726790450928 0.00000000000000 0.00000000000000 1.00000000000000
-0.00464379947230 0.18364116094987 1.57889182058047 0.00000000000000 -0.00000000000000 -1.00000000000000
0.01695652173913 0.18913043478261 1.62608695652174 -0.00000000000000 0.00000000000000 -1.00000000000000
0.04381538461538 0.21415384615385 1.84123076923077 0.00000000000000 0.00000000000000 1.00000000000000
0.06560471976401 0.20530973451327 1.76519174041298 0.00000000000000 -0.00000000000000 -1.00000000000000
0.08894117647059 0.20470588235294 1.76000000000000 -0.00000000000000 0.00000000000000 -1.00000000000000
0.10391304347826 0.18913043478261 1.62608695652174 0.00000000000000 0.00000000000000 -1.00000000000000
0.12363636363636 0.18609625668449 1.60000000000000 -0.00000000000000 0.00000000000000 -1.00000000000000
0.14502673796791 0.18609625668449 1.60000000000000 0.00000000000000 -0.00000000000000 1.00000000000000
0.16821621621622 0.18810810810811 1.61729729729730 -0.00000000000000 0.00000000000000 -1.00000000000000
0.20242074927954 0.20057636887608 1.72449567723343 -0.00000000000000 0.00000000000000 -1.00000000000000
0.22612716763006 0.20115606936416 1.72947976878613 0.00000000000000 -0.00000000000000 1.00000000000000
0.25069767441860 0.20232558139535 1.73953488372093 -0.00000000000000 0.00000000000000 1.00000000000000
0.24164102564103 0.17846153846154 1.53435897435897 -0.93903391850508 0.34146687945639 -0.04019539937986
0.24936585365854 0.16975609756098 1.45951219512195 0.00000000000000 0.00000000000000 1.00000000000000
0.26692493946731 0.16852300242131 1.44891041162228 -0.00000000000000 0.00000000000000 -1.00000000000000
-0.30901492537313 0.20823880597015 1.78626865671642 -0.00000000000000 -0.00000000000000 1.00000000000000
-0.28598802395210 0.20886227544910 1.79161676646707 -0.00000000000000 -0.00000000000000 1.00000000000000
-0.23978082191781 0.19112328767123 1.63945205479452 0.00000000000000 0.00000000000000 -1.00000000000000
-0.21608695652174 0.18956521739130 1.62608695652174 0.00000000000000 0.00000000000000 1.00000000000000
-0.19487738419619 0.19008174386921 1.63051771117166 -0.00000000000000 0.00000000000000 -1.00000000000000
-0.17595567867036 0.19324099722992 1.65761772853186 -0.54808139290364 0.82212208935548 -0.15401966415555
-0.15772727272727 0.19818181818182 1.70000000000000 0.00000000000000 0.00000000000000 1.00000000000000
-0.14185074626866 0.20823880597015 1.78626865671642 0.00000000000000 0.00000000000000 -1.00000000000000
-0.11163841807910 0.19706214689266 1.69039548022599 0.27453973841670 -0.79311479987046 0.54368818844678
-0.09465465465465 0.20948948948949 1.79699699699700 nan nan nan
-0.07236923076923 0.21464615384615 1.84123076923077 0.00000000000000 -0.00000000000000 -1.00000000000000
-0.04127659574468 0.18553191489362 1.59148936170213 0.00000000000000 -0.00000000000000 1.00000000000000
-0.01894206549118 0.17571788413098 1.50730478589421 0.00000000000000 -0.00000000000000 1.00000000000000
0.00132231404959 0.19217630853994 1.64848484848485 -0.81192883753668 -0.19598282285368 -0.54987480022514
0.02609230769231 0.21464615384615 1.84123076923077 0.00000000000000 0.00000000000000 -1.00000000000000
0.05070769230769 0.21464615384615 1.84123076923077 0.00000000000000 0.00000000000000 1.00000000000000
0.07200000000000 0.20517647058824 1.76000000000000 -0.00000000000000 0.00000000000000 -1.00000000000000
0.09581120943953 0.20578171091445 1.76519174041298 0.00000000000000 -0.00000000000000 1.00000000000000
0.10911051212938 0.18803234501348 1.61293800539084 -0.83022239787692 -0.23720639939340 -0.50444414373676
0.12962566844920 0.18652406417112 1.60000000000000 nan nan nan
0.15101604278075 0.18652406417112 1.60000000000000 -0.00000000000000 0.00000000000000 -1.00000000000000
0.18635838150289 0.20161849710983 1.72947976878613 0.00000000000000 -0.00000000000000 1.00000000000000
0.20947976878613 0.20161849710983 1.72947976878613 0.00000000000000 0.00000000000000 1.00000000000000
0.23327536231884 0.20220289855072 1.73449275362319 0.00000000000000 -0.00000000000000 1.00000000000000
0.25720930232558 0.20279069767442 1.73953488372093 -0.00000000000000 0.00000000000000 1.00000000000000
0.23705159705160 0.17140049140049 1.47027027027027 0.55468432817834 -0.83202649226753 0.00756387720243
0.25420924574209 0.16973236009732 1.45596107055961 -0.00000000000000 0.00000000000000 1.00000000000000
-0.32718562874251 0.20934131736527 1.79161676646707 0.00000000000000 0.00000000000000 1.00000000000000
-0.30142857142857 0.20809523809524 1.78095238095238 0.00000000000000 -0.00000000000000 1.00000000000000
-0.27844776119403 0.20871641791045 1.78626865671642 -0.31783493445933 -0.84755982522488 -0.42499799658586
-0.23300546448087 0.19103825136612 1.63497267759563 0.00000000000000 0.00000000000000 1.00000000000000
-0.21000000000000 0.19000000000000 1.62608695652174 0.00000000000000 0.00000000000000 1.00000000000000
-0.18928961748634 0.19103825136612 1.63497267759563 0.00000000000000 -0.00000000000000 1.00000000000000
-0.17165266106443 0.19585434173669 1.67619047619048 -0.54823517193210 0.82235275789815 -0.15223054172500
-0.15179487179487 0.19920227920228 1.70484330484330 0.29743626253506 0.79316336676015 -0.53143536141180
-0.13516417910448 0.20871641791045 1.78626865671642 0.00000000000000 0.00000000000000 1.00000000000000
-0.11195195195195 0.20996996996997 1.79699699699700 0.00000000000000 0.00000000000000 1.00000000000000
-0.08792792792793 0.20996996996997 1.79699699699700 nan nan nan
-0.06547692307692 0.21513846153846 1.84123076923077 -0.00000000000000 0.00000000000000 -1.00000000000000
-0.03531914893617 0.18595744680851 1.59148936170213 0.00000000000000 0.00000000000000 1.00000000000000
-0.01329974811083 0.17612090680101 1.50730478589421 0.00000000000000 0.00000000000000 1.00000000000000
0.00741144414169 0.19051771117166 1.63051771117166 0.00000000000000 -0.00000000000000 1.00000000000000
0.03298461538462 0.21513846153846 1.84123076923077 -0.00000000000000 0.00000000000000 1.00000000000000
0.05554896142433 0.20747774480712 1.77566765578635 0.00000000000000 -0.00000000000000 -1.00000000000000
0.07858823529412 0.20564705882353 1.76000000000000 -0.00000000000000 0.00000000000000 -1.00000000000000
0.10272189349112 0.20686390532544 1.77041420118343 0.78453498411899 0.22415285260543 -0.57815253814392
0.11453083109920 0.18745308310992 1.60428954423592 0.00000000000000 -0.00000000000000 1.00000000000000
0.13561497326203 0.18695187165775 1.60000000000000 -0.00000000000000 0.00000000000000 -1.00000000000000
0.15784946236559 0.18795698924731 1.60860215053763 0.00000000000000 0.00000000000000 -1.00000000000000
0.19227665706052 0.20149855907781 1.72449567723343 -0.00000000000000 -0.00000000000000 1.00000000000000
0.21533141210375 0.20149855907781 1.72449567723343 0.00000000000000 -0.00000000000000 1.00000000000000
0.23976811594203 0.20266666666667 1.73449275362319 0.00000000000000 -0.00000000000000 1.00000000000000
0.26372093023256 0.20325581395349 1.73953488372093 -0.00000000000000 0.00000000000000 1.00000000000000
0.24136919315403 0.17095354523227 1.46308068459658 0.00000000000000 0.00000000000000 -1.00000000000000
0.25902912621359 0.16970873786408 1.45242718446602 0.00000000000000 -0.00000000000000 -1.00000000000000
-0.32047904191617 0.20982035928144 1.79161676646707 0.00000000000000 0.00000000000000 1.00000000000000
-0.29564179104478 0.20919402985075 1.78626865671642 -0.00000000000000 0.00000000000000 1.00000000000000
-0.27095238095238 0.20857142857143 1.78095238095238 0.00000000000000 -0.00000000000000 1.00000000000000
-0.22626702997275 0.19095367847411 1.63051771117166 0.00000000000000 0.00000000000000 1.00000000000000
-0.20391304347826 0.19043478260870 1.62608695652174 0.00000000000000 0.00000000000000 1.00000000000000
-0.18367123287671 0.19200000000000 1.63945205479452 -0.00000000000000 0.00000000000000 1.00000000000000
-0.16772727272727 0.19909090909091 1.70000000000000 0.00000000000000 0.00000000000000 1.00000000000000
-0.14967741935484 0.20551319648094 1.75483870967742 -0.00000000000000 -0.00000000000000 1.00000000000000
-0.11824175824176 0.19252747252747 1.64395604395604 0.00000000000000 0.00000000000000 -1.00000000000000
-0.10522522522523 0.21045045045045 1.79699699699700 nan nan nan
-0.08120120120120 0.21045045045045 1.79699699699700 0.00000000000000 -0.00000000000000 1.00000000000000
-0.05118279569892 0.18838709677419 1.60860215053763 -0.96152274856365 -0.27472078530390 0.00157927724172
-0.02928381962865 0.18588859416446 1.58726790450928 0.00000000000000 0.00000000000000 1.00000000000000
-0.00775510204082 0.17877551020408 1.52653061224490 0.06514381344946 -0.91201338829247 -0.40495414943490
0.01347826086957 0.19043478260870 1.62608695652174 nan nan nan
0.04012383900929 0.21696594427245 1.85263157894737 0.75687837807826 0.63073198173189 0.17120831760808
0.06201183431953 0.20733727810651 1.77041420118343 -0.00000000000000 0.00000000000000 -1.00000000000000
0.08517647058824 0.20611764705882 1.76000000000000 -0.00000000000000 0.00000000000000 -1.00000000000000
0.10181818181818 0.19305785123967 1.64848484848485 0.99898440314574 0.04343410448460 -0.01198502562249
0.12053619302949 0.18788203753351 1.60428954423592 0.00000000000000 -0.00000000000000 -1.00000000000000
0.14160427807487 0.18737967914439 1.60000000000000 -0.00000000000000 0.00000000000000 1.00000000000000
0.16431266846361 0.18889487870620 1.61293800539084 -0.00000000000000 0.00000000000000 -1.00000000000000
0.19873198847262 0.20195965417867 1.72449567723343 0.00000000000000 0.00000000000000 1.00000000000000
0.22242774566474 0.20254335260116 1.72947976878613 0.00000000000000 0.00000000000000 1.00000000000000
0.24697674418605 0.20372093023256 1.73953488372093 0.00000000000000 0.00000000000000 1.00000000000000
0.29511111111111 0.22247619047619 1.89968253968254 0.99248465121460 0.09873555315701 0.07228767285097
0.24624390243902 0.17092682926829 1.45951219512195 0.00000000000000 0.00000000000000 -1.00000000000000
0.26382566585956 0.16968523002421 1.44891041162228 0.00000000000000 0.00000000000000 -1.00000000000000
-0.31283582089552 0.20967164179104 1.78626865671642 -0.00000000000000 -0.00000000000000 -1.00000000000000
-0.28982035928144 0.21029940119760 1.79161676646707 0.00000000000000 0.00000000000000 1.00000000000000
-0.24598337950139 0.19457063711911 1.65761772853186 -0.91406466280944 0.10156274031215 -0.39264589897687
-0.21956521739130 0.19086956521739 1.62608695652174 0.00000000000000 -0.00000000000000 1.00000000000000
-0.19782608695652 0.19086956521739 1.62608695652174 nan nan nan
-0.17851239669421 0.19349862258953 1.64848484848485 -0.00000000000000 0.00000000000000 -1.00000000000000
-0.16182336182336 0.20011396011396 1.70484330484330 -0.29764573748477 -0.79372196662602 0.53048322749401
-0.14610778443114 0.21029940119760 1.79161676646707 -0.32122905987153 -0.85661082632410 -0.40376946803640
-0.11301939058172 0.19457063711911 1.65761772853186 0.98560236490285 -0.06160014780643 -0.15745920134477
-0.09849849849850 0.21093093093093 1.79699699699700 0.00000000000000 -0.00000000000000 1.00000000000000
-0.08025889967638 0.22731391585761 1.93656957928803 0.00000000000000 -0.00000000000000 1.00000000000000
-0.04480000000000 0.18730666666667 1.59573333333333 0.00000000000000 0.00000000000000 1.00000000000000
-0.02222222222222 0.17737373737374 1.51111111111111 0.98463018981626 0.13693532441153 -0.10840713182580
-0.00211081794195 0.18532981530343 1.57889182058047 0.00000000000000 0.00000000000000 1.00000000000000
0.02022471910112 0.19730337078652 1.68089887640449 0.04035956068109 -0.92826989566511 0.36971084196101
0.04887459807074 0.22585209003215 1.92411575562701 -0.74643480294129 0.33767288704488 0.57342140377978
0.06843657817109 0.20719764011799 1.76519174041298 -0.00000000000000 0.00000000000000 -1.00000000000000
0.09203539823009 0.20719764011799 1.76519174041298 0.00000000000000 -0.00000000000000 1.00000000000000
0.10623306233062 0.19035230352304 1.62168021680217 0.00000000000000 0.00000000000000 -1.00000000000000
0.12620320855615 0.18780748663102 1.60000000000000 0.00000000000000 -0.00000000000000 -1.00000000000000
0.14759358288770 0.18780748663102 1.60000000000000 0.00000000000000 -0.00000000000000 -1.00000000000000
0.17752808988764 0.19730337078652 1.68089887640449 -0.98741341617404 -0.05410484472187 0.14861834118687
0.20518731988473 0.20242074927954 1.72449567723343 0.00000000000000 -0.00000000000000 -1.00000000000000
0.22890173410405 0.20300578034682 1.72947976878613 0.00000000000000 -0.00000000000000 1.00000000000000
0.25348837209302 0.20418604651163 1.73953488372093 0.00000000000000 -0.00000000000000 1.00000000000000
0.23448275862069 0.17300492610837 1.47389162561576 -0.44118045541510 0.66177068312265 -0.60615127544130
0.25109489051095 0.17090024330900 1.45596107055961 0.00000000000000 0.00000000000000 -1.00000000000000
-0.33101796407186 0.21077844311377 1.79161676646707 -0.31687471800307 -0.84499924800820 -0.43077451637261
-0.30523809523810 0.20952380952381 1.78095238095238 0.00000000000000 -0.00000000000000 1.00000000000000
-0.28226865671642 0.21014925373134 1.78626865671642 0.00000000000000 0.00000000000000 1.00000000000000
-0.23715068493151 0.19287671232877 1.63945205479452 -0.00000000000000 0.00000000000000 -1.00000000000000
-0.21289972899729 0.19078590785908 1.62168021680217 0.00000000000000 -0.00000000000000 1.00000000000000
-0.19226158038147 0.19182561307902 1.63051771117166 0.00000000000000 -0.00000000000000 -1.00000000000000
-0.17329639889197 0.19501385041551 1.65761772853186 0.00000000000000 -0.00000000000000 1.00000000000000
-0.15768786127168 0.20346820809249 1.72947976878613 -0.62461521222617 0.56717933064215 -0.53680857253585
-0.13940119760479 0.21077844311377 1.79161676646707 -0.50043185156010 0.75064777734015 0.43138831268177
-0.11144508670520 0.20346820809249 1.72947976878613 -0.82027647336958 0.56394007544159 -0.09548873518537
-0.09177177177177 0.21141141141141 1.79699699699700 nan nan nan
-0.06941538461538 0.21661538461538 1.84123076923077 -0.00000000000000 0.00000000000000 -1.00000000000000
-0.03872340425532 0.18723404255319 1.59148936170213 0.00000000000000 0.00000000000000 1.00000000000000
-0.01652392947103 0.17732997481108 1.50730478589421 -0.00000000000000 0.00000000000000 -1.00000000000000
0.00392370572207 0.19182561307902 1.63051771117166 0.00000000000000 0.00000000000000 1.00000000000000
0.02904615384615 0.21661538461538 1.84123076923077 -0.00000000000000 0.00000000000000 -1.00000000000000
0.05253012048193 0.21204819277108 1.80240963855422 0.93728840255856 -0.34753390207228 0.02665778197146
0.07482352941176 0.20705882352941 1.76000000000000 nan nan nan
0.09864306784661 0.20766961651917 1.76519174041298 0.00000000000000 0.00000000000000 1.00000000000000
0.11139784946237 0.18924731182796 1.60860215053763 -0.00000000000000 0.00000000000000 1.00000000000000
0.13219251336898 0.18823529411765 1.60000000000000 -0.00000000000000 0.00000000000000 -1.00000000000000
0.15399463806971 0.18873994638070 1.60428954423592 0.00000000000000 0.00000000000000 -1.00000000000000
0.18913294797688 0.20346820809249 1.72947976878613 0.00000000000000 0.00000000000000 1.00000000000000
0.21164265129683 0.20288184438040 1.72449567723343 0.00000000000000 0.00000000000000 1.00000000000000
0.23605797101449 0.20405797101449 1.73449275362319 0.00000000000000 0.00000000000000 1.00000000000000
0.26000000000000 0.20465116279070 1.73953488372093 0.00000000000000 -0.00000000000000 1.00000000000000
0.23882352941176 0.17254901960784 1.46666666666667 0.00000000000000 0.00000000000000 -1.00000000000000
0.25654501216545 0.17128953771290 1.45596107055961 -0.00000000000000 0.00000000000000 -1.00000000000000
-0.32334328358209 0.21062686567164 1.78626865671642 0.00000000000000 -0.00000000000000 1.00000000000000
-0.29857142857143 0.21000000000000 1.78095238095238 0.00000000000000 -0.00000000000000 1.00000000000000
-0.27476190476190 0.21000000000000 1.78095238095238 -0.00000000000000 -0.00000000000000 1.00000000000000
