ply
            format ascii 1.0
            element vertex 30627
            property float x
            property float y
            property float z
            property float nx
            property float ny
            property float nz
end_header
0.14063694267516 0.05707006369427 1.90573248407643 0.00000000000000 0.00000000000000 1.00000000000000
0.16402515723270 0.05635220125786 1.88176100628931 0.00000000000000 -0.00000000000000 1.00000000000000
0.18977917981073 0.05652996845426 1.88769716088328 -0.00000000000000 0.00000000000000 1.00000000000000
0.21501577287066 0.05652996845426 1.88769716088328 -0.00000000000000 0.00000000000000 -1.00000000000000
0.23949685534591 0.05635220125786 1.88176100628931 0.00000000000000 -0.00000000000000 1.00000000000000
0.26382445141066 0.05617554858934 1.87586206896552 0.00000000000000 -0.00000000000000 1.00000000000000
0.28800000000000 0.05600000000000 1.87000000000000 0.00000000000000 -0.00000000000000 1.00000000000000
0.31300000000000 0.05600000000000 1.87000000000000 -0.00000000000000 0.00000000000000 -1.00000000000000
0.33694704049844 0.05582554517134 1.86417445482866 -0.00000000000000 0.00000000000000 -1.00000000000000
-0.33207547169811 0.05685534591195 1.88176100628931 0.00000000000000 0.00000000000000 -1.00000000000000
-0.30886075949367 0.05721518987342 1.89367088607595 -0.00000000000000 0.00000000000000 1.00000000000000
-0.30476190476190 0.06149659863946 2.03537414965986 -0.92415214531749 0.33605532556999 0.18168552628410
-0.27945205479452 0.06191780821918 2.04931506849315 0.00000000000000 -0.00000000000000 -1.00000000000000
-0.25292096219931 0.06213058419244 2.05635738831615 -0.00000000000000 0.00000000000000 1.00000000000000
-0.20564263322884 0.05667711598746 1.87586206896552 -0.00000000000000 0.00000000000000 1.00000000000000
-0.18113207547170 0.05685534591195 1.88176100628931 -0.00000000000000 0.00000000000000 1.00000000000000
-0.15597484276730 0.05685534591195 1.88176100628931 0.00000000000000 0.00000000000000 1.00000000000000
-0.13164556962025 0.05721518987342 1.89367088607595 -0.00000000000000 0.00000000000000 1.00000000000000
-0.10700636942675 0.05757961783439 1.90573248407643 -0.49095795991566 0.73643693987350 0.46542552055641
-0.08561872909699 0.06046822742475 2.00133779264214 0.00000000000000 0.00000000000000 1.00000000000000
-0.05886287625418 0.06046822742475 2.00133779264214 0.00000000000000 -0.00000000000000 -1.00000000000000
-0.03210702341137 0.06046822742475 2.00133779264214 0.00000000000000 0.00000000000000 1.00000000000000
-0.00511182108626 0.05776357827476 1.91182108626198 0.06882184439313 -0.96350582150387 -0.25868916804243
0.02133333333333 0.06026666666667 1.99466666666667 nan nan nan
0.04784053156146 0.06006644518272 1.98803986710963 0.00000000000000 0.00000000000000 -1.00000000000000
0.07441860465116 0.06006644518272 1.98803986710963 0.00000000000000 -0.00000000000000 1.00000000000000
0.10099667774086 0.06006644518272 1.98803986710963 0.00000000000000 -0.00000000000000 -1.00000000000000
0.12229299363057 0.05757961783439 1.90573248407643 0.00000000000000 -0.00000000000000 1.00000000000000
0.14730158730159 0.05739682539683 1.89968253968254 -0.00000000000000 -0.00000000000000 1.00000000000000
0.17160883280757 0.05703470031546 1.88769716088328 nan nan nan
0.19684542586751 0.05703470031546 1.88769716088328 -0.00000000000000 0.00000000000000 1.00000000000000
0.22138364779874 0.05685534591195 1.88176100628931 0.00000000000000 -0.00000000000000 1.00000000000000
0.24654088050314 0.05685534591195 1.88176100628931 0.00000000000000 -0.00000000000000 -1.00000000000000
0.27084639498433 0.05667711598746 1.87586206896552 -0.00000000000000 0.00000000000000 1.00000000000000
0.29500000000000 0.05650000000000 1.87000000000000 nan nan nan
0.32000000000000 0.05650000000000 1.87000000000000 0.00000000000000 0.00000000000000 1.00000000000000
0.34392523364486 0.05632398753894 1.86417445482866 0.00000000000000 0.00000000000000 1.00000000000000
-0.32503144654088 0.05735849056604 1.88176100628931 -0.00000000000000 0.00000000000000 1.00000000000000
-0.30177215189873 0.05772151898734 1.89367088607595 -0.00000000000000 0.00000000000000 -1.00000000000000
-0.29917808219178 0.06246575342466 2.04931506849315 0.00000000000000 0.00000000000000 -1.00000000000000
-0.27178082191781 0.06246575342466 2.04931506849315 0.00000000000000 0.00000000000000 1.00000000000000
-0.22440251572327 0.05735849056604 1.88176100628931 -0.78585751176172 -0.55472294947886 -0.27333207007075
-0.19862068965517 0.05717868338558 1.87586206896552 0.00000000000000 -0.00000000000000 1.00000000000000
-0.17354231974922 0.05717868338558 1.87586206896552 0.00000000000000 0.00000000000000 1.00000000000000
-0.14940063091483 0.05753943217666 1.88769716088328 0.00000000000000 0.00000000000000 1.00000000000000
-0.12495238095238 0.05790476190476 1.89968253968254 -0.00000000000000 0.00000000000000 1.00000000000000
-0.10453333333333 0.06080000000000 1.99466666666667 -0.90428202835037 0.32882982849104 0.27229571626652
-0.07812709030100 0.06100334448161 2.00133779264214 -0.00000000000000 0.00000000000000 1.00000000000000
-0.05137123745819 0.06100334448161 2.00133779264214 0.00000000000000 -0.00000000000000 -1.00000000000000
-0.02366559485531 0.05864951768489 1.92411575562701 -0.16343694115065 -0.98062164690391 -0.10802570014021
0.00204472843450 0.05827476038339 1.91182108626198 0.06882184439313 -0.96350582150387 -0.25868916804242
0.02880000000000 0.06080000000000 1.99466666666667 -0.00000000000000 0.00000000000000 1.00000000000000
0.05528239202658 0.06059800664452 1.98803986710963 0.00000000000000 -0.00000000000000 1.00000000000000
0.08186046511628 0.06059800664452 1.98803986710963 0.00000000000000 -0.00000000000000 1.00000000000000
0.10880000000000 0.06080000000000 1.99466666666667 0.00000000000000 0.00000000000000 1.00000000000000
0.12942675159236 0.05808917197452 1.90573248407643 0.00000000000000 0.00000000000000 1.00000000000000
0.15392405063291 0.05772151898734 1.89367088607595 -0.00000000000000 -0.00000000000000 -1.00000000000000
0.17867507886435 0.05753943217666 1.88769716088328 -0.00000000000000 0.00000000000000 1.00000000000000
0.20391167192429 0.05753943217666 1.88769716088328 0.00000000000000 -0.00000000000000 1.00000000000000
0.22842767295597 0.05735849056604 1.88176100628931 0.00000000000000 -0.00000000000000 -1.00000000000000
0.25358490566038 0.05735849056604 1.88176100628931 -0.00000000000000 0.00000000000000 1.00000000000000
0.27786833855799 0.05717868338558 1.87586206896552 0.00000000000000 -0.00000000000000 1.00000000000000
0.30200000000000 0.05700000000000 1.87000000000000 0.00000000000000 -0.00000000000000 1.00000000000000
0.32598130841121 0.05682242990654 1.86417445482866 0.00000000000000 -0.00000000000000 1.00000000000000
-0.34206896551724 0.05768025078370 1.87586206896552 -0.00000000000000 0.00000000000000 1.00000000000000
-0.31899053627760 0.05804416403785 1.88769716088328 0.00000000000000 -0.00000000000000 1.00000000000000
-0.29561904761905 0.05841269841270 1.89968253968254 -0.00000000000000 0.00000000000000 1.00000000000000
-0.29150684931507 0.06301369863014 2.04931506849315 0.00000000000000 -0.00000000000000 -1.00000000000000
-0.26501718213058 0.06323024054983 2.05635738831615 nan nan nan
-0.21600000000000 0.05750000000000 1.87000000000000 0.00000000000000 -0.00000000000000 1.00000000000000
-0.19159874608150 0.05768025078370 1.87586206896552 -0.00000000000000 0.00000000000000 1.00000000000000
-0.16704402515723 0.05786163522013 1.88176100628931 0.00000000000000 -0.00000000000000 1.00000000000000
-0.14278481012658 0.05822784810127 1.89367088607595 -0.00000000000000 0.00000000000000 1.00000000000000
-0.11784126984127 0.05841269841270 1.89968253968254 -0.00000000000000 0.00000000000000 1.00000000000000
-0.09739130434783 0.06153846153846 2.00133779264214 -0.00000000000000 0.00000000000000 -1.00000000000000
-0.07063545150502 0.06153846153846 2.00133779264214 -0.00000000000000 0.00000000000000 1.00000000000000
-0.04387959866221 0.06153846153846 2.00133779264214 -0.00000000000000 0.00000000000000 1.00000000000000
-0.01635782747604 0.05878594249201 1.91182108626198 0.37453794853703 0.92619729145610 -0.04335784133310
0.00917197452229 0.05859872611465 1.90573248407643 -0.48413937178085 0.72620905767128 0.48808756719243
0.03626666666667 0.06133333333333 1.99466666666667 -0.00000000000000 0.00000000000000 -1.00000000000000
0.06272425249169 0.06112956810631 1.98803986710963 0.00000000000000 -0.00000000000000 -1.00000000000000
0.08930232558140 0.06112956810631 1.98803986710963 0.00000000000000 -0.00000000000000 1.00000000000000
0.11215434083601 0.05916398713826 1.92411575562701 -0.68895793284177 -0.68895793284177 -0.22510871495524
0.13656050955414 0.05859872611465 1.90573248407643 -0.00000000000000 0.00000000000000 1.00000000000000
0.16000000000000 0.05786163522013 1.88176100628931 0.00000000000000 -0.00000000000000 1.00000000000000
0.18574132492114 0.05804416403785 1.88769716088328 -0.00000000000000 0.00000000000000 1.00000000000000
0.21097791798107 0.05804416403785 1.88769716088328 0.00000000000000 -0.00000000000000 -1.00000000000000
0.23547169811321 0.05786163522013 1.88176100628931 0.00000000000000 -0.00000000000000 1.00000000000000
0.25981191222571 0.05768025078370 1.87586206896552 0.00000000000000 -0.00000000000000 1.00000000000000
0.28489028213166 0.05768025078370 1.87586206896552 0.00000000000000 0.00000000000000 1.00000000000000
0.30900000000000 0.05750000000000 1.87000000000000 nan nan nan
0.33295950155763 0.05732087227414 1.86417445482866 -0.00000000000000 0.00000000000000 -1.00000000000000
-0.33504702194357 0.05818181818182 1.87586206896552 0.00000000000000 -0.00000000000000 1.00000000000000
-0.31192429022082 0.05854889589905 1.88769716088328 -0.00000000000000 0.00000000000000 -1.00000000000000
-0.28942675159236 0.05910828025478 1.90573248407643 0.00000000000000 0.00000000000000 1.00000000000000
-0.28383561643836 0.06356164383562 2.04931506849315 -0.00000000000000 0.00000000000000 1.00000000000000
-0.25731958762887 0.06378006872852 2.05635738831615 0.00000000000000 -0.00000000000000 1.00000000000000
-0.20900000000000 0.05800000000000 1.87000000000000 -0.00000000000000 0.00000000000000 -1.00000000000000
-0.18515723270440 0.05836477987421 1.88176100628931 -0.00000000000000 0.00000000000000 1.00000000000000
-0.16000000000000 0.05836477987421 1.88176100628931 0.00000000000000 0.00000000000000 -1.00000000000000
-0.13569620253165 0.05873417721519 1.89367088607595 0.00000000000000 -0.00000000000000 1.00000000000000
-0.11073015873016 0.05892063492063 1.89968253968254 0.00000000000000 -0.00000000000000 1.00000000000000
-0.09020134228188 0.06228187919463 2.00805369127517 0.00000000000000 -0.00000000000000 1.00000000000000
-0.06314381270903 0.06207357859532 2.00133779264214 0.00000000000000 -0.00000000000000 -1.00000000000000
-0.03626666666667 0.06186666666667 1.99466666666667 -0.32058464792295 -0.85489239446119 -0.40790253420214
-0.00917197452229 0.05910828025478 1.90573248407643 0.06882184439313 -0.96350582150387 -0.25868916804242
0.01641025641026 0.05948717948718 1.91794871794872 0.55457721636345 -0.83186582454517 0.02105614030043
0.04373333333333 0.06186666666667 1.99466666666667 -0.00000000000000 0.00000000000000 -1.00000000000000
0.07016611295681 0.06166112956811 1.98803986710963 0.00000000000000 -0.00000000000000 1.00000000000000
0.09674418604651 0.06166112956811 1.98803986710963 0.00000000000000 -0.00000000000000 1.00000000000000
0.11859424920128 0.05929712460064 1.91182108626198 -0.00000000000000 -0.00000000000000 -1.00000000000000
0.14323809523810 0.05892063492063 1.89968253968254 0.00000000000000 -0.00000000000000 1.00000000000000
0.16704402515723 0.05836477987421 1.88176100628931 0.00000000000000 -0.00000000000000 1.00000000000000
0.19280757097792 0.05854889589905 1.88769716088328 0.00000000000000 -0.00000000000000 1.00000000000000
0.21735849056604 0.05836477987421 1.88176100628931 0.00000000000000 -0.00000000000000 1.00000000000000
0.24251572327044 0.05836477987421 1.88176100628931 nan nan nan
0.26683385579937 0.05818181818182 1.87586206896552 nan nan nan
0.29100000000000 0.05800000000000 1.87000000000000 nan nan nan
0.31501557632399 0.05781931464174 1.86417445482866 0.00000000000000 -0.00000000000000 1.00000000000000
0.33993769470405 0.05781931464174 1.86417445482866 -0.00000000000000 0.00000000000000 1.00000000000000
-0.32905660377358 0.05886792452830 1.88176100628931 -0.00000000000000 0.00000000000000 1.00000000000000
-0.30582278481013 0.05924050632911 1.89367088607595 0.00000000000000 -0.00000000000000 1.00000000000000
-0.30252559726962 0.06389078498294 2.04232081911263 0.00000000000000 -0.00000000000000 -1.00000000000000
-0.27616438356164 0.06410958904110 2.04931506849315 -0.00000000000000 0.00000000000000 -1.00000000000000
-0.24962199312715 0.06432989690722 2.05635738831615 0.00000000000000 0.00000000000000 1.00000000000000
-0.20263322884013 0.05868338557994 1.87586206896552 0.00000000000000 -0.00000000000000 1.00000000000000
-0.17811320754717 0.05886792452830 1.88176100628931 0.00000000000000 -0.00000000000000 1.00000000000000
-0.15343848580442 0.05905362776025 1.88769716088328 0.00000000000000 -0.00000000000000 1.00000000000000
-0.12860759493671 0.05924050632911 1.89367088607595 -0.00000000000000 0.00000000000000 -1.00000000000000
-0.10394904458599 0.05961783439490 1.90573248407643 0.49095795991566 -0.73643693987350 -0.46542552055641
-0.08268456375839 0.06281879194631 2.00805369127517 0.00000000000000 0.00000000000000 1.00000000000000
-0.05565217391304 0.06260869565217 2.00133779264214 -0.00000000000000 0.00000000000000 -1.00000000000000
-0.02769230769231 0.06000000000000 1.91794871794872 0.42109877481618 0.90395870327207 -0.07439411688419
-0.00203821656051 0.05961783439490 1.90573248407643 0.06882184439313 -0.96350582150387 -0.25868916804243
0.02453333333333 0.06240000000000 1.99466666666667 0.00000000000000 -0.00000000000000 -1.00000000000000
0.05102990033223 0.06219269102990 1.98803986710963 -0.00000000000000 0.00000000000000 -1.00000000000000
0.07760797342193 0.06219269102990 1.98803986710963 -0.00000000000000 0.00000000000000 -1.00000000000000
0.10418604651163 0.06219269102990 1.98803986710963 -0.00000000000000 0.00000000000000 -1.00000000000000
0.12535031847134 0.05961783439490 1.90573248407643 -0.00000000000000 0.00000000000000 -1.00000000000000
0.14987341772152 0.05924050632911 1.89367088607595 0.00000000000000 0.00000000000000 -1.00000000000000
0.17463722397476 0.05905362776025 1.88769716088328 -0.00000000000000 0.00000000000000 1.00000000000000
0.19987381703470 0.05905362776025 1.88769716088328 0.00000000000000 0.00000000000000 1.00000000000000
0.22440251572327 0.05886792452830 1.88176100628931 -0.00000000000000 0.00000000000000 1.00000000000000
0.24955974842767 0.05886792452830 1.88176100628931 nan nan nan
0.27385579937304 0.05868338557994 1.87586206896552 0.00000000000000 -0.00000000000000 1.00000000000000
0.29800000000000 0.05850000000000 1.87000000000000 nan nan nan
0.32199376947040 0.05831775700935 1.86417445482866 0.00000000000000 -0.00000000000000 1.00000000000000
-0.34608150470219 0.05918495297806 1.87586206896552 0.00000000000000 -0.00000000000000 1.00000000000000
-0.32201257861635 0.05937106918239 1.88176100628931 0.00000000000000 0.00000000000000 1.00000000000000
-0.29968253968254 0.05993650793651 1.89968253968254 0.00000000000000 0.00000000000000 -1.00000000000000
-0.29589041095890 0.06465753424658 2.04931506849315 -0.00000000000000 0.00000000000000 1.00000000000000
-0.26941580756014 0.06487972508591 2.05635738831615 0.00000000000000 -0.00000000000000 1.00000000000000
-0.22000000000000 0.05900000000000 1.87000000000000 0.00000000000000 -0.00000000000000 1.00000000000000
-0.19561128526646 0.05918495297806 1.87586206896552 -0.00000000000000 0.00000000000000 1.00000000000000
-0.17106918238994 0.05937106918239 1.88176100628931 0.00000000000000 -0.00000000000000 1.00000000000000
-0.14683544303797 0.05974683544304 1.89367088607595 0.00000000000000 -0.00000000000000 1.00000000000000
-0.12190476190476 0.05993650793651 1.89968253968254 0.00000000000000 -0.00000000000000 1.00000000000000
-0.10167224080268 0.06314381270903 2.00133779264214 0.00000000000000 0.00000000000000 -1.00000000000000
-0.07491638795987 0.06314381270903 2.00133779264214 -0.00000000000000 0.00000000000000 -1.00000000000000
-0.04816053511706 0.06314381270903 2.00133779264214 0.00000000000000 0.00000000000000 1.00000000000000
-0.02038216560510 0.06012738853503 1.90573248407643 -0.31831994610669 -0.84885318961783 -0.42204345082736
0.00507936507937 0.05993650793651 1.89968253968254 -0.31870049291702 -0.84986798111207 -0.41970752970961
0.03200000000000 0.06293333333333 1.99466666666667 -0.00000000000000 0.00000000000000 -1.00000000000000
0.05847176079734 0.06272425249169 1.98803986710963 nan nan nan
0.08504983388704 0.06272425249169 1.98803986710963 -0.00000000000000 0.00000000000000 1.00000000000000
0.10838709677419 0.06090322580645 1.93032258064516 0.58073764786632 0.80409828166106 0.12716028381705
0.13206349206349 0.05993650793651 1.89968253968254 0.00000000000000 -0.00000000000000 1.00000000000000
0.15597484276730 0.05937106918239 1.88176100628931 0.00000000000000 -0.00000000000000 1.00000000000000
0.18170347003155 0.05955835962145 1.88769716088328 0.00000000000000 -0.00000000000000 1.00000000000000
0.20694006309148 0.05955835962145 1.88769716088328 0.00000000000000 0.00000000000000 1.00000000000000
0.23144654088050 0.05937106918239 1.88176100628931 -0.00000000000000 0.00000000000000 1.00000000000000
0.25660377358491 0.05937106918239 1.88176100628931 0.00000000000000 0.00000000000000 1.00000000000000
0.28087774294671 0.05918495297806 1.87586206896552 -0.00000000000000 0.00000000000000 -1.00000000000000
0.30500000000000 0.05900000000000 1.87000000000000 -0.00000000000000 0.00000000000000 1.00000000000000
0.32897196261682 0.05881619937695 1.86417445482866 0.00000000000000 -0.00000000000000 1.00000000000000
-0.33905956112853 0.05968652037618 1.87586206896552 0.00000000000000 -0.00000000000000 1.00000000000000
-0.31596214511041 0.06006309148265 1.88769716088328 -0.00000000000000 0.00000000000000 -1.00000000000000
-0.29257142857143 0.06044444444444 1.89968253968254 -0.00000000000000 0.00000000000000 -1.00000000000000
-0.28821917808219 0.06520547945205 2.04931506849315 -0.00000000000000 0.00000000000000 -1.00000000000000
-0.26171821305842 0.06542955326460 2.05635738831615 -0.00000000000000 0.00000000000000 1.00000000000000
-0.21300000000000 0.05950000000000 1.87000000000000 -0.00000000000000 0.00000000000000 1.00000000000000
-0.18858934169279 0.05968652037618 1.87586206896552 -0.00000000000000 0.00000000000000 -1.00000000000000
-0.16402515723270 0.05987421383648 1.88176100628931 0.00000000000000 0.00000000000000 1.00000000000000
-0.13974683544304 0.06025316455696 1.89367088607595 0.00000000000000 -0.00000000000000 1.00000000000000
-0.11479365079365 0.06044444444444 1.89968253968254 0.00000000000000 -0.00000000000000 1.00000000000000
-0.09449664429530 0.06389261744966 2.00805369127517 0.00000000000000 -0.00000000000000 1.00000000000000
-0.06742474916388 0.06367892976589 2.00133779264214 0.00000000000000 -0.00000000000000 1.00000000000000
-0.04066889632107 0.06367892976589 2.00133779264214 0.00000000000000 0.00000000000000 1.00000000000000
-0.01320634920635 0.06044444444444 1.89968253968254 0.00000000000000 0.00000000000000 1.00000000000000
0.01222929936306 0.06063694267516 1.90573248407643 0.55455462091118 -0.83183193136677 0.02290874035582
0.03946666666667 0.06346666666667 1.99466666666667 0.00000000000000 -0.00000000000000 -1.00000000000000
0.06591362126246 0.06325581395349 1.98803986710963 -0.00000000000000 0.00000000000000 1.00000000000000
0.09249169435216 0.06325581395349 1.98803986710963 -0.00000000000000 0.00000000000000 1.00000000000000
0.11450479233227 0.06083067092652 1.91182108626198 0.00000000000000 0.00000000000000 -1.00000000000000
0.13961783439490 0.06063694267516 1.90573248407643 0.00000000000000 0.00000000000000 1.00000000000000
0.16301886792453 0.05987421383648 1.88176100628931 nan nan nan
0.18876971608833 0.06006309148265 1.88769716088328 0.00000000000000 -0.00000000000000 1.00000000000000
0.21400630914826 0.06006309148265 1.88769716088328 0.00000000000000 0.00000000000000 1.00000000000000
0.23849056603774 0.05987421383648 1.88176100628931 -0.00000000000000 0.00000000000000 1.00000000000000
0.26282131661442 0.05968652037618 1.87586206896552 nan nan nan
0.28700000000000 0.05950000000000 1.87000000000000 0.00000000000000 0.00000000000000 -1.00000000000000
0.31200000000000 0.05950000000000 1.87000000000000 0.00000000000000 0.00000000000000 1.00000000000000
0.33595015576324 0.05931464174455 1.86417445482866 -0.00000000000000 0.00000000000000 1.00000000000000
-0.33203761755486 0.06018808777429 1.87586206896552 -0.00000000000000 0.00000000000000 1.00000000000000
-0.30987341772152 0.06075949367089 1.89367088607595 0.00000000000000 0.00000000000000 -1.00000000000000
-0.28913183279743 0.06173633440514 1.92411575562701 0.95279505034557 0.27222715724159 0.13443945439177
-0.28054794520548 0.06575342465753 2.04931506849315 0.00000000000000 -0.00000000000000 1.00000000000000
-0.25402061855670 0.06597938144330 2.05635738831615 0.00000000000000 0.00000000000000 1.00000000000000
-0.20664576802508 0.06018808777429 1.87586206896552 0.00000000000000 0.00000000000000 -1.00000000000000
-0.18213836477987 0.06037735849057 1.88176100628931 0.00000000000000 -0.00000000000000 1.00000000000000
-0.15747634069401 0.06056782334385 1.88769716088328 0.00000000000000 -0.00000000000000 1.00000000000000
-0.13265822784810 0.06075949367089 1.89367088607595 0.00000000000000 0.00000000000000 1.00000000000000
-0.10768253968254 0.06095238095238 1.89968253968254 -0.00000000000000 0.00000000000000 -1.00000000000000
-0.08697986577181 0.06442953020134 2.00805369127517 -0.00000000000000 0.00000000000000 -1.00000000000000
-0.05993311036789 0.06421404682274 2.00133779264214 -0.00000000000000 0.00000000000000 -1.00000000000000
-0.03169329073482 0.06134185303514 1.91182108626198 -0.31831994610668 -0.84885318961783 -0.42204345082738
-0.00609523809524 0.06095238095238 1.89968253968254 -0.31851036985635 -0.84936098628359 -0.42087653685295
0.01942492012780 0.06134185303514 1.91182108626198 0.55457721636345 -0.83186582454517 0.02105614030043
0.04693333333333 0.06400000000000 1.99466666666667 -0.00000000000000 0.00000000000000 -1.00000000000000
0.07335548172757 0.06378737541528 1.98803986710963 nan nan nan
0.09993355481728 0.06378737541528 1.98803986710963 nan nan nan
0.12127388535032 0.06114649681529 1.90573248407643 0.00000000000000 0.00000000000000 -1.00000000000000
0.14628571428571 0.06095238095238 1.89968253968254 -0.00000000000000 0.00000000000000 -1.00000000000000
0.17006289308176 0.06037735849057 1.88176100628931 nan nan nan
0.19583596214511 0.06056782334385 1.88769716088328 0.00000000000000 0.00000000000000 1.00000000000000
0.22037735849057 0.06037735849057 1.88176100628931 0.00000000000000 -0.00000000000000 1.00000000000000
0.24553459119497 0.06037735849057 1.88176100628931 -0.00000000000000 0.00000000000000 1.00000000000000
0.26984326018809 0.06018808777429 1.87586206896552 -0.00000000000000 0.00000000000000 1.00000000000000
0.29400000000000 0.06000000000000 1.87000000000000 -0.00000000000000 0.00000000000000 -1.00000000000000
0.31800623052959 0.05981308411215 1.86417445482866 -0.00000000000000 0.00000000000000 1.00000000000000
0.34292834890966 0.05981308411215 1.86417445482866 -0.00000000000000 0.00000000000000 -1.00000000000000
-0.32603773584906 0.06088050314465 1.88176100628931 0.00000000000000 -0.00000000000000 1.00000000000000
-0.30278481012658 0.06126582278481 1.89367088607595 -0.00000000000000 0.00000000000000 -1.00000000000000
-0.30027397260274 0.06630136986301 2.04931506849315 0.00000000000000 -0.00000000000000 1.00000000000000
-0.27287671232877 0.06630136986301 2.04931506849315 0.00000000000000 0.00000000000000 1.00000000000000
-0.22400000000000 0.06050000000000 1.87000000000000 0.00000000000000 0.00000000000000 -1.00000000000000
-0.19962382445141 0.06068965517241 1.87586206896552 -0.00000000000000 0.00000000000000 1.00000000000000
-0.17509433962264 0.06088050314465 1.88176100628931 nan nan nan
-0.15041009463722 0.06107255520505 1.88769716088328 -0.00000000000000 0.00000000000000 -1.00000000000000
-0.12596825396825 0.06146031746032 1.89968253968254 0.00000000000000 -0.00000000000000 1.00000000000000
-0.10386885245902 0.06347540983607 1.96196721311475 -0.02089788125639 -0.75232372523029 -0.65846206497764
-0.07919732441472 0.06474916387960 2.00133779264214 0.00000000000000 0.00000000000000 -1.00000000000000
-0.05244147157191 0.06474916387960 2.00133779264214 0.00000000000000 0.00000000000000 1.00000000000000
-0.02445859872611 0.06165605095541 1.90573248407643 0.00000000000000 0.00000000000000 1.00000000000000
0.00101265822785 0.06126582278481 1.89367088607595 0.00000000000000 -0.00000000000000 1.00000000000000
0.02773333333333 0.06453333333333 1.99466666666667 0.00000000000000 -0.00000000000000 1.00000000000000
0.05421926910299 0.06431893687708 1.98803986710963 -0.00000000000000 0.00000000000000 1.00000000000000
0.08079734219269 0.06431893687708 1.98803986710963 0.00000000000000 -0.00000000000000 -1.00000000000000
0.10701986754967 0.06410596026490 1.98145695364238 -0.86215313984659 -0.24632946852759 -0.44273440840709
0.12800000000000 0.06146031746032 1.89968253968254 0.00000000000000 -0.00000000000000 1.00000000000000
0.15242902208202 0.06107255520505 1.88769716088328 -0.86152414969011 -0.24614975705432 -0.44405679434372
0.17766561514196 0.06107255520505 1.88769716088328 0.00000000000000 0.00000000000000 1.00000000000000
0.20226415094340 0.06088050314465 1.88176100628931 0.00000000000000 -0.00000000000000 1.00000000000000
0.22742138364780 0.06088050314465 1.88176100628931 0.00000000000000 -0.00000000000000 1.00000000000000
0.25257861635220 0.06088050314465 1.88176100628931 0.00000000000000 0.00000000000000 1.00000000000000
0.27686520376176 0.06068965517241 1.87586206896552 -0.00000000000000 0.00000000000000 1.00000000000000
0.30100000000000 0.06050000000000 1.87000000000000 0.00000000000000 -0.00000000000000 -1.00000000000000
0.32498442367601 0.06031152647975 1.86417445482866 0.00000000000000 -0.00000000000000 1.00000000000000
-0.34307210031348 0.06119122257053 1.87586206896552 0.00000000000000 -0.00000000000000 1.00000000000000
-0.32000000000000 0.06157728706625 1.88769716088328 0.00000000000000 0.00000000000000 -1.00000000000000
-0.29663492063492 0.06196825396825 1.89968253968254 -0.00000000000000 0.00000000000000 1.00000000000000
-0.29260273972603 0.06684931506849 2.04931506849315 0.00000000000000 -0.00000000000000 1.00000000000000
-0.26611683848797 0.06707903780069 2.05635738831615 0.00000000000000 -0.00000000000000 1.00000000000000
-0.21700000000000 0.06100000000000 1.87000000000000 0.00000000000000 -0.00000000000000 1.00000000000000
-0.19260188087774 0.06119122257053 1.87586206896552 0.00000000000000 0.00000000000000 1.00000000000000
-0.16805031446541 0.06138364779874 1.88176100628931 0.00000000000000 0.00000000000000 1.00000000000000
-0.14379746835443 0.06177215189873 1.89367088607595 -0.00000000000000 0.00000000000000 1.00000000000000
-0.11885714285714 0.06196825396825 1.89968253968254 0.00000000000000 0.00000000000000 1.00000000000000
-0.09846153846154 0.06528428093645 2.00133779264214 0.00000000000000 0.00000000000000 1.00000000000000
-0.07170568561873 0.06528428093645 2.00133779264214 0.00000000000000 -0.00000000000000 -1.00000000000000
-0.04480000000000 0.06506666666667 1.99466666666667 0.32058464792295 0.85489239446119 0.40790253420214
-0.01726984126984 0.06196825396825 1.89968253968254 0.00000000000000 -0.00000000000000 1.00000000000000
0.00810126582278 0.06177215189873 1.89367088607595 -0.31870049291702 -0.84986798111206 -0.41970752970962
0.03520000000000 0.06506666666667 1.99466666666667 0.00000000000000 -0.00000000000000 1.00000000000000
0.06166112956811 0.06485049833887 1.98803986710963 nan nan nan
0.08823920265781 0.06485049833887 1.98803986710963 -0.00000000000000 0.00000000000000 1.00000000000000
0.11076923076923 0.06256410256410 1.91794871794872 -0.32169956838861 -0.85786551570297 -0.40071953367195
0.13511111111111 0.06196825396825 1.89968253968254 -0.00000000000000 0.00000000000000 1.00000000000000
0.15899371069182 0.06138364779874 1.88176100628931 -0.00000000000000 0.00000000000000 1.00000000000000
0.18473186119874 0.06157728706625 1.88769716088328 0.00000000000000 0.00000000000000 1.00000000000000
0.20930817610063 0.06138364779874 1.88176100628931 0.00000000000000 -0.00000000000000 1.00000000000000
0.23446540880503 0.06138364779874 1.88176100628931 0.00000000000000 -0.00000000000000 1.00000000000000
0.25880877742947 0.06119122257053 1.87586206896552 0.00000000000000 -0.00000000000000 1.00000000000000
0.28300000000000 0.06100000000000 1.87000000000000 0.00000000000000 -0.00000000000000 1.00000000000000
0.30800000000000 0.06100000000000 1.87000000000000 nan nan nan
0.33196261682243 0.06080996884735 1.86417445482866 -0.00000000000000 0.00000000000000 -1.00000000000000
-0.33605015673981 0.06169278996865 1.87586206896552 -0.00000000000000 0.00000000000000 1.00000000000000
-0.31293375394322 0.06208201892744 1.88769716088328 nan nan nan
-0.29044585987261 0.06267515923567 1.90573248407643 -0.00000000000000 -0.00000000000000 1.00000000000000
-0.28493150684932 0.06739726027397 2.04931506849315 0.00000000000000 -0.00000000000000 -1.00000000000000
-0.25841924398625 0.06762886597938 2.05635738831615 0.00000000000000 -0.00000000000000 1.00000000000000
-0.21000000000000 0.06150000000000 1.87000000000000 0.00000000000000 0.00000000000000 1.00000000000000
-0.18616352201258 0.06188679245283 1.88176100628931 -0.00000000000000 -0.00000000000000 -1.00000000000000
-0.16151419558360 0.06208201892744 1.88769716088328 0.00000000000000 -0.00000000000000 1.00000000000000
-0.13670886075949 0.06227848101266 1.89367088607595 0.00000000000000 0.00000000000000 1.00000000000000
-0.11174603174603 0.06247619047619 1.89968253968254 0.00000000000000 0.00000000000000 1.00000000000000
-0.09127516778523 0.06604026845638 2.00805369127517 -0.00000000000000 0.00000000000000 1.00000000000000
-0.06421404682274 0.06581939799331 2.00133779264214 -0.00000000000000 0.00000000000000 1.00000000000000
-0.03578274760383 0.06287539936102 1.91182108626198 0.00000000000000 0.00000000000000 -1.00000000000000
-0.01012658227848 0.06227848101266 1.89367088607595 0.00000000000000 -0.00000000000000 1.00000000000000
0.01523809523810 0.06247619047619 1.89968253968254 -0.59892290727947 0.79856387637262 -0.05989229072795
0.04266666666667 0.06560000000000 1.99466666666667 -0.00000000000000 0.00000000000000 -1.00000000000000
0.06910299003322 0.06538205980066 1.98803986710963 0.00000000000000 -0.00000000000000 1.00000000000000
0.09568106312292 0.06538205980066 1.98803986710963 nan nan nan
0.11719745222930 0.06267515923567 1.90573248407643 0.00000000000000 -0.00000000000000 1.00000000000000
0.14222222222222 0.06247619047619 1.89968253968254 0.00000000000000 0.00000000000000 -1.00000000000000
0.16603773584906 0.06188679245283 1.88176100628931 -0.00000000000000 0.00000000000000 1.00000000000000
0.19179810725552 0.06208201892744 1.88769716088328 0.00000000000000 0.00000000000000 1.00000000000000
0.21635220125786 0.06188679245283 1.88176100628931 0.00000000000000 0.00000000000000 -1.00000000000000
0.24150943396226 0.06188679245283 1.88176100628931 0.00000000000000 -0.00000000000000 1.00000000000000
0.26583072100313 0.06169278996865 1.87586206896552 -0.00000000000000 0.00000000000000 1.00000000000000
0.29000000000000 0.06150000000000 1.87000000000000 0.00000000000000 -0.00000000000000 -1.00000000000000
0.31401869158879 0.06130841121495 1.86417445482866 0.00000000000000 0.00000000000000 -1.00000000000000
0.33894080996885 0.06130841121495 1.86417445482866 0.00000000000000 -0.00000000000000 1.00000000000000
-0.32902821316614 0.06219435736677 1.87586206896552 -0.00000000000000 0.00000000000000 -1.00000000000000
-0.30683544303797 0.06278481012658 1.89367088607595 -0.00000000000000 0.00000000000000 -1.00000000000000
-0.30465753424658 0.06794520547945 2.04931506849315 0.00000000000000 0.00000000000000 -1.00000000000000
-0.27726027397260 0.06794520547945 2.04931506849315 0.00000000000000 0.00000000000000 1.00000000000000
-0.24401337792642 0.06635451505017 2.00133779264214 -0.98830740141730 0.14546515865017 0.04569866434222
-0.20363636363636 0.06219435736677 1.87586206896552 -0.00000000000000 0.00000000000000 1.00000000000000
-0.17911949685535 0.06238993710692 1.88176100628931 nan nan nan
-0.15444794952681 0.06258675078864 1.88769716088328 0.00000000000000 -0.00000000000000 -1.00000000000000
-0.13003174603175 0.06298412698413 1.89968253968254 0.00000000000000 -0.00000000000000 1.00000000000000
-0.10701298701299 0.06441558441558 1.94285714285714 0.35109939450816 0.93626505202176 -0.01170331315027
-0.08347826086957 0.06635451505017 2.00133779264214 0.00000000000000 0.00000000000000 -1.00000000000000
-0.05672240802676 0.06635451505017 2.00133779264214 nan nan nan
-0.02853503184713 0.06318471337580 1.90573248407643 -0.00000000000000 -0.00000000000000 1.00000000000000
-0.00303797468354 0.06278481012658 1.89367088607595 0.00000000000000 0.00000000000000 -1.00000000000000
0.02249201277955 0.06338658146965 1.91182108626198 -0.55457721636345 0.83186582454517 -0.02105614030043
0.04996677740864 0.06591362126246 1.98803986710963 0.00000000000000 0.00000000000000 -1.00000000000000
0.07654485049834 0.06591362126246 1.98803986710963 0.00000000000000 -0.00000000000000 1.00000000000000
0.10312292358804 0.06591362126246 1.98803986710963 0.00000000000000 0.00000000000000 1.00000000000000
0.12433121019108 0.06318471337580 1.90573248407643 0.00000000000000 0.00000000000000 1.00000000000000
0.14886075949367 0.06278481012658 1.89367088607595 -0.00000000000000 -0.00000000000000 1.00000000000000
0.17308176100629 0.06238993710692 1.88176100628931 -0.00000000000000 0.00000000000000 1.00000000000000
0.19823899371069 0.06238993710692 1.88176100628931 0.00000000000000 -0.00000000000000 1.00000000000000
0.22339622641509 0.06238993710692 1.88176100628931 nan nan nan
0.24855345911950 0.06238993710692 1.88176100628931 0.00000000000000 0.00000000000000 1.00000000000000
0.27285266457680 0.06219435736677 1.87586206896552 0.00000000000000 -0.00000000000000 1.00000000000000
0.29700000000000 0.06200000000000 1.87000000000000 0.00000000000000 -0.00000000000000 -1.00000000000000
0.32099688473520 0.06180685358255 1.86417445482866 0.00000000000000 -0.00000000000000 1.00000000000000
-0.34708463949843 0.06269592476489 1.87586206896552 0.00000000000000 0.00000000000000 1.00000000000000
-0.32301886792453 0.06289308176101 1.88176100628931 -0.00000000000000 0.00000000000000 1.00000000000000
-0.29974683544304 0.06329113924051 1.89367088607595 -0.00000000000000 0.00000000000000 -1.00000000000000
-0.29698630136986 0.06849315068493 2.04931506849315 -0.00000000000000 0.00000000000000 -1.00000000000000
-0.27051546391753 0.06872852233677 2.05635738831615 0.00000000000000 -0.00000000000000 1.00000000000000
-0.22100000000000 0.06250000000000 1.87000000000000 0.00000000000000 0.00000000000000 1.00000000000000
-0.19661442006270 0.06269592476489 1.87586206896552 0.00000000000000 0.00000000000000 1.00000000000000
-0.17207547169811 0.06289308176101 1.88176100628931 -0.00000000000000 0.00000000000000 -1.00000000000000
-0.14784810126582 0.06329113924051 1.89367088607595 0.00000000000000 0.00000000000000 -1.00000000000000
-0.12292063492063 0.06349206349206 1.89968253968254 0.00000000000000 0.00000000000000 1.00000000000000
-0.10274247491639 0.06688963210702 2.00133779264214 0.00000000000000 0.00000000000000 1.00000000000000
-0.07598662207358 0.06688963210702 2.00133779264214 0.00000000000000 -0.00000000000000 1.00000000000000
-0.04906666666667 0.06666666666667 1.99466666666667 -0.32058464792295 -0.85489239446119 -0.40790253420214
-0.02133333333333 0.06349206349206 1.89968253968254 0.00000000000000 -0.00000000000000 1.00000000000000
0.00405063291139 0.06329113924051 1.89367088607595 0.00000000000000 0.00000000000000 1.00000000000000
0.03093333333333 0.06666666666667 1.99466666666667 0.00000000000000 0.00000000000000 1.00000000000000
0.05740863787375 0.06644518272425 1.98803986710963 0.00000000000000 -0.00000000000000 1.00000000000000
0.08398671096346 0.06644518272425 1.98803986710963 nan nan nan
0.10666666666667 0.06410256410256 1.91794871794872 0.32169956838861 0.85786551570297 0.40071953367195
0.13104761904762 0.06349206349206 1.89968253968254 -0.00000000000000 0.00000000000000 -1.00000000000000
0.15496855345912 0.06289308176101 1.88176100628931 0.00000000000000 -0.00000000000000 1.00000000000000
0.18012578616352 0.06289308176101 1.88176100628931 0.00000000000000 -0.00000000000000 1.00000000000000
0.20528301886792 0.06289308176101 1.88176100628931 -0.00000000000000 0.00000000000000 -1.00000000000000
0.23044025157233 0.06289308176101 1.88176100628931 -0.00000000000000 0.00000000000000 -1.00000000000000
0.25479623824451 0.06269592476489 1.87586206896552 0.00000000000000 -0.00000000000000 1.00000000000000
0.27987460815047 0.06269592476489 1.87586206896552 0.00000000000000 0.00000000000000 1.00000000000000
0.30400000000000 0.06250000000000 1.87000000000000 0.00000000000000 -0.00000000000000 1.00000000000000
0.32797507788162 0.06230529595016 1.86417445482866 0.00000000000000 -0.00000000000000 -1.00000000000000
-0.34006269592476 0.06319749216301 1.87586206896552 -0.00000000000000 0.00000000000000 1.00000000000000
-0.31697160883281 0.06359621451104 1.88769716088328 0.00000000000000 -0.00000000000000 -1.00000000000000
-0.29358730158730 0.06400000000000 1.89968253968254 -0.00000000000000 0.00000000000000 -1.00000000000000
-0.28931506849315 0.06904109589041 2.04931506849315 0.00000000000000 -0.00000000000000 1.00000000000000
-0.26281786941581 0.06927835051546 2.05635738831615 nan nan nan
-0.21400000000000 0.06300000000000 1.87000000000000 0.00000000000000 0.00000000000000 1.00000000000000
-0.19018867924528 0.06339622641509 1.88176100628931 0.00000000000000 0.00000000000000 -1.00000000000000
-0.16555205047319 0.06359621451104 1.88769716088328 0.00000000000000 0.00000000000000 -1.00000000000000
-0.14075949367089 0.06379746835443 1.89367088607595 0.00000000000000 0.00000000000000 1.00000000000000
-0.11617834394904 0.06420382165605 1.90573248407643 -0.31387060554746 -0.83698828145991 0.44825869726315
-0.09557046979866 0.06765100671141 2.00805369127517 0.00000000000000 -0.00000000000000 1.00000000000000
-0.06849498327759 0.06742474916388 2.00133779264214 -0.00000000000000 0.00000000000000 -1.00000000000000
-0.03987220447284 0.06440894568690 1.91182108626198 0.31831994610668 0.84885318961782 0.42204345082738
-0.01422222222222 0.06400000000000 1.89968253968254 0.00000000000000 0.00000000000000 1.00000000000000
0.01110410094637 0.06359621451104 1.88769716088328 -0.31870049291702 -0.84986798111206 -0.41970752970963
0.03840000000000 0.06720000000000 1.99466666666667 -0.00000000000000 0.00000000000000 1.00000000000000
0.06485049833887 0.06697674418605 1.98803986710963 -0.00000000000000 0.00000000000000 -1.00000000000000
0.09142857142857 0.06697674418605 1.98803986710963 0.00000000000000 -0.00000000000000 1.00000000000000
0.11348242811502 0.06440894568690 1.91182108626198 -0.00000000000000 -0.00000000000000 -1.00000000000000
0.13815873015873 0.06400000000000 1.89968253968254 -0.00000000000000 0.00000000000000 1.00000000000000
0.16201257861635 0.06339622641509 1.88176100628931 0.00000000000000 0.00000000000000 1.00000000000000
0.18716981132075 0.06339622641509 1.88176100628931 0.00000000000000 -0.00000000000000 1.00000000000000
0.21232704402516 0.06339622641509 1.88176100628931 -0.00000000000000 0.00000000000000 -1.00000000000000
0.23748427672956 0.06339622641509 1.88176100628931 -0.00000000000000 0.00000000000000 1.00000000000000
0.26181818181818 0.06319749216301 1.87586206896552 -0.00000000000000 0.00000000000000 1.00000000000000
0.28600000000000 0.06300000000000 1.87000000000000 nan nan nan
0.31100000000000 0.06300000000000 1.87000000000000 nan nan nan
0.33495327102804 0.06280373831776 1.86417445482866 -0.00000000000000 0.00000000000000 1.00000000000000
-0.33304075235110 0.06369905956113 1.87586206896552 0.00000000000000 -0.00000000000000 1.00000000000000
-0.30990536277603 0.06410094637224 1.88769716088328 -0.00000000000000 0.00000000000000 -1.00000000000000
-0.28830670926518 0.06492012779553 1.91182108626198 0.88038492146606 0.25153854899031 -0.40205814060537
-0.28164383561644 0.06958904109589 2.04931506849315 -0.00000000000000 0.00000000000000 -1.00000000000000
-0.25512027491409 0.06982817869416 2.05635738831615 -0.00000000000000 0.00000000000000 1.00000000000000
-0.20764890282132 0.06369905956113 1.87586206896552 0.00000000000000 0.00000000000000 -1.00000000000000
-0.18372239747634 0.06410094637224 1.88769716088328 0.00000000000000 -0.00000000000000 1.00000000000000
-0.15848580441640 0.06410094637224 1.88769716088328 nan nan nan
-0.13409523809524 0.06450793650794 1.89968253968254 0.00000000000000 -0.00000000000000 1.00000000000000
-0.11116883116883 0.06597402597403 1.94285714285714 -0.35109939450816 -0.93626505202176 0.01170331315027
-0.08805369127517 0.06818791946309 2.00805369127517 0.00000000000000 -0.00000000000000 1.00000000000000
-0.06100334448161 0.06795986622074 2.00133779264214 0.00000000000000 -0.00000000000000 -1.00000000000000
-0.03261146496815 0.06471337579618 1.90573248407643 -0.00000000000000 -0.00000000000000 -1.00000000000000
-0.00708860759494 0.06430379746835 1.89367088607595 0.00000000000000 -0.00000000000000 -1.00000000000000
0.01822784810127 0.06430379746835 1.89367088607595 -0.55455462091118 0.83183193136677 -0.02290874035582
0.04586666666667 0.06773333333333 1.99466666666667 0.00000000000000 0.00000000000000 1.00000000000000
0.07229235880399 0.06750830564784 1.98803986710963 0.00000000000000 -0.00000000000000 1.00000000000000
0.09887043189369 0.06750830564784 1.98803986710963 0.00000000000000 -0.00000000000000 1.00000000000000
0.12025477707006 0.06471337579618 1.90573248407643 0.00000000000000 0.00000000000000 1.00000000000000
0.14526984126984 0.06450793650794 1.89968253968254 0.00000000000000 0.00000000000000 1.00000000000000
0.16905660377358 0.06389937106918 1.88176100628931 0.00000000000000 -0.00000000000000 1.00000000000000
0.19421383647799 0.06389937106918 1.88176100628931 0.00000000000000 -0.00000000000000 1.00000000000000
0.21937106918239 0.06389937106918 1.88176100628931 nan nan nan
0.24452830188679 0.06389937106918 1.88176100628931 0.00000000000000 0.00000000000000 1.00000000000000
0.26884012539185 0.06369905956113 1.87586206896552 0.00000000000000 -0.00000000000000 1.00000000000000
0.29300000000000 0.06350000000000 1.87000000000000 nan nan nan
0.31700934579439 0.06330218068536 1.86417445482866 -0.00000000000000 0.00000000000000 1.00000000000000
0.34193146417445 0.06330218068536 1.86417445482866 0.00000000000000 -0.00000000000000 -1.00000000000000
-0.32704402515723 0.06440251572327 1.88176100628931 0.00000000000000 -0.00000000000000 1.00000000000000
-0.30379746835443 0.06481012658228 1.89367088607595 0.00000000000000 -0.00000000000000 1.00000000000000
-0.30136986301370 0.07013698630137 2.04931506849315 0.00000000000000 -0.00000000000000 1.00000000000000
-0.27491408934708 0.07037800687285 2.05635738831615 0.00000000000000 -0.00000000000000 1.00000000000000
-0.23225806451613 0.06606451612903 1.93032258064516 0.96888559092081 0.06055534943255 0.23998700248376
-0.20062695924765 0.06420062695925 1.87586206896552 0.00000000000000 0.00000000000000 1.00000000000000
-0.17610062893082 0.06440251572327 1.88176100628931 -0.00000000000000 0.00000000000000 1.00000000000000
-0.15141955835962 0.06460567823344 1.88769716088328 0.00000000000000 0.00000000000000 1.00000000000000
-0.12698412698413 0.06501587301587 1.89968253968254 0.00000000000000 0.00000000000000 1.00000000000000
-0.10702341137124 0.06849498327759 2.00133779264214 0.00000000000000 0.00000000000000 1.00000000000000
-0.08026755852843 0.06849498327759 2.00133779264214 0.00000000000000 -0.00000000000000 1.00000000000000
-0.05351170568562 0.06849498327759 2.00133779264214 -0.00000000000000 0.00000000000000 -1.00000000000000
-0.02539682539683 0.06501587301587 1.89968253968254 0.00000000000000 -0.00000000000000 1.00000000000000
0.00000000000000 0.06460567823344 1.88769716088328 0.00000000000000 -0.00000000000000 1.00000000000000
0.02564102564103 0.06564102564103 1.91794871794872 -0.55457721636345 0.83186582454517 -0.02105614030043
0.05315614617940 0.06803986710963 1.98803986710963 -0.00000000000000 0.00000000000000 -1.00000000000000
0.07973421926910 0.06803986710963 1.98803986710963 -0.00000000000000 0.00000000000000 1.00000000000000
0.10289389067524 0.06585209003215 1.92411575562701 -0.68881483654849 -0.68881483654849 -0.22598283541309
0.12698412698413 0.06501587301587 1.89968253968254 0.00000000000000 -0.00000000000000 1.00000000000000
0.15141955835962 0.06460567823344 1.88769716088328 0.86152414969011 0.24614975705432 0.44405679434373
0.17610062893082 0.06440251572327 1.88176100628931 0.00000000000000 -0.00000000000000 1.00000000000000
0.20125786163522 0.06440251572327 1.88176100628931 -0.00000000000000 0.00000000000000 1.00000000000000
0.22641509433962 0.06440251572327 1.88176100628931 -0.00000000000000 0.00000000000000 1.00000000000000
0.25078369905956 0.06420062695925 1.87586206896552 0.00000000000000 -0.00000000000000 1.00000000000000
0.27586206896552 0.06420062695925 1.87586206896552 0.00000000000000 0.00000000000000 1.00000000000000
0.30000000000000 0.06400000000000 1.87000000000000 0.00000000000000 -0.00000000000000 -1.00000000000000
0.32398753894081 0.06380062305296 1.86417445482866 nan nan nan
-0.34515723270440 0.06490566037736 1.88176100628931 0.00000000000000 -0.00000000000000 1.00000000000000
-0.32000000000000 0.06490566037736 1.88176100628931 0.00000000000000 -0.00000000000000 1.00000000000000
-0.29765079365079 0.06552380952381 1.89968253968254 0.00000000000000 0.00000000000000 -1.00000000000000
-0.29369863013699 0.07068493150685 2.04931506849315 0.00000000000000 -0.00000000000000 -1.00000000000000
-0.26721649484536 0.07092783505155 2.05635738831615 -0.00000000000000 0.00000000000000 1.00000000000000
-0.21868338557994 0.06470219435737 1.87586206896552 -0.55229823930559 0.82844735895837 -0.09296035872804
-0.19421383647799 0.06490566037736 1.88176100628931 -0.00000000000000 -0.00000000000000 -1.00000000000000
-0.16905660377358 0.06490566037736 1.88176100628931 -0.00000000000000 0.00000000000000 1.00000000000000
-0.14481012658228 0.06531645569620 1.89367088607595 0.00000000000000 0.00000000000000 1.00000000000000
-0.12025477707006 0.06573248407643 1.90573248407643 0.00000000000000 0.00000000000000 -1.00000000000000
-0.09986577181208 0.06926174496644 2.00805369127517 0.00000000000000 -0.00000000000000 1.00000000000000
-0.07277591973244 0.06903010033445 2.00133779264214 -0.00000000000000 0.00000000000000 -1.00000000000000
-0.04382165605096 0.06573248407643 1.90573248407643 0.00000000000000 -0.00000000000000 1.00000000000000
-0.01828571428571 0.06552380952381 1.89968253968254 0.00000000000000 0.00000000000000 1.00000000000000
0.00706624605678 0.06511041009464 1.88769716088328 nan nan nan
0.03401993355482 0.06857142857143 1.98803986710963 0.32225243639679 0.85933983039145 0.39710001654385
0.06059800664452 0.06857142857143 1.98803986710963 nan nan nan
0.08717607973422 0.06857142857143 1.98803986710963 -0.00000000000000 0.00000000000000 1.00000000000000
0.10939297124601 0.06594249201278 1.91182108626198 0.00000000000000 0.00000000000000 1.00000000000000
0.13409523809524 0.06552380952381 1.89968253968254 0.00000000000000 -0.00000000000000 -1.00000000000000
0.15798742138365 0.06490566037736 1.88176100628931 0.00000000000000 0.00000000000000 1.00000000000000
