0.000000000000000000e+00 0.000000000000000000e+00 -7.577506645118049441e-06
-0.000000000000000000e+00 0.000000000000000000e+00 -7.504294449753328198e-06
-7.685906228475743369e-06 -2.049574994260228047e-05 -1.042529473183394756e-05
-0.000000000000000000e+00 0.000000000000000000e+00 1.067261513540418427e-19
0.000000000000000000e+00 0.000000000000000000e+00 2.414043899674755966e-20
0.000000000000000000e+00 -0.000000000000000000e+00 9.451795841209913743e-06
0.000000000000000000e+00 -0.000000000000000000e+00 -4.912791094074941967e-20
0.000000000000000000e+00 -0.000000000000000000e+00 9.994988777600744001e-20
-0.000000000000000000e+00 0.000000000000000000e+00 1.007969207232617403e-19
0.000000000000000000e+00 0.000000000000000000e+00 1.033057851239663907e-05
0.000000000000000000e+00 0.000000000000000000e+00 -1.154307460613766325e-05
0.000000000000000000e+00 -0.000000000000000000e+00 1.154307460613769544e-05
0.000000000000000000e+00 -0.000000000000000000e+00 0.000000000000000000e+00
0.000000000000000000e+00 0.000000000000000000e+00 9.102222222222115122e-06
1.076536424983096018e-05 3.075818357094546922e-06 -2.216398522024093858e-07
-5.779245195551663471e-06 -1.541132052147106080e-05 1.124480408770855280e-05
-0.000000000000000000e+00 0.000000000000000000e+00 1.355252715606880543e-20
0.000000000000000000e+00 0.000000000000000000e+00 -1.133786848072552048e-05
-0.000000000000000000e+00 0.000000000000000000e+00 2.625802136488331051e-20
0.000000000000000000e+00 -0.000000000000000000e+00 1.113808616353833097e-05
-1.326721579852773089e-05 -3.790633085293611501e-06 -8.037865155861113669e-06
-0.000000000000000000e+00 0.000000000000000000e+00 0.000000000000000000e+00
0.000000000000000000e+00 0.000000000000000000e+00 -9.200094875978492837e-06
0.000000000000000000e+00 -0.000000000000000000e+00 1.069197099802867070e-05
0.000000000000000000e+00 -0.000000000000000000e+00 -7.707999820014133086e-20
0.000000000000000000e+00 0.000000000000000000e+00 1.087982048296204051e-05
-0.000000000000000000e+00 0.000000000000000000e+00 -5.166900978251232068e-20
0.000000000000000000e+00 -0.000000000000000000e+00 -6.522153693858112611e-20
-0.000000000000000000e+00 0.000000000000000000e+00 -7.577506645118091793e-06
-0.000000000000000000e+00 -0.000000000000000000e+00 2.625802136488331051e-20
-7.732067827446184263e-06 -2.061884753985639311e-05 -1.045345248436056409e-05
0.000000000000000000e+00 0.000000000000000000e+00 1.154307460613773440e-05
0.000000000000000000e+00 0.000000000000000000e+00 2.456395547037470983e-20
0.000000000000000000e+00 -0.000000000000000000e+00 -7.284483346386982916e-20
0.000000000000000000e+00 -0.000000000000000000e+00 -2.456395547037470983e-20
0.000000000000000000e+00 -0.000000000000000000e+00 -2.541098841762901017e-20
0.000000000000000000e+00 0.000000000000000000e+00 1.033057851239677629e-05
8.756116404841847952e-06 -1.313417460726277277e-05 1.246224802753276226e-05
0.000000000000000000e+00 -0.000000000000000000e+00 2.710505431213761085e-20
-0.000000000000000000e+00 0.000000000000000000e+00 -5.336307567702092136e-20
-0.000000000000000000e+00 0.000000000000000000e+00 -8.216219588366713289e-20
0.000000000000000000e+00 -0.000000000000000000e+00 9.053870529651390328e-06
0.000000000000000000e+00 -0.000000000000000000e+00 -6.437450399132682577e-20
0.000000000000000000e+00 -0.000000000000000000e+00 -7.453889935837842984e-20
-0.000000000000000000e+00 0.000000000000000000e+00 -1.024909866177703410e-19
0.000000000000000000e+00 0.000000000000000000e+00 -1.120408949266481627e-05
-0.000000000000000000e+00 0.000000000000000000e+00 -5.166900978251232068e-20
0.000000000000000000e+00 0.000000000000000000e+00 -4.573977915173221831e-20
0.000000000000000000e+00 0.000000000000000000e+00 -9.200094875978330207e-06
0.000000000000000000e+00 -0.000000000000000000e+00 1.185846126156020475e-19
-0.000000000000000000e+00 0.000000000000000000e+00 -9.249624234015536229e-06
0.000000000000000000e+00 0.000000000000000000e+00 1.069197099802868256e-05
0.000000000000000000e+00 0.000000000000000000e+00 1.075404326822092452e-05
0.000000000000000000e+00 -0.000000000000000000e+00 1.081665765278535311e-05
9.462913629367219123e-06 -1.419437044405047717e-05 -1.066348916870766907e-05
-0.000000000000000000e+00 0.000000000000000000e+00 1.088437337221775936e-19
0.000000000000000000e+00 -0.000000000000000000e+00 2.371692252312040949e-19
-0.000000000000000000e+00 -0.000000000000000000e+00 1.067261513540418427e-19
0.000000000000000000e+00 -0.000000000000000000e+00 2.126052697608293851e-19
-7.685906228475892447e-06 -2.049574994260228047e-05 -1.025404013672533073e-05
0.000000000000000000e+00 -0.000000000000000000e+00 -7.284483346386982916e-20
0.000000000000000000e+00 -0.000000000000000000e+00 9.451795841209781606e-06
-0.000000000000000000e+00 0.000000000000000000e+00 -9.825582188149883933e-20
-0.000000000000000000e+00 0.000000000000000000e+00 -1.516188975585197607e-19
0.000000000000000000e+00 0.000000000000000000e+00 1.033057851239667634e-05
1.382045989289420998e-05 3.948702826541229353e-06 5.337083633199847187e-07
0.000000000000000000e+00 -0.000000000000000000e+00 1.154307460613769544e-05
-0.000000000000000000e+00 0.000000000000000000e+00 -1.075731843012961431e-19
5.475935828877084304e-06 1.460249554367193851e-05 7.622873592801219714e-06
0.000000000000000000e+00 0.000000000000000000e+00 -9.005903088039599440e-06
1.237618515054251095e-05 3.536052900155023275e-06 8.585328438464601616e-06
0.000000000000000000e+00 -0.000000000000000000e+00 2.541098841762901017e-21
0.000000000000000000e+00 -0.000000000000000000e+00 -1.092672501958047437e-19
-0.000000000000000000e+00 0.000000000000000000e+00 -1.575481281892998631e-19
-0.000000000000000000e+00 0.000000000000000000e+00 -1.304430738771622522e-19
-1.370738377803004898e-05 -3.916395365151477779e-06 1.303196265222249349e-06
0.000000000000000000e+00 -0.000000000000000000e+00 0.000000000000000000e+00
0.000000000000000000e+00 0.000000000000000000e+00 9.102222222222171026e-06
0.000000000000000000e+00 -0.000000000000000000e+00 1.304430738771622522e-19
0.000000000000000000e+00 -0.000000000000000000e+00 1.063043460206468182e-05
-0.000000000000000000e+00 0.000000000000000000e+00 0.000000000000000000e+00
0.000000000000000000e+00 -0.000000000000000000e+00 1.081665765278527687e-05
-1.168515783335440691e-04 5.258321025009473352e-05 -1.418934339576974183e-05
0.000000000000000000e+00 -0.000000000000000000e+00 -6.522153693858112611e-20
0.000000000000000000e+00 -0.000000000000000000e+00 7.504294449753370550e-06
-0.000000000000000000e+00 -0.000000000000000000e+00 2.134523027080836854e-19
0.000000000000000000e+00 0.000000000000000000e+00 1.154307460613765478e-05
-0.000000000000000000e+00 0.000000000000000000e+00 9.660669001328126368e-06
0.000000000000000000e+00 -0.000000000000000000e+00 9.451795841209962871e-06
-0.000000000000000000e+00 0.000000000000000000e+00 4.828087799349511933e-20
-8.117991355047965901e-06 1.217698703257207421e-05 -2.274774048152615538e-06
0.000000000000000000e+00 -0.000000000000000000e+00 -2.024408743937777810e-19
-3.108596804871870524e-05 -1.199030196164858924e-04 3.198719989550955921e-05
3.693855662466572306e-05 -4.104284069407609565e-06 -6.905951777748492009e-06
0.000000000000000000e+00 -0.000000000000000000e+00 1.154307460613761582e-05
0.000000000000000000e+00 0.000000000000000000e+00 -1.211834319526630014e-05
-0.000000000000000000e+00 -0.000000000000000000e+00 6.818615225397117729e-20
-1.545696060463993955e-05 -1.545696060464005813e-05 -6.604337712891510676e-06
0.000000000000000000e+00 0.000000000000000000e+00 8.911104768137333309e-06
-3.049198458585411405e-05 1.108799439485609214e-05 1.118953551999580070e-05
0.000000000000000000e+00 0.000000000000000000e+00 1.211834319526628489e-05
0.000000000000000000e+00 0.000000000000000000e+00 -1.107266435986159670e-05
0.000000000000000000e+00 0.000000000000000000e+00 1.107266435986150014e-05
0.000000000000000000e+00 0.000000000000000000e+00 0.000000000000000000e+00
-0.000000000000000000e+00 0.000000000000000000e+00 -7.115076756936122848e-20
0.000000000000000000e+00 0.000000000000000000e+00 -9.150962280877350478e-06
1.613347554630541108e-05 4.609564441801586196e-06 -1.293451177392633792e-05
0.000000000000000000e+00 -0.000000000000000000e+00 1.279019750353993512e-19
7.962109704190423187e-20 -8.165397611531455269e-19 -1.727947212398772692e-19
0.000000000000000000e+00 -0.000000000000000000e+00 -5.166900978251232068e-20
-0.000000000000000000e+00 0.000000000000000000e+00 0.000000000000000000e+00
0.000000000000000000e+00 -0.000000000000000000e+00 -1.295960409299079519e-19
-7.872789889218872775e-06 -2.099410637125032853e-05 -1.067878692727459437e-05
0.000000000000000000e+00 0.000000000000000000e+00 1.140565827578514222e-05
0.000000000000000000e+00 0.000000000000000000e+00 1.154307460613765478e-05
0.000000000000000000e+00 0.000000000000000000e+00 -9.555376392248148405e-06
0.000000000000000000e+00 -0.000000000000000000e+00 -7.284483346386982916e-20
-0.000000000000000000e+00 0.000000000000000000e+00 -4.912791094074941967e-20
-8.440829515326530520e-06 1.266124427298973056e-05 -2.337026460727424781e-06
0.000000000000000000e+00 0.000000000000000000e+00 1.033057851239672716e-05
2.411689007382571397e-04 7.308148507219756188e-06 -8.504353028923170748e-05
0.000000000000000000e+00 -0.000000000000000000e+00 2.625802136488331051e-20
-0.000000000000000000e+00 0.000000000000000000e+00 0.000000000000000000e+00
0.000000000000000000e+00 -0.000000000000000000e+00 -5.421010862427522170e-20
0.000000000000000000e+00 -0.000000000000000000e+00 9.053870529651437762e-06
0.000000000000000000e+00 -0.000000000000000000e+00 8.121363627711536640e-06
0.000000000000000000e+00 -0.000000000000000000e+00 9.503374440377459020e-06
0.000000000000000000e+00 -0.000000000000000000e+00 -6.860966872759832746e-20
0.000000000000000000e+00 0.000000000000000000e+00 1.133786848072552048e-05
0.000000000000000000e+00 -0.000000000000000000e+00 0.000000000000000000e+00
0.000000000000000000e+00 0.000000000000000000e+00 1.113808616353846310e-05
0.000000000000000000e+00 0.000000000000000000e+00 0.000000000000000000e+00
0.000000000000000000e+00 -0.000000000000000000e+00 0.000000000000000000e+00
-0.000000000000000000e+00 0.000000000000000000e+00 -9.200094875978445403e-06
0.000000000000000000e+00 0.000000000000000000e+00 1.069197099802874693e-05
-0.000000000000000000e+00 0.000000000000000000e+00 -1.069197099802858092e-05
7.035530368941972490e-06 1.876141431717840696e-05 7.661955933877282821e-06
0.000000000000000000e+00 -0.000000000000000000e+00 -5.166900978251232068e-20
-0.000000000000000000e+00 0.000000000000000000e+00 -7.689350249903883965e-06
0.000000000000000000e+00 -0.000000000000000000e+00 7.540767273069941257e-06
0.000000000000000000e+00 0.000000000000000000e+00 1.067261513540418427e-19
-1.015646713129451290e-05 1.523470069694154827e-05 7.914712153517859154e-06
0.000000000000000000e+00 0.000000000000000000e+00 0.000000000000000000e+00
0.000000000000000000e+00 -0.000000000000000000e+00 9.503374440377414974e-06
0.000000000000000000e+00 -0.000000000000000000e+00 4.828087799349511933e-20
-0.000000000000000000e+00 0.000000000000000000e+00 -1.465366998749939587e-19
-0.000000000000000000e+00 0.000000000000000000e+00 0.000000000000000000e+00
-6.623322862639060840e-06 -1.766219430037056011e-05 1.182457934594674077e-05
9.976974929182509200e-05 3.491941225213872596e-05 -9.069577062294446998e-05
-0.000000000000000000e+00 0.000000000000000000e+00 2.710505431213761085e-20
0.000000000000000000e+00 0.000000000000000000e+00 1.161271592393673803e-05
-0.000000000000000000e+00 0.000000000000000000e+00 -1.211834319526627134e-05
0.000000000000000000e+00 0.000000000000000000e+00 9.053870529651407268e-06
-0.000000000000000000e+00 0.000000000000000000e+00 -8.121363627711531558e-06
0.000000000000000000e+00 -0.000000000000000000e+00 0.000000000000000000e+00
-0.000000000000000000e+00 0.000000000000000000e+00 2.795208725939191119e-20
-0.000000000000000000e+00 0.000000000000000000e+00 -1.120408949266482982e-05
0.000000000000000000e+00 -0.000000000000000000e+00 -1.567010952420455627e-19
1.745955238952011853e-05 4.988443539862839462e-06 -1.286391543321072333e-05
-0.000000000000000000e+00 0.000000000000000000e+00 -4.743384504624081899e-20
0.000000000000000000e+00 -0.000000000000000000e+00 4.743384504624081899e-20
0.000000000000000000e+00 0.000000000000000000e+00 -9.299554638516009783e-06
0.000000000000000000e+00 -0.000000000000000000e+00 1.063043460206445143e-05
9.272573109015165837e-06 -1.390885966352254208e-05 4.289184887326301096e-07
-0.000000000000000000e+00 0.000000000000000000e+00 0.000000000000000000e+00
-3.590279187105379868e-05 2.393519458070286901e-05 1.369873903743162582e-05
-0.000000000000000000e+00 0.000000000000000000e+00 -7.651795481853902563e-06
-0.000000000000000000e+00 0.000000000000000000e+00 -7.540767273069812508e-06
-0.000000000000000000e+00 -0.000000000000000000e+00 -2.930733997499879173e-19
-0.000000000000000000e+00 0.000000000000000000e+00 2.930733997499879173e-19
2.843605325128849718e-05 -1.034038300046857215e-05 -6.045944525741353354e-06
0.000000000000000000e+00 0.000000000000000000e+00 9.503374440377440385e-06
-0.000000000000000000e+00 0.000000000000000000e+00 -2.456395547037470983e-20
0.000000000000000000e+00 -0.000000000000000000e+00 4.828087799349511933e-20
0.000000000000000000e+00 0.000000000000000000e+00 1.033057851239687794e-05
-2.062416869877643232e-05 -5.499778319673715511e-05 4.652386005044822944e-06
-1.677125235563514671e-19 -5.082197683525802034e-21 1.778769189234030712e-20
-0.000000000000000000e+00 0.000000000000000000e+00 2.625802136488331051e-20
0.000000000000000000e+00 0.000000000000000000e+00 1.161271592393669060e-05
0.000000000000000000e+00 -0.000000000000000000e+00 9.102222222222304857e-06
-5.346361515756862493e-06 -1.425696404201798488e-05 -7.442497372068486527e-06
0.000000000000000000e+00 0.000000000000000000e+00 8.911104768137194395e-06
-0.000000000000000000e+00 0.000000000000000000e+00 -9.451795841209886638e-06
-0.000000000000000000e+00 0.000000000000000000e+00 -1.092672501958047437e-19
0.000000000000000000e+00 -0.000000000000000000e+00 -1.041850525122789417e-19
-0.000000000000000000e+00 0.000000000000000000e+00 -1.107266435986159670e-05
-0.000000000000000000e+00 -0.000000000000000000e+00 6.606856988583542645e-20
0.000000000000000000e+00 -0.000000000000000000e+00 -7.115076756936122848e-20
0.000000000000000000e+00 -0.000000000000000000e+00 9.150962280877231894e-06
0.000000000000000000e+00 -0.000000000000000000e+00 -9.400636011780166173e-06
0.000000000000000000e+00 -0.000000000000000000e+00 5.166900978251232068e-20
9.299450132519445936e-06 -1.394917519877909860e-05 3.990806808207765430e-07
-0.000000000000000000e+00 0.000000000000000000e+00 1.804180177651659722e-19
-5.708540446097826408e-06 8.562810669146840833e-06 -7.838558679394439036e-06
-0.000000000000000000e+00 0.000000000000000000e+00 -7.614515169541931652e-06
0.000000000000000000e+00 0.000000000000000000e+00 7.504294449753456947e-06
0.000000000000000000e+00 0.000000000000000000e+00 -1.140565827578514222e-05
0.000000000000000000e+00 -0.000000000000000000e+00 1.147405787227949423e-05
0.000000000000000000e+00 0.000000000000000000e+00 -9.607806342653314047e-06
-0.000000000000000000e+00 0.000000000000000000e+00 -9.451795841209890026e-06
0.000000000000000000e+00 -0.000000000000000000e+00 -7.284483346386982916e-20
0.000000000000000000e+00 -0.000000000000000000e+00 0.000000000000000000e+00
0.000000000000000000e+00 0.000000000000000000e+00 1.033057851239667634e-05
0.000000000000000000e+00 0.000000000000000000e+00 -1.140565827578534212e-05
-1.936953522340585857e-05 5.595643508983929004e-05 8.328497333389090016e-05
0.000000000000000000e+00 -0.000000000000000000e+00 0.000000000000000000e+00
0.000000000000000000e+00 -0.000000000000000000e+00 0.000000000000000000e+00
0.000000000000000000e+00 -0.000000000000000000e+00 9.053870529651310707e-06
0.000000000000000000e+00 -0.000000000000000000e+00 8.121363627711531558e-06
0.000000000000000000e+00 0.000000000000000000e+00 -9.503374440377408198e-06
0.000000000000000000e+00 0.000000000000000000e+00 -1.211834319526627473e-05
-1.946369477620123152e-05 -5.561055650343230301e-06 -1.093699059788724853e-05
0.000000000000000000e+00 -0.000000000000000000e+00 -1.304430738771622522e-19
0.000000000000000000e+00 0.000000000000000000e+00 -1.113808616353838348e-05
-1.308937314173924236e-05 -3.739820897639723392e-06 -7.955119024378112807e-06
0.000000000000000000e+00 -0.000000000000000000e+00 -7.115076756936122848e-20
-0.000000000000000000e+00 0.000000000000000000e+00 -9.150962280877279328e-06
0.000000000000000000e+00 0.000000000000000000e+00 -1.069197099802860633e-05
0.000000000000000000e+00 0.000000000000000000e+00 1.069197099802858092e-05
9.353516703057054895e-06 -1.403027505458537312e-05 3.701391636505741758e-07
-0.000000000000000000e+00 0.000000000000000000e+00 2.625802136488331051e-20
-0.000000000000000000e+00 0.000000000000000000e+00 -7.727182174356662098e-06
-0.000000000000000000e+00 0.000000000000000000e+00 -7.577506645118005395e-06
-7.802005848244629091e-06 -2.080534892865254075e-05 -1.058277424281992120e-05
0.000000000000000000e+00 -0.000000000000000000e+00 1.133786848072575426e-05
-0.000000000000000000e+00 -0.000000000000000000e+00 -7.962109704190423187e-20
0.000000000000000000e+00 0.000000000000000000e+00 9.555376392248150099e-06
0.000000000000000000e+00 0.000000000000000000e+00 9.451795841209866309e-06
0.000000000000000000e+00 -0.000000000000000000e+00 4.828087799349511933e-20
-8.464539710594372619e-06 1.269680956589136326e-05 -2.343591141796839304e-06
-0.000000000000000000e+00 -0.000000000000000000e+00 -1.389134033497052556e-19
0.000000000000000000e+00 -0.000000000000000000e+00 1.147405787227930958e-05
0.000000000000000000e+00 -0.000000000000000000e+00 2.710505431213761085e-20
-0.000000000000000000e+00 0.000000000000000000e+00 0.000000000000000000e+00
-0.000000000000000000e+00 0.000000000000000000e+00 -2.710505431213761085e-20
0.000000000000000000e+00 0.000000000000000000e+00 9.053870529651414045e-06
0.000000000000000000e+00 0.000000000000000000e+00 8.121363627711536640e-06
0.000000000000000000e+00 -0.000000000000000000e+00 -6.945670167485262780e-20
-0.000000000000000000e+00 0.000000000000000000e+00 -7.538593230563273018e-20
2.743643946924608884e-05 -9.976887079725860189e-06 1.153944365912416919e-05
0.000000000000000000e+00 -0.000000000000000000e+00 0.000000000000000000e+00
1.730519545238706436e-05 4.944341557824855201e-06 -1.275018774182953390e-05
0.000000000000000000e+00 -0.000000000000000000e+00 9.200094875978374252e-06
-0.000000000000000000e+00 0.000000000000000000e+00 -2.371692252312040949e-20
0.000000000000000000e+00 0.000000000000000000e+00 -9.249624234015476937e-06
0.000000000000000000e+00 0.000000000000000000e+00 -1.063043460206461914e-05
0.000000000000000000e+00 -0.000000000000000000e+00 1.063043460206486139e-05
0.000000000000000000e+00 -0.000000000000000000e+00 1.075404326822105327e-05
-0.000000000000000000e+00 0.000000000000000000e+00 2.625802136488331051e-20
0.000000000000000000e+00 0.000000000000000000e+00 -7.651795481853739932e-06
-0.000000000000000000e+00 0.000000000000000000e+00 -6.479802046495397594e-20
7.685906228475743369e-06 2.049574994260257524e-05 1.042529473183414915e-05
-0.000000000000000000e+00 0.000000000000000000e+00 1.329841727189251532e-19
1.018687571552021877e-05 -1.528031357327959546e-05 -8.074597074507783469e-06
0.000000000000000000e+00 0.000000000000000000e+00 9.503374440377464102e-06
0.000000000000000000e+00 0.000000000000000000e+00 9.451795841209781606e-06
0.000000000000000000e+00 -0.000000000000000000e+00 -1.948175778684890780e-19
0.000000000000000000e+00 0.000000000000000000e+00 1.033057851239663907e-05
6.914346662702378447e-06 1.843825776720634140e-05 6.475267162062600906e-05
1.374493825413459222e-05 3.927125215467052850e-06 5.307919241760824745e-07
0.000000000000000000e+00 -0.000000000000000000e+00 0.000000000000000000e+00
0.000000000000000000e+00 -0.000000000000000000e+00 1.154307460613764123e-05
-2.569138793709075785e-05 -7.340396553454532856e-06 3.827212106743282469e-08
-0.000000000000000000e+00 -0.000000000000000000e+00 -9.005903088039589276e-06
1.986281166219433405e-04 -9.347205488091433622e-05 2.208714665802472097e-06
-0.000000000000000000e+00 0.000000000000000000e+00 -7.284483346386982916e-20
0.000000000000000000e+00 0.000000000000000000e+00 1.211834319526629506e-05
0.000000000000000000e+00 0.000000000000000000e+00 -1.113808616353848004e-05
-0.000000000000000000e+00 0.000000000000000000e+00 -1.050320854595332420e-19
-1.370738377803004559e-05 -3.916395365151478626e-06 1.303196265222248714e-06
0.000000000000000000e+00 -0.000000000000000000e+00 -4.743384504624081899e-20
-0.000000000000000000e+00 0.000000000000000000e+00 9.486769009248163798e-20
-0.000000000000000000e+00 0.000000000000000000e+00 -9.299554638516080934e-06
-0.000000000000000000e+00 0.000000000000000000e+00 -2.049819732355406821e-19
9.219128883603309611e-06 -1.382869332540475689e-05 4.264463360597173121e-07
0.000000000000000000e+00 0.000000000000000000e+00 1.081665765278527687e-05
-1.601267840182019628e-03 5.822792146116355372e-04 1.808724271591119546e-04
0.000000000000000000e+00 0.000000000000000000e+00 -7.614515169541974004e-06
0.000000000000000000e+00 0.000000000000000000e+00 -7.504294449753241801e-06
-0.000000000000000000e+00 -0.000000000000000000e+00 2.625802136488331051e-20
0.000000000000000000e+00 0.000000000000000000e+00 1.147405787227946713e-05
-4.539899303400242773e-05 1.650872473963731698e-05 -6.480998689564932100e-06
0.000000000000000000e+00 -0.000000000000000000e+00 9.451795841209769747e-06
0.000000000000000000e+00 -0.000000000000000000e+00 -7.284483346386982916e-20
0.000000000000000000e+00 -0.000000000000000000e+00 -7.369186641112412950e-20
-6.623322862638792330e-06 -1.766219430037042798e-05 1.179506364691522714e-05
-7.685906228475743369e-06 -2.049574994260257524e-05 -9.671774513356059261e-06
7.030373462210692814e-19 2.142993356553379858e-19 3.176373552203626272e-20
0.000000000000000000e+00 -0.000000000000000000e+00 2.625802136488331051e-20
2.862105328769195775e-04 3.653751483535214476e-05 3.333478347701208445e-05
0.000000000000000000e+00 0.000000000000000000e+00 9.102222222222304857e-06
4.726443845678995892e-19 7.115076756936122848e-20 -4.870439446712226950e-20
0.000000000000000000e+00 0.000000000000000000e+00 8.864265927977794241e-06
-3.160123436896098759e-04 1.082234053731483082e-05 -4.375275509408684481e-04
0.000000000000000000e+00 0.000000000000000000e+00 1.211834319526627642e-05
0.000000000000000000e+00 -0.000000000000000000e+00 -5.251604272976662102e-20
0.000000000000000000e+00 -0.000000000000000000e+00 1.113808616353833097e-05
0.000000000000000000e+00 0.000000000000000000e+00 -4.235164736271501695e-20
-0.000000000000000000e+00 0.000000000000000000e+00 -7.115076756936122848e-20
-0.000000000000000000e+00 0.000000000000000000e+00 -7.115076756936122848e-20
1.469656511411953379e-04 4.453504580036280009e-06 -2.837203927172023322e-05
0.000000000000000000e+00 -0.000000000000000000e+00 -7.623296525288703052e-20
9.272573109014888010e-06 -1.390885966352240147e-05 3.979272684484199368e-07
0.000000000000000000e+00 -0.000000000000000000e+00 1.804180177651659722e-19
5.708540446097826408e-06 -8.562810669146840833e-06 9.234403662801820016e-08
0.000000000000000000e+00 0.000000000000000000e+00 -7.577506645118005395e-06
1.027864937061554338e-05 -1.541797405592199878e-05 -7.769449671317798262e-06
0.000000000000000000e+00 0.000000000000000000e+00 1.140565827578514222e-05
0.000000000000000000e+00 0.000000000000000000e+00 1.147405787227952134e-05
-0.000000000000000000e+00 0.000000000000000000e+00 -9.607806342653339458e-06
0.000000000000000000e+00 -0.000000000000000000e+00 9.400636011780117045e-06
-0.000000000000000000e+00 0.000000000000000000e+00 -1.939705449212347776e-19
0.000000000000000000e+00 -0.000000000000000000e+00 1.228197773518735492e-19
6.623322862638927009e-06 1.766219430037069564e-05 -1.182457934594681700e-05
0.000000000000000000e+00 0.000000000000000000e+00 -1.147405787227940106e-05
-1.280984371412653541e-05 1.280984371412646256e-05 -3.082582711939222742e-08
-0.000000000000000000e+00 0.000000000000000000e+00 0.000000000000000000e+00
0.000000000000000000e+00 -0.000000000000000000e+00 -8.216219588366713289e-20
0.000000000000000000e+00 0.000000000000000000e+00 9.053870529651393716e-06
0.000000000000000000e+00 0.000000000000000000e+00 8.121363627711531558e-06
-0.000000000000000000e+00 0.000000000000000000e+00 -1.456896669277396583e-19
0.000000000000000000e+00 -0.000000000000000000e+00 -9.571472303973593831e-20
-2.784715876400366584e-05 1.012623955054672443e-05 -1.171218736250729647e-05
-0.000000000000000000e+00 0.000000000000000000e+00 -7.877406409464993153e-20
0.000000000000000000e+00 0.000000000000000000e+00 1.113808616353854103e-05
-0.000000000000000000e+00 -0.000000000000000000e+00 -9.249624234016157951e-07
0.000000000000000000e+00 -0.000000000000000000e+00 -7.115076756936122848e-20
0.000000000000000000e+00 0.000000000000000000e+00 -9.200094875978445403e-06
0.000000000000000000e+00 0.000000000000000000e+00 1.069197099802873338e-05
0.000000000000000000e+00 0.000000000000000000e+00 1.660184576618428665e-19
0.000000000000000000e+00 0.000000000000000000e+00 1.075404326822101431e-05
0.000000000000000000e+00 -0.000000000000000000e+00 1.033380195650246414e-19
0.000000000000000000e+00 0.000000000000000000e+00 -7.689350249903905988e-06
0.000000000000000000e+00 0.000000000000000000e+00 -7.540767273069985303e-06
0.000000000000000000e+00 -0.000000000000000000e+00 1.140565827578509140e-05
0.000000000000000000e+00 -0.000000000000000000e+00 1.058791184067875424e-19
7.594679662910144122e-06 2.025247910109352002e-05 -1.205536941144681488e-06
0.000000000000000000e+00 0.000000000000000000e+00 -9.503374440377355682e-06
0.000000000000000000e+00 -0.000000000000000000e+00 1.128076321413621838e-05
0.000000000000000000e+00 -0.000000000000000000e+00 -1.939705449212347776e-19
-0.000000000000000000e+00 0.000000000000000000e+00 1.245138432463821498e-19
2.554321074936258813e-05 -1.532592644961764097e-05 -4.204385170403239483e-06
-0.000000000000000000e+00 0.000000000000000000e+00 -1.147405787227930788e-05
0.000000000000000000e+00 0.000000000000000000e+00 1.154307460613756838e-05
-0.000000000000000000e+00 0.000000000000000000e+00 -1.154307460613769544e-05
0.000000000000000000e+00 0.000000000000000000e+00 1.211834319526631877e-05
0.000000000000000000e+00 0.000000000000000000e+00 9.906493396843587336e-06
0.000000000000000000e+00 -0.000000000000000000e+00 8.080604025150711585e-06
-0.000000000000000000e+00 0.000000000000000000e+00 0.000000000000000000e+00
0.000000000000000000e+00 0.000000000000000000e+00 1.211834319526628489e-05
0.000000000000000000e+00 0.000000000000000000e+00 -1.120408949266485184e-05
0.000000000000000000e+00 -0.000000000000000000e+00 -5.251604272976662102e-20
9.602072211907257870e-06 2.160466247679186723e-05 -4.202832141949605499e-06
0.000000000000000000e+00 -0.000000000000000000e+00 4.416045540469705361e-06
0.000000000000000000e+00 0.000000000000000000e+00 -4.392461894821092485e-06
0.000000000000000000e+00 -0.000000000000000000e+00 4.439819632327298927e-06
0.000000000000000000e+00 0.000000000000000000e+00 -5.073325406262426297e-06
9.139729979705929475e-06 -1.370959496955875699e-05 4.533208318812232558e-07
9.299450132519445936e-06 -1.394917519877909860e-05 -4.810103283785775587e-06
0.000000000000000000e+00 0.000000000000000000e+00 -5.191995673336969490e-06
0.000000000000000000e+00 -0.000000000000000000e+00 3.672861831289805705e-06
0.000000000000000000e+00 -0.000000000000000000e+00 3.619568291073578258e-06
0.000000000000000000e+00 0.000000000000000000e+00 -5.336307567702092136e-20
0.000000000000000000e+00 0.000000000000000000e+00 -5.474715972376838384e-06
7.527204984257627596e-06 -2.759975160894458850e-05 -8.468441044231864590e-06
0.000000000000000000e+00 0.000000000000000000e+00 -4.536862003780682364e-06
0.000000000000000000e+00 0.000000000000000000e+00 -4.512305285654446017e-06
0.000000000000000000e+00 -0.000000000000000000e+00 4.611747044473630553e-06
6.623322862638792330e-06 1.766219430037042798e-05 -1.179506364691534065e-05
0.000000000000000000e+00 0.000000000000000000e+00 -2.930733997499879173e-19
2.189751640301112269e-05 1.990683309364619065e-06 -1.600530671459791875e-06
-0.000000000000000000e+00 0.000000000000000000e+00 2.625802136488331051e-20
0.000000000000000000e+00 -0.000000000000000000e+00 5.540675810946075108e-06
0.000000000000000000e+00 0.000000000000000000e+00 9.102222222222304857e-06
7.191830426063334212e-05 4.911493949506688455e-05 2.223586021257687950e-06
0.000000000000000000e+00 0.000000000000000000e+00 -4.254847645429358718e-06
0.000000000000000000e+00 -0.000000000000000000e+00 -7.284483346386982916e-20
7.802973650857286843e-04 -5.399027223067930266e-04 1.416720422618924125e-04
0.000000000000000000e+00 -0.000000000000000000e+00 -6.606856988583542645e-20
0.000000000000000000e+00 0.000000000000000000e+00 1.107266435986152725e-05
0.000000000000000000e+00 0.000000000000000000e+00 -1.323251417769381571e-06
0.000000000000000000e+00 0.000000000000000000e+00 8.464087285900165976e-06
0.000000000000000000e+00 0.000000000000000000e+00 -8.418885298407271877e-06
2.073609123073665199e-05 -7.540396811176842925e-06 -8.531838022913809064e-06
0.000000000000000000e+00 0.000000000000000000e+00 1.063043460206474789e-05
4.192813088908786678e-19 -1.218033378151683888e-18 -1.300195574035351020e-19
9.353516703057054895e-06 -1.403027505458551204e-05 3.076156562770584049e-07
1.430024084436817464e-04 -1.324096374478581759e-05 -4.760515906360429086e-05
0.000000000000000000e+00 0.000000000000000000e+00 7.005353955978542256e-06
0.000000000000000000e+00 0.000000000000000000e+00 6.903950893773108935e-06
0.000000000000000000e+00 0.000000000000000000e+00 -1.043083900226756835e-05
0.000000000000000000e+00 0.000000000000000000e+00 -1.596792158610074884e-06
2.177753001176196542e-05 -7.919101822458828600e-06 1.376473293378316967e-05
0.000000000000000000e+00 0.000000000000000000e+00 9.451795841209866309e-06
-0.000000000000000000e+00 0.000000000000000000e+00 0.000000000000000000e+00
-0.000000000000000000e+00 0.000000000000000000e+00 -5.828381485781828810e-06
2.220390140618027608e-06 -3.108546196865388746e-05 1.426214768664916497e-05
0.000000000000000000e+00 0.000000000000000000e+00 -1.049320561372241121e-05
1.028921214622225499e-05 0.000000000000000000e+00 -3.026238866535938168e-07
0.000000000000000000e+00 0.000000000000000000e+00 1.154307460613761582e-05
2.862105328769195775e-04 3.653751483535218542e-05 3.333478347701208445e-05
0.000000000000000000e+00 0.000000000000000000e+00 -1.267541874151217617e-06
0.000000000000000000e+00 0.000000000000000000e+00 -7.471654537494766886e-06
2.227024989182195872e-06 -4.832644226524276097e-04 1.205213523557152096e-04
4.132566718266053357e-05 -2.755044478844040541e-05 -9.359048156073590513e-06
5.299467750648688370e-04 8.525230729304433645e-04 -1.658470958468528608e-04
0.000000000000000000e+00 -0.000000000000000000e+00 2.227617232707725147e-06
0.000000000000000000e+00 0.000000000000000000e+00 1.113808616353846310e-05
1.308937314173924236e-05 3.739820897639723392e-06 7.027663440805579165e-06
0.000000000000000000e+00 0.000000000000000000e+00 9.150962280877255611e-06
0.000000000000000000e+00 -0.000000000000000000e+00 1.830192456175465013e-06
0.000000000000000000e+00 0.000000000000000000e+00 1.069197099802868256e-05
0.000000000000000000e+00 0.000000000000000000e+00 1.063043460206441416e-05
-9.272573109014888010e-06 1.390885966352240147e-05 1.032503494986432584e-05
0.000000000000000000e+00 0.000000000000000000e+00 1.081665765278517353e-05
0.000000000000000000e+00 0.000000000000000000e+00 -6.954463956920919825e-06
0.000000000000000000e+00 -0.000000000000000000e+00 1.515501329023646395e-06
-0.000000000000000000e+00 -0.000000000000000000e+00 2.625802136488331051e-20
-0.000000000000000000e+00 -0.000000000000000000e+00 -1.133786848072559502e-05
0.000000000000000000e+00 0.000000000000000000e+00 2.710505431213761085e-20
0.000000000000000000e+00 -0.000000000000000000e+00 -9.555376392248197533e-06
0.000000000000000000e+00 -0.000000000000000000e+00 1.880127202355931929e-06
-7.768878777489146120e-06 1.165331816623347185e-05 7.248530078622272101e-06
0.000000000000000000e+00 -0.000000000000000000e+00 1.964380261047574941e-06
0.000000000000000000e+00 -0.000000000000000000e+00 1.262146365950738775e-05
0.000000000000000000e+00 0.000000000000000000e+00 1.147405787227940275e-05
1.288677971241035793e-05 -1.288677971241028339e-05 -8.024949184546075929e-06
0.000000000000000000e+00 0.000000000000000000e+00 1.154307460613769544e-05
0.000000000000000000e+00 0.000000000000000000e+00 1.211834319526624424e-05
0.000000000000000000e+00 0.000000000000000000e+00 -9.906493396843587336e-06
0.000000000000000000e+00 0.000000000000000000e+00 -8.888664427665986370e-06
0.000000000000000000e+00 0.000000000000000000e+00 9.503374440377457326e-06
0.000000000000000000e+00 0.000000000000000000e+00 1.211834319526627134e-05
-2.784715876400366584e-05 1.012623955054672443e-05 -1.171218736250729647e-05
0.000000000000000000e+00 0.000000000000000000e+00 1.107266435986155266e-05
9.602072211907257870e-06 2.160466247679186384e-05 -4.202832141949606346e-06
0.000000000000000000e+00 0.000000000000000000e+00 9.200094875978372558e-06
0.000000000000000000e+00 -0.000000000000000000e+00 6.588692842231746724e-06
0.000000000000000000e+00 -0.000000000000000000e+00 6.624068310704414046e-06
-0.000000000000000000e+00 -0.000000000000000000e+00 -1.169347806227117101e-05
0.000000000000000000e+00 -0.000000000000000000e+00 1.141498216409042169e-05
6.954429831761271040e-06 -2.549957604979132404e-05 -3.519982799872732496e-06
0.000000000000000000e+00 0.000000000000000000e+00 1.081665765278525146e-05
0.000000000000000000e+00 -0.000000000000000000e+00 5.536332179930717037e-06
0.000000000000000000e+00 -0.000000000000000000e+00 5.429352436610334564e-06
0.000000000000000000e+00 0.000000000000000000e+00 1.140565827578509140e-05
1.006614317339211090e-05 -1.509921476008801812e-05 -4.679141686348025970e-06
0.000000000000000000e+00 0.000000000000000000e+00 -1.600436738898836325e-05
0.000000000000000000e+00 0.000000000000000000e+00 9.503374440377475961e-06
0.000000000000000000e+00 -0.000000000000000000e+00 6.768457928481687660e-06
-0.000000000000000000e+00 0.000000000000000000e+00 -3.822150556899504324e-06
0.000000000000000000e+00 0.000000000000000000e+00 1.253608761936364502e-19
-0.000000000000000000e+00 -0.000000000000000000e+00 1.147405787227786793e-06
1.174918609545455785e-05 0.000000000000000000e+00 -1.448228553477205747e-06
0.000000000000000000e+00 -0.000000000000000000e+00 1.239198250206176940e-05
0.000000000000000000e+00 -0.000000000000000000e+00 1.239198250206172875e-05
1.830205540661308995e-05 1.830205540661320853e-05 7.575289243165028454e-06
-1.772716175409565738e-06 -3.545432350818536012e-06 -1.763710398047574211e-06
0.000000000000000000e+00 -0.000000000000000000e+00 5.818034898108690624e-06
0.000000000000000000e+00 -0.000000000000000000e+00 6.842429597071725500e-06
-3.223938034082977303e-03 9.154391948630665344e-04 -1.303087724949393133e-04
-0.000000000000000000e+00 0.000000000000000000e+00 8.963271594131667344e-07
0.000000000000000000e+00 0.000000000000000000e+00 1.107266435986150014e-05
1.102876632907412164e-04 2.080899307372475264e-05 -4.467312467600085743e-05
0.000000000000000000e+00 0.000000000000000000e+00 4.416045540469633363e-06
0.000000000000000000e+00 0.000000000000000000e+00 4.392461894821093332e-06
-0.000000000000000000e+00 0.000000000000000000e+00 1.060149228790852640e-05
0.000000000000000000e+00 0.000000000000000000e+00 5.073325406262427144e-06
-4.543676651802586072e-06 2.044654493311054465e-05 3.233421232291947032e-06
0.000000000000000000e+00 0.000000000000000000e+00 -5.559824918974978628e-06
0.000000000000000000e+00 0.000000000000000000e+00 5.191995673336969490e-06
0.000000000000000000e+00 0.000000000000000000e+00 3.672861831289967911e-06
-0.000000000000000000e+00 0.000000000000000000e+00 8.554895672719124624e-06
0.000000000000000000e+00 0.000000000000000000e+00 -5.895691609977311373e-06
0.000000000000000000e+00 0.000000000000000000e+00 5.474715972376839231e-06
-4.988443539862912307e-06 -7.482665309794295615e-06 -1.427841927653259187e-06
0.000000000000000000e+00 0.000000000000000000e+00 4.536862003780682364e-06
0.000000000000000000e+00 0.000000000000000000e+00 4.512305285654446017e-06
-7.919101822458952266e-06 1.385842818930313682e-05 2.502774961001575594e-06
-2.393580851353308133e-05 6.223310213518411140e-05 -1.869937040503699688e-05
0.000000000000000000e+00 0.000000000000000000e+00 -5.930942303408397013e-06
-1.009158016243913227e-05 2.018316032487871432e-06 2.387980867315208906e-06
0.000000000000000000e+00 0.000000000000000000e+00 1.154307460613774287e-05
-1.110018548088861998e-03 2.421858650375698432e-03 -4.607224530357633720e-03
0.000000000000000000e+00 0.000000000000000000e+00 -4.708012675418803574e-06
0.000000000000000000e+00 0.000000000000000000e+00 -2.111554543205010978e-06
0.000000000000000000e+00 0.000000000000000000e+00 4.254847645429358718e-06
-7.705660260735510073e-06 1.155849039110329645e-05 -5.832813956722572143e-06
1.571215819811686357e-04 -2.469053431132650221e-04 8.938165471526147423e-05
0.000000000000000000e+00 0.000000000000000000e+00 1.113808616353828692e-05
-0.000000000000000000e+00 -0.000000000000000000e+00 -9.578754100642843404e-06
0.000000000000000000e+00 0.000000000000000000e+00 -1.880127202356034420e-06
0.000000000000000000e+00 -0.000000000000000000e+00 5.520056925587017775e-06
0.000000000000000000e+00 -0.000000000000000000e+00 5.490577368526395887e-06
6.585095773582185733e-05 4.115684858488849990e-06 -9.389043639740031328e-06
0.000000000000000000e+00 -0.000000000000000000e+00 7.398599550799401789e-06
2.271838325900613716e-06 1.363102995540765996e-05 4.424010301480878717e-06
9.299450132519445936e-06 -1.394917519877909860e-05 -6.127939799891460962e-06
-1.437723884155017325e-05 1.006406718908513211e-05 -9.657737203643344652e-06
0.000000000000000000e+00 0.000000000000000000e+00 7.577506645118091793e-06
7.617350348471068902e-06 2.031293426258932056e-05 8.091907201731110295e-06
-0.000000000000000000e+00 0.000000000000000000e+00 -1.043083900226756835e-05
0.000000000000000000e+00 0.000000000000000000e+00 -6.802721088433289910e-07
0.000000000000000000e+00 0.000000000000000000e+00 -1.921561268530633587e-06
0.000000000000000000e+00 0.000000000000000000e+00 -1.880127202356004351e-06
7.663895164471393572e-06 -1.149584274670715050e-05 -3.380105634704839351e-06
-4.036632064975822485e-06 -4.036632064975711524e-06 -1.897432933215861439e-06
0.000000000000000000e+00 0.000000000000000000e+00 -6.884434723368558818e-07
0.000000000000000000e+00 -0.000000000000000000e+00 6.843394965471141577e-06
3.577332006181408591e-05 -8.417251779250552727e-06 -6.914974890841109689e-07
0.000000000000000000e+00 -0.000000000000000000e+00 8.031840510595606998e-06
1.385999299357017998e-05 0.000000000000000000e+00 -1.886293164098109313e-06
0.000000000000000000e+00 0.000000000000000000e+00 -7.204722470431742232e-06
0.000000000000000000e+00 0.000000000000000000e+00 8.121363627711624731e-06
-3.916395365151602293e-06 2.545656987348470678e-05 -1.547761542636991083e-05
1.385999299357017998e-05 0.000000000000000000e+00 -2.627469260010952266e-06
1.745955238952026422e-05 -2.494221769931463268e-05 1.159412980488214225e-05
0.000000000000000000e+00 0.000000000000000000e+00 -1.292017994970461578e-05
-1.162431266564920281e-05 -9.299450132519376479e-06 3.524591059584516222e-06
-0.000000000000000000e+00 -0.000000000000000000e+00 1.288013282636991115e-06
-0.000000000000000000e+00 -0.000000000000000000e+00 1.281134719322932532e-06
0.000000000000000000e+00 0.000000000000000000e+00 7.214706902532128525e-06
-0.000000000000000000e+00 -0.000000000000000000e+00 1.479719910159806539e-06
0.000000000000000000e+00 0.000000000000000000e+00 -1.219037610528639055e-05
-0.000000000000000000e+00 0.000000000000000000e+00 5.559824918974978628e-06
0.000000000000000000e+00 -0.000000000000000000e+00 -5.191995673336969490e-06
0.000000000000000000e+00 -0.000000000000000000e+00 -3.672861831289967911e-06
0.000000000000000000e+00 0.000000000000000000e+00 5.881798472994653554e-06
-0.000000000000000000e+00 -0.000000000000000000e+00 1.587301587301568259e-06
0.000000000000000000e+00 -0.000000000000000000e+00 -5.474715972376839231e-06
0.000000000000000000e+00 -0.000000000000000000e+00 -6.987822381107503742e-06
-0.000000000000000000e+00 -0.000000000000000000e+00 1.323251417769411641e-06
-0.000000000000000000e+00 -0.000000000000000000e+00 1.316089041649148835e-06
-1.184610847962337550e-05 5.923054239811750432e-06 2.619446981991476127e-06
2.393580851353308472e-05 -6.223310213518411140e-05 1.869937040503699688e-05
-0.000000000000000000e+00 -0.000000000000000000e+00 1.596792158609982346e-06
-6.005044679077616246e-06 -2.001681559692377812e-06 1.181206203807907613e-06
0.000000000000000000e+00 -0.000000000000000000e+00 -1.835849259564663003e-06
0.000000000000000000e+00 0.000000000000000000e+00 -5.540675810946074261e-06
-0.000000000000000000e+00 -0.000000000000000000e+00 2.354006337709369176e-06
-0.000000000000000000e+00 -0.000000000000000000e+00 2.111554543205010978e-06
0.000000000000000000e+00 -0.000000000000000000e+00 -4.254847645429358718e-06
-9.658320762774675220e-06 -1.931664152554968841e-06 -2.130511932965028718e-06
-2.612445666323702509e-03 1.046019081535990661e-03 -9.501110399072943856e-04
-0.000000000000000000e+00 0.000000000000000000e+00 7.796660314476875383e-06
9.546083452654305498e-06 2.147868776847272100e-05 4.987445739702406198e-06
0.000000000000000000e+00 0.000000000000000000e+00 1.849924846802777581e-07
0.000000000000000000e+00 0.000000000000000000e+00 2.576026565273946654e-06
0.000000000000000000e+00 0.000000000000000000e+00 6.405673596614129241e-06
0.000000000000000000e+00 0.000000000000000000e+00 -7.866521605527935631e-06
0.000000000000000000e+00 0.000000000000000000e+00 -1.035803937111897633e-05
0.000000000000000000e+00 -0.000000000000000000e+00 1.691108468753993163e-06
-4.649725066259792425e-06 2.092376279816865044e-05 8.704558837277502528e-06
-7.118143185244930520e-06 7.118143185244829723e-06 -5.117830755380451004e-06
0.000000000000000000e+00 0.000000000000000000e+00 5.304254651582790124e-06
0.000000000000000000e+00 0.000000000000000000e+00 -1.111111111111103033e-05
0.000000000000000000e+00 0.000000000000000000e+00 -1.104526763465379853e-05
9.976887079725970303e-06 2.244799592938317653e-05 7.179890795476614671e-06
0.000000000000000000e+00 0.000000000000000000e+00 1.900674888076034583e-07
0.000000000000000000e+00 0.000000000000000000e+00 1.034069961295825835e-05
9.632075325919357522e-06 3.852830130367816870e-06 7.281230845304797851e-06
1.014748919380989215e-05 -1.014748919381002090e-05 -4.612495088095463431e-06
0.000000000000000000e+00 0.000000000000000000e+00 1.491627523396316123e-05
-5.108642149872547271e-06 3.320617397417133915e-05 8.232563165049050686e-06
-0.000000000000000000e+00 0.000000000000000000e+00 8.031840510595620550e-06
0.000000000000000000e+00 0.000000000000000000e+00 -1.239198250206173044e-05
2.729871587917209565e-05 2.183897270333764535e-05 1.027278415196401659e-05
0.000000000000000000e+00 0.000000000000000000e+00 9.906493396843587336e-06
0.000000000000000000e+00 -0.000000000000000000e+00 3.232241610060329611e-06
0.000000000000000000e+00 0.000000000000000000e+00 -3.631043029054290329e-06
0.000000000000000000e+00 -0.000000000000000000e+00 5.540291316948268178e-06
0.000000000000000000e+00 -0.000000000000000000e+00 -3.137145057946150909e-06
0.000000000000000000e+00 -0.000000000000000000e+00 -9.801515823914045534e-06
0.000000000000000000e+00 0.000000000000000000e+00 -9.451795841209600341e-07
0.000000000000000000e+00 0.000000000000000000e+00 -9.200094875978730006e-07
0.000000000000000000e+00 0.000000000000000000e+00 -9.150962280877920108e-07
0.000000000000000000e+00 -0.000000000000000000e+00 6.509688246961390485e-06
0.000000000000000000e+00 0.000000000000000000e+00 -7.398599550799401789e-06
0.000000000000000000e+00 -0.000000000000000000e+00 1.261073390202011340e-06
0.000000000000000000e+00 0.000000000000000000e+00 -7.484379698619970219e-06
-3.147937089087306066e-04 -3.799234417863959329e-04 5.853375110682157521e-04
-0.000000000000000000e+00 0.000000000000000000e+00 7.766805472932770743e-06
0.000000000000000000e+00 0.000000000000000000e+00 -7.504294449753435348e-07
0.000000000000000000e+00 0.000000000000000000e+00 1.043083900226756835e-05
7.549607380043862525e-06 1.761575055343626565e-05 7.014002435791522364e-06
-4.539899303400243450e-05 1.650872473963732037e-05 -6.480998689564932100e-06
0.000000000000000000e+00 0.000000000000000000e+00 -6.580445208246081084e-06
0.000000000000000000e+00 0.000000000000000000e+00 -6.580445208246081084e-06
7.919101822458952266e-06 -1.385842818930313682e-05 -4.236931215705854878e-06
7.685906228476039830e-06 1.793378119977718176e-05 6.578916525693928710e-06
-0.000000000000000000e+00 0.000000000000000000e+00 1.163377144130090375e-05
1.028921214622225330e-05 0.000000000000000000e+00 -3.026238866535938698e-07
0.000000000000000000e+00 0.000000000000000000e+00 -8.031840510595606998e-06
-2.043773105622452655e-03 -8.973441291873596876e-03 1.577332442128371107e-03
0.000000000000000000e+00 -0.000000000000000000e+00 -9.597102761430580033e-06
0.000000000000000000e+00 0.000000000000000000e+00 7.471654537494767733e-06
1.367110137867605239e-04 -6.151995620404226419e-04 1.559017309627095879e-04
-4.759126152781142309e-05 3.807300922224905580e-05 -1.614539909799096506e-05
2.471957339733454539e-05 8.239857799111527555e-06 3.427472400555679158e-05
0.000000000000000000e+00 0.000000000000000000e+00 -6.460089974852301112e-06
-1.169189587882121316e-05 -9.353516703056985438e-06 -7.455928254275269879e-06
0.000000000000000000e+00 -0.000000000000000000e+00 7.214706902532152242e-06
0.000000000000000000e+00 0.000000000000000000e+00 -3.294346421115873362e-06
0.000000000000000000e+00 0.000000000000000000e+00 -3.312034155352207023e-06
0.000000000000000000e+00 0.000000000000000000e+00 -6.130268199233642113e-06
0.000000000000000000e+00 -0.000000000000000000e+00 -1.141498216409042169e-05
-4.556733193905004255e-06 2.050529937257265510e-05 -2.676776156954429363e-06
0.000000000000000000e+00 -0.000000000000000000e+00 8.603234614575912576e-07
-0.000000000000000000e+00 0.000000000000000000e+00 6.459054209919246674e-06
0.000000000000000000e+00 0.000000000000000000e+00 -2.714676218305167282e-06
0.000000000000000000e+00 -0.000000000000000000e+00 9.070294784582257154e-07
0.000000000000000000e+00 0.000000000000000000e+00 -6.536995130713500916e-06
0.000000000000000000e+00 0.000000000000000000e+00 -6.498371905745675665e-06
0.000000000000000000e+00 0.000000000000000000e+00 -5.482041587901727101e-06
-0.000000000000000000e+00 0.000000000000000000e+00 7.896534249895313564e-06
9.711098471861309830e-06 -5.826659083116859590e-06 -1.637903988248691927e-06
-1.023220820081432746e-05 6.139324920488519906e-06 5.930303341199039978e-06
0.000000000000000000e+00 0.000000000000000000e+00 -9.808866117175253687e-06
-0.000000000000000000e+00 -0.000000000000000000e+00 -3.439935501209361361e-06
0.000000000000000000e+00 -0.000000000000000000e+00 -1.239198250206176940e-05
0.000000000000000000e+00 -0.000000000000000000e+00 -1.239198250206172875e-05
0.000000000000000000e+00 -0.000000000000000000e+00 1.249434133091899153e-05
-1.591223805069764307e-05 -1.414421160062012190e-05 -7.203998682548478461e-06
-0.000000000000000000e+00 0.000000000000000000e+00 5.818034898108693166e-06
-0.000000000000000000e+00 0.000000000000000000e+00 1.140404932845288204e-05
5.667179479624615684e-04 1.066269324314557312e-03 -1.825451377123767885e-04
-0.000000000000000000e+00 0.000000000000000000e+00 -9.187353383985280900e-06
1.453031879670785149e-05 2.906063759341577412e-05 -2.913833983296885136e-06
-9.553907251102650505e-06 -0.000000000000000000e+00 -5.977578333577652141e-06
0.000000000000000000e+00 -0.000000000000000000e+00 -6.440066413184878917e-06
