0.000000000000000000e+00 -0.000000000000000000e+00 -1.011576743987356110e-05
0.000000000000000000e+00 0.000000000000000000e+00 -1.651169040580455472e-06
0.000000000000000000e+00 0.000000000000000000e+00 3.697777777777792819e-06
-0.000000000000000000e+00 0.000000000000000000e+00 8.476727629937832171e-06
6.233843270880278799e-05 1.100089988978872141e-05 -9.717461569313391560e-06
0.000000000000000000e+00 0.000000000000000000e+00 -2.343750000000038758e-06
0.000000000000000000e+00 0.000000000000000000e+00 -2.325546185407675840e-06
0.000000000000000000e+00 0.000000000000000000e+00 -2.325546185407727932e-06
0.000000000000000000e+00 0.000000000000000000e+00 -2.325546185407779601e-06
0.000000000000000000e+00 0.000000000000000000e+00 -2.325546185407779601e-06
0.000000000000000000e+00 0.000000000000000000e+00 -2.307553632594277554e-06
0.000000000000000000e+00 0.000000000000000000e+00 -2.307553632594277554e-06
0.000000000000000000e+00 0.000000000000000000e+00 -2.307553632594277554e-06
0.000000000000000000e+00 -0.000000000000000000e+00 -1.479791904263476105e-05
0.000000000000000000e+00 0.000000000000000000e+00 -2.380804761609551534e-06
0.000000000000000000e+00 0.000000000000000000e+00 -2.380804761609551534e-06
0.000000000000000000e+00 0.000000000000000000e+00 -2.380804761609446502e-06
0.000000000000000000e+00 0.000000000000000000e+00 -2.380804761609393986e-06
0.000000000000000000e+00 0.000000000000000000e+00 -2.362168396770481220e-06
0.000000000000000000e+00 0.000000000000000000e+00 -2.362168396770376611e-06
-0.000000000000000000e+00 0.000000000000000000e+00 8.420683303364024061e-06
0.000000000000000000e+00 0.000000000000000000e+00 6.413314598786628364e-06
0.000000000000000000e+00 0.000000000000000000e+00 -2.362168396770507478e-06
9.686492086424505950e-05 4.036038369343560522e-06 4.149889184307496432e-05
0.000000000000000000e+00 -0.000000000000000000e+00 -9.842368319876966190e-06
0.000000000000000000e+00 0.000000000000000000e+00 -1.640394719979486248e-06
0.000000000000000000e+00 0.000000000000000000e+00 6.094182825484710247e-06
3.142071455114923365e-04 1.894484259701645975e-04 -7.856661213182953847e-05
0.000000000000000000e+00 0.000000000000000000e+00 -1.695345525987620898e-06
0.000000000000000000e+00 0.000000000000000000e+00 -2.343750000000021394e-06
-0.000000000000000000e+00 0.000000000000000000e+00 1.289062500000004059e-05
0.000000000000000000e+00 0.000000000000000000e+00 -2.325546185407745296e-06
0.000000000000000000e+00 0.000000000000000000e+00 -2.325546185407900727e-06
0.000000000000000000e+00 0.000000000000000000e+00 -2.325546185407796965e-06
0.000000000000000000e+00 0.000000000000000000e+00 -2.325546185407900727e-06
0.000000000000000000e+00 0.000000000000000000e+00 -2.307553632594311859e-06
0.000000000000000000e+00 0.000000000000000000e+00 -2.307553632594311859e-06
4.059929711109936876e-04 1.159979917460004888e-04 -7.648733888898561427e-05
0.000000000000000000e+00 0.000000000000000000e+00 -2.380804761609638355e-06
0.000000000000000000e+00 0.000000000000000000e+00 -2.380804761609533323e-06
0.000000000000000000e+00 0.000000000000000000e+00 -2.380804761609533323e-06
0.000000000000000000e+00 0.000000000000000000e+00 -2.380804761609533323e-06
0.000000000000000000e+00 0.000000000000000000e+00 -2.380804761609533323e-06
0.000000000000000000e+00 0.000000000000000000e+00 -2.362168396770480796e-06
0.000000000000000000e+00 0.000000000000000000e+00 -2.362168396770324519e-06
0.000000000000000000e+00 0.000000000000000000e+00 -1.673038590987807413e-06
0.000000000000000000e+00 0.000000000000000000e+00 6.216266928621036494e-06
0.000000000000000000e+00 0.000000000000000000e+00 -2.362168396770402869e-06
0.000000000000000000e+00 -0.000000000000000000e+00 3.929652208236334159e-06
0.000000000000000000e+00 0.000000000000000000e+00 -2.460592079969250441e-06
0.000000000000000000e+00 0.000000000000000000e+00 -2.460592079969252982e-06
0.000000000000000000e+00 0.000000000000000000e+00 -2.509557886481703814e-06
0.000000000000000000e+00 0.000000000000000000e+00 -3.722553438999574286e-06
0.000000000000000000e+00 -0.000000000000000000e+00 -9.889515568260990829e-06
0.000000000000000000e+00 0.000000000000000000e+00 -3.515625000000144746e-06
0.000000000000000000e+00 -0.000000000000000000e+00 -1.356568608154559615e-05
0.000000000000000000e+00 0.000000000000000000e+00 -3.488319278111721918e-06
0.000000000000000000e+00 0.000000000000000000e+00 -3.488319278111721918e-06
0.000000000000000000e+00 0.000000000000000000e+00 -3.488319278111618156e-06
0.000000000000000000e+00 0.000000000000000000e+00 -3.488319278111514395e-06
0.000000000000000000e+00 0.000000000000000000e+00 -3.461330448891296053e-06
0.000000000000000000e+00 0.000000000000000000e+00 -3.461330448891192715e-06
0.000000000000000000e+00 0.000000000000000000e+00 -3.599493821181414490e-06
0.000000000000000000e+00 0.000000000000000000e+00 -3.571207142414256362e-06
0.000000000000000000e+00 0.000000000000000000e+00 -3.571207142414466426e-06
0.000000000000000000e+00 0.000000000000000000e+00 -3.571207142414361394e-06
0.000000000000000000e+00 0.000000000000000000e+00 -3.571207142414361394e-06
0.000000000000000000e+00 0.000000000000000000e+00 -3.543252595155739406e-06
0.000000000000000000e+00 0.000000000000000000e+00 -3.543252595155686890e-06
0.000000000000000000e+00 -0.000000000000000000e+00 9.054978854286844606e-06
0.000000000000000000e+00 0.000000000000000000e+00 -2.509557886481729225e-06
-2.455989695148122660e-04 2.361528553027037955e-04 -1.076124567474052909e-04
-8.147642961952653571e-05 2.327897989129333367e-05 2.728433378435372135e-05
0.000000000000000000e+00 -0.000000000000000000e+00 2.354570637119104412e-05
0.000000000000000000e+00 -0.000000000000000000e+00 1.210857296425696710e-05
0.000000000000000000e+00 0.000000000000000000e+00 1.651169040580455472e-06
-0.000000000000000000e+00 -0.000000000000000000e+00 -2.844444444444506902e-06
0.000000000000000000e+00 0.000000000000000000e+00 1.251555555555544853e-05
-6.233843270880278799e-05 -1.100089988978872311e-05 9.717461569313391560e-06
-0.000000000000000000e+00 0.000000000000000000e+00 7.031249999999891387e-06
-0.000000000000000000e+00 0.000000000000000000e+00 6.976638556223374379e-06
-0.000000000000000000e+00 0.000000000000000000e+00 6.976638556223271041e-06
-0.000000000000000000e+00 0.000000000000000000e+00 6.976638556223271041e-06
-0.000000000000000000e+00 0.000000000000000000e+00 6.976638556223271041e-06
0.000000000000000000e+00 0.000000000000000000e+00 2.307553632594277554e-06
-0.000000000000000000e+00 0.000000000000000000e+00 6.922660897782385430e-06
-0.000000000000000000e+00 0.000000000000000000e+00 6.922660897782385430e-06
0.000000000000000000e+00 0.000000000000000000e+00 1.507843015686004934e-05
-0.000000000000000000e+00 0.000000000000000000e+00 7.142414284828583874e-06
-0.000000000000000000e+00 0.000000000000000000e+00 7.142414284828583874e-06
-0.000000000000000000e+00 0.000000000000000000e+00 7.142414284828583874e-06
-0.000000000000000000e+00 0.000000000000000000e+00 7.142414284828583874e-06
-0.000000000000000000e+00 0.000000000000000000e+00 7.086505190311443236e-06
-0.000000000000000000e+00 0.000000000000000000e+00 7.086505190311495752e-06
-3.849145416066651371e-05 6.998446211030382870e-06 -9.766949197452645180e-06
-0.000000000000000000e+00 -0.000000000000000000e+00 1.115359060658626649e-06
-0.000000000000000000e+00 0.000000000000000000e+00 7.086505190311390720e-06
-4.178908653807041334e-05 1.358145312487375441e-04 1.042492452941783587e-04
0.000000000000000000e+00 -0.000000000000000000e+00 1.320935232464375728e-05
0.000000000000000000e+00 0.000000000000000000e+00 1.640394719979486036e-06
0.000000000000000000e+00 -0.000000000000000000e+00 -6.094182825484710247e-06
1.507566091835761983e-03 1.492639694886894937e-05 -2.816459445672916904e-05
-0.000000000000000000e+00 0.000000000000000000e+00 5.933709340956551807e-06
-0.000000000000000000e+00 0.000000000000000000e+00 8.203125000000065562e-06
-5.096216445366412407e-05 -5.662462717073785465e-05 -9.058426319853344857e-06
-0.000000000000000000e+00 0.000000000000000000e+00 8.139411648927453915e-06
-0.000000000000000000e+00 0.000000000000000000e+00 8.139411648927247239e-06
-0.000000000000000000e+00 0.000000000000000000e+00 8.139411648927506431e-06
-0.000000000000000000e+00 0.000000000000000000e+00 8.139411648927298061e-06
-0.000000000000000000e+00 0.000000000000000000e+00 8.076437714079678367e-06
-0.000000000000000000e+00 0.000000000000000000e+00 8.076437714079678367e-06
0.000000000000000000e+00 0.000000000000000000e+00 -1.269154497926830124e-05
-0.000000000000000000e+00 0.000000000000000000e+00 8.332816665633306066e-06
-0.000000000000000000e+00 0.000000000000000000e+00 8.332816665633411098e-06
-0.000000000000000000e+00 0.000000000000000000e+00 8.332816665633411098e-06
-0.000000000000000000e+00 0.000000000000000000e+00 8.332816665633411098e-06
-0.000000000000000000e+00 0.000000000000000000e+00 8.332816665633463614e-06
-0.000000000000000000e+00 0.000000000000000000e+00 8.267589388696597660e-06
-0.000000000000000000e+00 0.000000000000000000e+00 8.267589388696702693e-06
-0.000000000000000000e+00 0.000000000000000000e+00 5.855635068457329227e-06
-0.000000000000000000e+00 -0.000000000000000000e+00 -2.825575876645727781e-07
-0.000000000000000000e+00 0.000000000000000000e+00 8.267589388696623071e-06
0.000000000000000000e+00 0.000000000000000000e+00 -3.929652208236334159e-06
0.000000000000000000e+00 0.000000000000000000e+00 2.460592079969250441e-06
0.000000000000000000e+00 0.000000000000000000e+00 2.460592079969252982e-06
0.000000000000000000e+00 0.000000000000000000e+00 2.509557886481703814e-06
-0.000000000000000000e+00 0.000000000000000000e+00 -4.008903703537966133e-06
0.000000000000000000e+00 -0.000000000000000000e+00 1.507555555555549178e-05
0.000000000000000000e+00 0.000000000000000000e+00 3.515625000000144746e-06
0.000000000000000000e+00 0.000000000000000000e+00 -1.484374999999999319e-05
0.000000000000000000e+00 0.000000000000000000e+00 3.488319278111721918e-06
0.000000000000000000e+00 0.000000000000000000e+00 3.488319278111721918e-06
0.000000000000000000e+00 0.000000000000000000e+00 3.488319278111617733e-06
0.000000000000000000e+00 0.000000000000000000e+00 3.488319278111514395e-06
0.000000000000000000e+00 0.000000000000000000e+00 3.461330448891296053e-06
0.000000000000000000e+00 0.000000000000000000e+00 3.461330448891192715e-06
0.000000000000000000e+00 0.000000000000000000e+00 3.599493821181414490e-06
0.000000000000000000e+00 0.000000000000000000e+00 3.571207142414256362e-06
0.000000000000000000e+00 0.000000000000000000e+00 3.571207142414466426e-06
0.000000000000000000e+00 0.000000000000000000e+00 3.571207142414361394e-06
0.000000000000000000e+00 0.000000000000000000e+00 3.571207142414361394e-06
0.000000000000000000e+00 0.000000000000000000e+00 3.543252595155739406e-06
0.000000000000000000e+00 0.000000000000000000e+00 3.543252595155686890e-06
-0.000000000000000000e+00 0.000000000000000000e+00 -9.054978854286844606e-06
0.000000000000000000e+00 0.000000000000000000e+00 2.509557886481729225e-06
4.125521498859990692e-04 -1.094526111942443531e-04 -3.174846103810052047e-05
1.359830021247342017e-04 5.912304440205763078e-06 -1.002246260719503035e-06
-0.000000000000000000e+00 0.000000000000000000e+00 9.907014243482954757e-06
-0.000000000000000000e+00 0.000000000000000000e+00 2.476753560870816193e-06
0.000000000000000000e+00 0.000000000000000000e+00 1.495844875346245790e-05
-1.834835309617887690e-05 2.752252964426859318e-05 -5.215543897472735453e-05
-0.000000000000000000e+00 0.000000000000000000e+00 1.017207315592542978e-05
-2.833914426032042204e-04 -5.027912691347199129e-05 1.310141566632034565e-05
0.000000000000000000e+00 0.000000000000000000e+00 7.031249999999891387e-06
0.000000000000000000e+00 0.000000000000000000e+00 6.976638556223374379e-06
0.000000000000000000e+00 0.000000000000000000e+00 6.976638556223271041e-06
0.000000000000000000e+00 0.000000000000000000e+00 6.976638556223271041e-06
0.000000000000000000e+00 0.000000000000000000e+00 6.976638556223271041e-06
0.000000000000000000e+00 0.000000000000000000e+00 6.434011112961584211e-05
0.000000000000000000e+00 0.000000000000000000e+00 6.922660897782384583e-06
0.000000000000000000e+00 0.000000000000000000e+00 6.922660897782384583e-06
-0.000000000000000000e+00 0.000000000000000000e+00 3.571207142414379181e-06
0.000000000000000000e+00 0.000000000000000000e+00 7.142414284828583874e-06
0.000000000000000000e+00 0.000000000000000000e+00 7.142414284828583874e-06
0.000000000000000000e+00 0.000000000000000000e+00 7.142414284828583874e-06
0.000000000000000000e+00 0.000000000000000000e+00 7.142414284828583874e-06
0.000000000000000000e+00 0.000000000000000000e+00 7.086505190311443236e-06
0.000000000000000000e+00 0.000000000000000000e+00 7.086505190311495752e-06
-0.000000000000000000e+00 0.000000000000000000e+00 1.010481996403665811e-05
0.000000000000000000e+00 -0.000000000000000000e+00 1.740274549361864662e-05
0.000000000000000000e+00 0.000000000000000000e+00 7.086505190311390720e-06
-9.686492086424505950e-05 -4.036038369343560522e-06 -4.149889184307496432e-05
-0.000000000000000000e+00 0.000000000000000000e+00 -1.778769189234030712e-19
0.000000000000000000e+00 -0.000000000000000000e+00 1.568610588551477803e-05
-0.000000000000000000e+00 0.000000000000000000e+00 -2.537441862998184017e-05
-5.445200166158632781e-05 7.260266888211515908e-06 -2.186621556920183610e-05
0.000000000000000000e+00 0.000000000000000000e+00 5.933709340956551807e-06
-0.000000000000000000e+00 0.000000000000000000e+00 -2.075230720773035831e-19
0.000000000000000000e+00 -0.000000000000000000e+00 -8.203124999999892767e-06
0.000000000000000000e+00 -0.000000000000000000e+00 -1.041850525122789417e-19
0.000000000000000000e+00 -0.000000000000000000e+00 -2.591920818598159038e-19
0.000000000000000000e+00 -0.000000000000000000e+00 0.000000000000000000e+00
0.000000000000000000e+00 -0.000000000000000000e+00 -1.033380195650246414e-19
-0.000000000000000000e+00 0.000000000000000000e+00 1.033380195650246414e-19
-0.000000000000000000e+00 0.000000000000000000e+00 0.000000000000000000e+00
0.000000000000000000e+00 -0.000000000000000000e+00 -1.919730037963401071e-05
-0.000000000000000000e+00 0.000000000000000000e+00 2.100641709190664841e-19
0.000000000000000000e+00 -0.000000000000000000e+00 0.000000000000000000e+00
0.000000000000000000e+00 -0.000000000000000000e+00 1.050320854595332420e-19
0.000000000000000000e+00 -0.000000000000000000e+00 0.000000000000000000e+00
0.000000000000000000e+00 0.000000000000000000e+00 8.332816665633463614e-06
0.000000000000000000e+00 -0.000000000000000000e+00 -1.050320854595332420e-19
0.000000000000000000e+00 -0.000000000000000000e+00 0.000000000000000000e+00
-0.000000000000000000e+00 0.000000000000000000e+00 -1.982057096575062793e-19
3.180863787375435686e-05 -7.068586194167685491e-06 -1.276881506090810279e-05
0.000000000000000000e+00 0.000000000000000000e+00 8.267589388696621377e-06
0.000000000000000000e+00 -0.000000000000000000e+00 -5.019115772963350876e-06
0.000000000000000000e+00 -0.000000000000000000e+00 1.210857296425702470e-05
-0.000000000000000000e+00 -0.000000000000000000e+00 -1.375974200483620708e-06
0.000000000000000000e+00 0.000000000000000000e+00 1.319240384193677774e-05
0.000000000000000000e+00 0.000000000000000000e+00 -1.251555555555544853e-05
-0.000000000000000000e+00 0.000000000000000000e+00 -1.934222222222225425e-05
0.000000000000000000e+00 -0.000000000000000000e+00 3.515624999999971952e-06
0.000000000000000000e+00 -0.000000000000000000e+00 1.705400535965712495e-05
0.000000000000000000e+00 -0.000000000000000000e+00 3.488319278111739705e-06
0.000000000000000000e+00 -0.000000000000000000e+00 3.488319278111791375e-06
0.000000000000000000e+00 -0.000000000000000000e+00 3.488319278111893865e-06
0.000000000000000000e+00 0.000000000000000000e+00 6.976638556223459082e-06
0.000000000000000000e+00 -0.000000000000000000e+00 3.461330448891210503e-06
0.000000000000000000e+00 -0.000000000000000000e+00 3.461330448891210503e-06
0.000000000000000000e+00 -0.000000000000000000e+00 3.599493821181694857e-06
0.000000000000000000e+00 -0.000000000000000000e+00 3.571207142414221633e-06
0.000000000000000000e+00 -0.000000000000000000e+00 3.571207142414431698e-06
0.000000000000000000e+00 -0.000000000000000000e+00 3.571207142414221633e-06
0.000000000000000000e+00 -0.000000000000000000e+00 3.571207142414326665e-06
-0.000000000000000000e+00 0.000000000000000000e+00 -2.677124183006531632e-05
0.000000000000000000e+00 -0.000000000000000000e+00 3.543252595155965564e-06
1.070845342538139736e-03 -3.499835997563673453e-04 -5.195701935883096224e-06
0.000000000000000000e+00 -0.000000000000000000e+00 2.509557886481699578e-06
-1.705374513618701315e-05 1.705374513618714190e-05 2.176860408560298384e-05
2.041085242093390139e-04 1.074255390575467612e-05 -1.240563912271530969e-05
0.000000000000000000e+00 -0.000000000000000000e+00 3.302338081160946520e-06
0.000000000000000000e+00 -0.000000000000000000e+00 3.302338081160952449e-06
0.000000000000000000e+00 -0.000000000000000000e+00 1.171127013691465845e-05
-1.945205757763518431e-05 1.945205757763518431e-05 3.140415070956217299e-05
0.000000000000000000e+00 -0.000000000000000000e+00 3.390691051975212151e-06
0.000000000000000000e+00 0.000000000000000000e+00 -1.289062499999984916e-05
0.000000000000000000e+00 -0.000000000000000000e+00 4.687499999999973331e-06
0.000000000000000000e+00 -0.000000000000000000e+00 4.651092370815611718e-06
0.000000000000000000e+00 -0.000000000000000000e+00 4.651092370815560049e-06
0.000000000000000000e+00 -0.000000000000000000e+00 4.651092370815662540e-06
0.000000000000000000e+00 -0.000000000000000000e+00 4.651092370815662540e-06
0.000000000000000000e+00 0.000000000000000000e+00 -1.269154497926802680e-05
0.000000000000000000e+00 -0.000000000000000000e+00 4.615107265188107028e-06
0.000000000000000000e+00 -0.000000000000000000e+00 4.615107265188107028e-06
0.000000000000000000e+00 -0.000000000000000000e+00 4.761609523219014976e-06
0.000000000000000000e+00 -0.000000000000000000e+00 4.761609523218909944e-06
0.000000000000000000e+00 -0.000000000000000000e+00 4.761609523219119161e-06
0.000000000000000000e+00 -0.000000000000000000e+00 4.761609523218804912e-06
0.000000000000000000e+00 -0.000000000000000000e+00 4.761609523218909944e-06
0.000000000000000000e+00 -0.000000000000000000e+00 4.724336793541014109e-06
0.000000000000000000e+00 -0.000000000000000000e+00 4.724336793541014109e-06
0.000000000000000000e+00 -0.000000000000000000e+00 3.368273321345532798e-06
-0.000000000000000000e+00 0.000000000000000000e+00 -2.077101881496417899e-05
0.000000000000000000e+00 0.000000000000000000e+00 -3.515624999999901648e-06
1.122642449683150230e-05 -1.496856599577520765e-05 5.541171021697900308e-06
0.000000000000000000e+00 -0.000000000000000000e+00 1.651169040580508412e-06
0.000000000000000000e+00 -0.000000000000000000e+00 1.651169040580505447e-06
0.000000000000000000e+00 -0.000000000000000000e+00 1.319240384193673030e-05
-4.327021938057890629e-05 -1.442340646019296933e-05 -1.688386991516702183e-05
0.000000000000000000e+00 0.000000000000000000e+00 -1.080888888888883942e-05
0.000000000000000000e+00 -0.000000000000000000e+00 2.343749999999918056e-06
0.000000000000000000e+00 -0.000000000000000000e+00 2.343749999999918056e-06
0.000000000000000000e+00 -0.000000000000000000e+00 2.325546185407849058e-06
0.000000000000000000e+00 -0.000000000000000000e+00 2.325546185407900727e-06
0.000000000000000000e+00 -0.000000000000000000e+00 2.325546185407745720e-06
0.000000000000000000e+00 -0.000000000000000000e+00 2.325546185407849058e-06
0.000000000000000000e+00 -0.000000000000000000e+00 2.307553632594449502e-06
0.000000000000000000e+00 -0.000000000000000000e+00 2.307553632594242826e-06
0.000000000000000000e+00 -0.000000000000000000e+00 2.399662547454053557e-06
0.000000000000000000e+00 -0.000000000000000000e+00 2.380804761609690871e-06
0.000000000000000000e+00 -0.000000000000000000e+00 2.380804761609585839e-06
0.000000000000000000e+00 -0.000000000000000000e+00 2.380804761609375774e-06
0.000000000000000000e+00 -0.000000000000000000e+00 2.380804761609480807e-06
0.000000000000000000e+00 0.000000000000000000e+00 -1.496039984621294199e-05
0.000000000000000000e+00 -0.000000000000000000e+00 2.362168396770376611e-06
0.000000000000000000e+00 -0.000000000000000000e+00 2.362168396770271579e-06
0.000000000000000000e+00 -0.000000000000000000e+00 1.673038590987631442e-06
-1.070949989373687552e-05 1.427933319164932321e-05 2.370980190378095358e-06
0.000000000000000000e+00 0.000000000000000000e+00 9.374999999999963603e-06
-0.000000000000000000e+00 0.000000000000000000e+00 8.365192954940952417e-07
-0.000000000000000000e+00 0.000000000000000000e+00 1.651169040580563469e-06
0.000000000000000000e+00 0.000000000000000000e+00 1.412742382271458480e-05
1.070629951985898503e-04 -2.215096452384389419e-05 -1.578414161465005417e-04
-0.000000000000000000e+00 0.000000000000000000e+00 1.706666666666631127e-06
4.283799957494805773e-05 2.498883308538647825e-05 -1.998152145949146975e-05
-0.000000000000000000e+00 0.000000000000000000e+00 2.343749999999986666e-06
-0.000000000000000000e+00 0.000000000000000000e+00 2.325546185407935455e-06
-0.000000000000000000e+00 0.000000000000000000e+00 2.325546185407727932e-06
-0.000000000000000000e+00 0.000000000000000000e+00 2.325546185407831270e-06
-0.000000000000000000e+00 0.000000000000000000e+00 2.325546185407882939e-06
0.000000000000000000e+00 0.000000000000000000e+00 -2.307553632594212163e-05
-0.000000000000000000e+00 0.000000000000000000e+00 2.307553632594036150e-06
-0.000000000000000000e+00 0.000000000000000000e+00 2.307553632594036150e-06
-0.000000000000000000e+00 0.000000000000000000e+00 -1.759752534799795411e-05
-0.000000000000000000e+00 0.000000000000000000e+00 2.380804761609516382e-06
-0.000000000000000000e+00 0.000000000000000000e+00 2.380804761609620567e-06
-0.000000000000000000e+00 0.000000000000000000e+00 2.380804761609306318e-06
-0.000000000000000000e+00 0.000000000000000000e+00 2.380804761609411350e-06
0.000000000000000000e+00 0.000000000000000000e+00 3.571207142414273302e-06
-0.000000000000000000e+00 0.000000000000000000e+00 2.362168396770655285e-06
-6.645516904384946130e-05 -2.953563068615998875e-05 -6.355096364684022095e-05
0.000000000000000000e+00 0.000000000000000000e+00 1.226894966724400841e-05
0.000000000000000000e+00 0.000000000000000000e+00 -2.362168396770467074e-05
-1.267300687628166063e-03 -6.670003619095604295e-05 1.119098200797436374e-05
-0.000000000000000000e+00 0.000000000000000000e+00 2.476753560870663727e-06
0.000000000000000000e+00 0.000000000000000000e+00 1.155818328406339583e-05
-0.000000000000000000e+00 0.000000000000000000e+00 -1.003823154592684405e-05
1.945205757763518431e-05 -1.945205757763518431e-05 -3.140415070956217299e-05
0.000000000000000000e+00 0.000000000000000000e+00 9.324400392931653844e-06
-0.000000000000000000e+00 0.000000000000000000e+00 3.515624999999954588e-06
-0.000000000000000000e+00 0.000000000000000000e+00 3.515624999999954588e-06
-0.000000000000000000e+00 0.000000000000000000e+00 3.488319278111721494e-06
-0.000000000000000000e+00 0.000000000000000000e+00 3.488319278111669825e-06
-0.000000000000000000e+00 0.000000000000000000e+00 3.488319278111773163e-06
-0.000000000000000000e+00 0.000000000000000000e+00 3.488319278111773163e-06
-0.000000000000000000e+00 0.000000000000000000e+00 3.461330448891107165e-06
-0.000000000000000000e+00 0.000000000000000000e+00 3.461330448891003827e-06
0.000000000000000000e+00 0.000000000000000000e+00 1.269154497926830463e-05
-0.000000000000000000e+00 0.000000000000000000e+00 3.571207142414274149e-06
-0.000000000000000000e+00 0.000000000000000000e+00 3.571207142414274149e-06
-0.000000000000000000e+00 0.000000000000000000e+00 3.571207142414378758e-06
-0.000000000000000000e+00 0.000000000000000000e+00 3.571207142414064085e-06
0.000000000000000000e+00 0.000000000000000000e+00 1.309442618885239135e-05
-0.000000000000000000e+00 0.000000000000000000e+00 3.543252595155669102e-06
-0.000000000000000000e+00 0.000000000000000000e+00 3.543252595155617433e-06
-0.000000000000000000e+00 0.000000000000000000e+00 2.526204991009127682e-06
0.000000000000000000e+00 0.000000000000000000e+00 5.933709340956551807e-06
-0.000000000000000000e+00 0.000000000000000000e+00 3.515624999999902495e-06
-1.122642449683150230e-05 1.496856599577520765e-05 -5.541171021697902002e-06
-0.000000000000000000e+00 0.000000000000000000e+00 8.255845202902539942e-07
0.000000000000000000e+00 0.000000000000000000e+00 1.293415748454727912e-05
0.000000000000000000e+00 0.000000000000000000e+00 1.319240384193677774e-05
0.000000000000000000e+00 0.000000000000000000e+00 8.590507936152818453e-06
-0.000000000000000000e+00 0.000000000000000000e+00 8.533333333332634710e-07
-0.000000000000000000e+00 0.000000000000000000e+00 1.171874999999898042e-06
-0.000000000000000000e+00 0.000000000000000000e+00 -9.375000000000085576e-06
-0.000000000000000000e+00 0.000000000000000000e+00 1.162773092703889801e-06
-0.000000000000000000e+00 0.000000000000000000e+00 1.162773092703941470e-06
-0.000000000000000000e+00 0.000000000000000000e+00 1.162773092703838132e-06
0.000000000000000000e+00 0.000000000000000000e+00 1.472845917424933010e-05
-0.000000000000000000e+00 0.000000000000000000e+00 1.153776816297276844e-06
-0.000000000000000000e+00 0.000000000000000000e+00 1.153776816297173506e-06
-0.000000000000000000e+00 0.000000000000000000e+00 1.199831273726903535e-06
-0.000000000000000000e+00 0.000000000000000000e+00 1.190402380804863647e-06
-0.000000000000000000e+00 0.000000000000000000e+00 1.190402380804863647e-06
-0.000000000000000000e+00 0.000000000000000000e+00 1.190402380804758614e-06
-0.000000000000000000e+00 0.000000000000000000e+00 1.190402380804653582e-06
-0.000000000000000000e+00 0.000000000000000000e+00 1.181084198385084121e-06
-0.000000000000000000e+00 0.000000000000000000e+00 1.181084198385084121e-06
-0.000000000000000000e+00 0.000000000000000000e+00 1.181084198384926572e-06
-0.000000000000000000e+00 0.000000000000000000e+00 8.365192954938047094e-07
-0.000000000000000000e+00 0.000000000000000000e+00 -6.299705819845469373e-06
-0.000000000000000000e+00 0.000000000000000000e+00 -9.374999999999965297e-06
-0.000000000000000000e+00 0.000000000000000000e+00 2.354570637119103395e-05
0.000000000000000000e+00 -0.000000000000000000e+00 2.476753560870801793e-06
-0.000000000000000000e+00 0.000000000000000000e+00 -1.412742382271458310e-05
-1.705374513618726726e-05 -4.547665369649910830e-05 9.849221789883229019e-06
0.000000000000000000e+00 -0.000000000000000000e+00 2.559999999999968713e-06
-3.755362396963357954e-04 -1.462614828290991994e-04 1.594522857320266663e-05
0.000000000000000000e+00 -0.000000000000000000e+00 3.515624999999902071e-06
0.000000000000000000e+00 -0.000000000000000000e+00 3.488319278111825679e-06
0.000000000000000000e+00 -0.000000000000000000e+00 3.488319278111669825e-06
0.000000000000000000e+00 -0.000000000000000000e+00 3.488319278111721494e-06
0.000000000000000000e+00 -0.000000000000000000e+00 3.488319278111824832e-06
0.000000000000000000e+00 -0.000000000000000000e+00 3.461330448891209656e-06
0.000000000000000000e+00 -0.000000000000000000e+00 3.461330448891107165e-06
0.000000000000000000e+00 -0.000000000000000000e+00 3.461330448891107165e-06
0.000000000000000000e+00 -0.000000000000000000e+00 1.309442618885218128e-05
0.000000000000000000e+00 -0.000000000000000000e+00 3.571207142414274149e-06
0.000000000000000000e+00 -0.000000000000000000e+00 3.571207142414274149e-06
0.000000000000000000e+00 -0.000000000000000000e+00 3.571207142414169117e-06
0.000000000000000000e+00 -0.000000000000000000e+00 3.571207142414274149e-06
0.000000000000000000e+00 -0.000000000000000000e+00 3.571207142414274149e-06
0.000000000000000000e+00 -0.000000000000000000e+00 3.543252595155825803e-06
0.000000000000000000e+00 -0.000000000000000000e+00 -7.629054866943974076e-06
0.000000000000000000e+00 -0.000000000000000000e+00 9.262751633700260618e-06
0.000000000000000000e+00 -0.000000000000000000e+00 3.543252595155722042e-06
-3.028529507752414623e-04 9.085588523257250373e-05 -2.945528364826005335e-06
0.000000000000000000e+00 0.000000000000000000e+00 1.568610588551476448e-05
0.000000000000000000e+00 0.000000000000000000e+00 -6.094182825484819514e-06
0.000000000000000000e+00 0.000000000000000000e+00 -6.175167755800166404e-06
-5.365451579579006997e-05 -1.532986165594004468e-05 -6.968118934521526345e-08
0.000000000000000000e+00 0.000000000000000000e+00 -6.257777777777761533e-06
0.000000000000000000e+00 0.000000000000000000e+00 8.203124999999841945e-06
0.000000000000000000e+00 0.000000000000000000e+00 8.203124999999892767e-06
0.000000000000000000e+00 0.000000000000000000e+00 8.139411648927264179e-06
0.000000000000000000e+00 0.000000000000000000e+00 8.139411648927264179e-06
0.000000000000000000e+00 0.000000000000000000e+00 8.139411648927367518e-06
0.000000000000000000e+00 0.000000000000000000e+00 8.139411648927470856e-06
0.000000000000000000e+00 0.000000000000000000e+00 8.076437714079591970e-06
0.000000000000000000e+00 0.000000000000000000e+00 8.076437714079591970e-06
4.379901816865805204e-04 -6.537166890844783889e-06 1.231451922354747318e-04
0.000000000000000000e+00 0.000000000000000000e+00 8.332816665633411098e-06
0.000000000000000000e+00 0.000000000000000000e+00 8.332816665633411098e-06
0.000000000000000000e+00 0.000000000000000000e+00 8.332816665633411098e-06
0.000000000000000000e+00 0.000000000000000000e+00 8.332816665633306066e-06
0.000000000000000000e+00 0.000000000000000000e+00 -8.661284121491660994e-06
0.000000000000000000e+00 0.000000000000000000e+00 8.267589388696597660e-06
0.000000000000000000e+00 0.000000000000000000e+00 8.267589388696492628e-06
0.000000000000000000e+00 0.000000000000000000e+00 5.894478312354719773e-06
0.000000000000000000e+00 0.000000000000000000e+00 5.933709340956551807e-06
0.000000000000000000e+00 0.000000000000000000e+00 8.203125000000023210e-06
1.409020503820808726e-05 -2.113530755731188017e-05 2.011810024172054303e-06
0.000000000000000000e+00 0.000000000000000000e+00 1.431013168503102688e-05
0.000000000000000000e+00 0.000000000000000000e+00 -1.052631578947367428e-05
-4.594581026208954149e-05 -4.241151716500574364e-05 6.047043189368751291e-06
-0.000000000000000000e+00 0.000000000000000000e+00 -8.590507936152818453e-06
0.000000000000000000e+00 0.000000000000000000e+00 8.533333333333348758e-06
0.000000000000000000e+00 0.000000000000000000e+00 1.171875000000005615e-05
0.000000000000000000e+00 0.000000000000000000e+00 1.705400535965712495e-05
0.000000000000000000e+00 0.000000000000000000e+00 1.162773092703900304e-05
0.000000000000000000e+00 0.000000000000000000e+00 1.162773092703910638e-05
-0.000000000000000000e+00 0.000000000000000000e+00 -1.162773092703900304e-05
0.000000000000000000e+00 0.000000000000000000e+00 -1.461450633976329254e-05
0.000000000000000000e+00 0.000000000000000000e+00 1.153776816297102694e-05
0.000000000000000000e+00 0.000000000000000000e+00 1.153776816297102694e-05
0.000000000000000000e+00 0.000000000000000000e+00 1.199831273727125288e-05
0.000000000000000000e+00 0.000000000000000000e+00 1.190402380804770304e-05
0.000000000000000000e+00 0.000000000000000000e+00 1.190402380804770304e-05
0.000000000000000000e+00 0.000000000000000000e+00 1.190402380804770304e-05
0.000000000000000000e+00 0.000000000000000000e+00 1.190402380804749297e-05
0.000000000000000000e+00 0.000000000000000000e+00 1.181084198385240483e-05
0.000000000000000000e+00 0.000000000000000000e+00 1.181084198385240483e-05
0.000000000000000000e+00 0.000000000000000000e+00 1.181084198385219646e-05
-0.000000000000000000e+00 0.000000000000000000e+00 -8.365192954939117744e-06
-3.966436776553080245e-05 2.524096130533764847e-05 1.011181062530100693e-05
8.147642961952653571e-05 -2.327897989129333367e-05 -6.838978383839121951e-05
2.058277740228387089e-05 -3.087416610342605367e-05 4.017493984938868534e-07
-0.000000000000000000e+00 0.000000000000000000e+00 -9.081429723192739302e-06
0.000000000000000000e+00 -0.000000000000000000e+00 1.394198825823182281e-05
-1.705374513618726726e-05 -4.547665369649910830e-05 9.849221789883227325e-06
-0.000000000000000000e+00 0.000000000000000000e+00 1.706666666666645950e-06
3.963723901951639864e-05 1.132492543414772373e-05 -2.075428848279299056e-05
-0.000000000000000000e+00 0.000000000000000000e+00 2.343749999999918056e-06
-0.000000000000000000e+00 0.000000000000000000e+00 2.325546185407900727e-06
-0.000000000000000000e+00 0.000000000000000000e+00 2.325546185407779601e-06
-0.000000000000000000e+00 0.000000000000000000e+00 2.325546185407831270e-06
-0.000000000000000000e+00 0.000000000000000000e+00 2.325546185408073522e-06
-0.000000000000000000e+00 0.000000000000000000e+00 2.307553632594087819e-06
-0.000000000000000000e+00 0.000000000000000000e+00 2.307553632593985328e-06
-0.000000000000000000e+00 0.000000000000000000e+00 2.307553632593985328e-06
-0.000000000000000000e+00 0.000000000000000000e+00 2.380804761609830631e-06
-0.000000000000000000e+00 0.000000000000000000e+00 2.380804761609446078e-06
-0.000000000000000000e+00 0.000000000000000000e+00 2.380804761609551110e-06
-0.000000000000000000e+00 0.000000000000000000e+00 2.380804761609446078e-06
-0.000000000000000000e+00 0.000000000000000000e+00 2.380804761609516382e-06
-0.000000000000000000e+00 0.000000000000000000e+00 -1.071362142724287412e-05
-0.000000000000000000e+00 0.000000000000000000e+00 2.362168396770550253e-06
-0.000000000000000000e+00 0.000000000000000000e+00 -5.933709340956382401e-06
-0.000000000000000000e+00 0.000000000000000000e+00 1.684136660672736965e-06
-0.000000000000000000e+00 0.000000000000000000e+00 2.362168396770420657e-06
1.108951624672508221e-04 2.957204332460025174e-04 9.259054206713071750e-05
0.000000000000000000e+00 -0.000000000000000000e+00 1.385041551246547672e-05
-0.000000000000000000e+00 0.000000000000000000e+00 6.094182825484818667e-06
-0.000000000000000000e+00 -0.000000000000000000e+00 2.806894434454612430e-07
5.365451579579006320e-05 1.532986165594004468e-05 6.968118934521483994e-08
-0.000000000000000000e+00 0.000000000000000000e+00 6.257777777777761533e-06
-0.000000000000000000e+00 0.000000000000000000e+00 8.593749999999842970e-06
-0.000000000000000000e+00 -0.000000000000000000e+00 3.906250000001221503e-07
-0.000000000000000000e+00 0.000000000000000000e+00 8.527002679828623460e-06
-0.000000000000000000e+00 0.000000000000000000e+00 8.527002679828572638e-06
-0.000000000000000000e+00 0.000000000000000000e+00 8.527002679828692917e-06
-0.000000000000000000e+00 0.000000000000000000e+00 8.527002679828831830e-06
-0.000000000000000000e+00 0.000000000000000000e+00 8.461029986178724062e-06
-0.000000000000000000e+00 0.000000000000000000e+00 8.461029986178724062e-06
1.781045923280284021e-03 -2.439454888092384977e-19 2.943011712800039197e-04
-0.000000000000000000e+00 0.000000000000000000e+00 8.729617459234868837e-06
-0.000000000000000000e+00 0.000000000000000000e+00 8.729617459234973869e-06
-0.000000000000000000e+00 0.000000000000000000e+00 8.729617459234973869e-06
-0.000000000000000000e+00 0.000000000000000000e+00 8.729617459234868837e-06
-0.000000000000000000e+00 0.000000000000000000e+00 8.661284121491659300e-06
-0.000000000000000000e+00 0.000000000000000000e+00 8.661284121491659300e-06
-0.000000000000000000e+00 0.000000000000000000e+00 8.661284121491537327e-06
-0.000000000000000000e+00 0.000000000000000000e+00 6.175167755800165557e-06
-0.000000000000000000e+00 0.000000000000000000e+00 6.216266928621094939e-06
-0.000000000000000000e+00 0.000000000000000000e+00 8.593749999999988659e-06
0.000000000000000000e+00 0.000000000000000000e+00 -1.490989994059336729e-05
0.000000000000000000e+00 -0.000000000000000000e+00 1.385041551246547333e-05
-0.000000000000000000e+00 0.000000000000000000e+00 1.052631578947367598e-05
-1.049766931654534645e-05 -2.799378484412116556e-05 1.162977090950639722e-05
0.000000000000000000e+00 0.000000000000000000e+00 -8.590507936152818453e-06
0.000000000000000000e+00 0.000000000000000000e+00 -8.533333333333348758e-06
0.000000000000000000e+00 0.000000000000000000e+00 -1.171875000000005615e-05
-0.000000000000000000e+00 0.000000000000000000e+00 1.406250000000012836e-05
0.000000000000000000e+00 0.000000000000000000e+00 -1.162773092703900304e-05
0.000000000000000000e+00 0.000000000000000000e+00 -1.162773092703910638e-05
0.000000000000000000e+00 0.000000000000000000e+00 -1.162773092703900304e-05
-0.000000000000000000e+00 0.000000000000000000e+00 1.461450633976329254e-05
0.000000000000000000e+00 0.000000000000000000e+00 -1.153776816297102694e-05
0.000000000000000000e+00 0.000000000000000000e+00 -1.153776816297102694e-05
0.000000000000000000e+00 0.000000000000000000e+00 -1.199831273727125288e-05
0.000000000000000000e+00 0.000000000000000000e+00 -1.190402380804770304e-05
0.000000000000000000e+00 0.000000000000000000e+00 -1.190402380804770304e-05
0.000000000000000000e+00 0.000000000000000000e+00 -1.190402380804770304e-05
0.000000000000000000e+00 0.000000000000000000e+00 -1.190402380804749297e-05
0.000000000000000000e+00 0.000000000000000000e+00 -1.181084198385240652e-05
0.000000000000000000e+00 0.000000000000000000e+00 -1.181084198385240652e-05
0.000000000000000000e+00 0.000000000000000000e+00 -1.181084198385219646e-05
0.000000000000000000e+00 0.000000000000000000e+00 -8.365192954939117744e-06
2.490553697510185466e-05 7.115867707171998284e-06 -1.270772203641769079e-05
-0.000000000000000000e+00 -0.000000000000000000e+00 -1.875000000000003224e-05
1.409020503820808557e-05 -2.113530755731187678e-05 2.011810024172055997e-06
0.000000000000000000e+00 0.000000000000000000e+00 9.081429723192739302e-06
-0.000000000000000000e+00 -0.000000000000000000e+00 -9.141274238227110687e-06
1.705374513618726726e-05 4.547665369649910830e-05 -9.849221789883229019e-06
0.000000000000000000e+00 0.000000000000000000e+00 -1.592888888888884631e-05
-6.233843270880278799e-05 -1.100089988978872311e-05 9.717461569313391560e-06
0.000000000000000000e+00 -0.000000000000000000e+00 1.953124999999998347e-05
0.000000000000000000e+00 -0.000000000000000000e+00 1.937955154506487406e-05
0.000000000000000000e+00 -0.000000000000000000e+00 1.937955154506511122e-05
0.000000000000000000e+00 -0.000000000000000000e+00 1.937955154506506379e-05
0.000000000000000000e+00 -0.000000000000000000e+00 1.937955154506499603e-05
0.000000000000000000e+00 -0.000000000000000000e+00 1.922961360495176295e-05
0.000000000000000000e+00 -0.000000000000000000e+00 1.922961360495176295e-05
0.000000000000000000e+00 -0.000000000000000000e+00 1.922961360495176295e-05
0.000000000000000000e+00 0.000000000000000000e+00 -2.222084444168903302e-05
0.000000000000000000e+00 -0.000000000000000000e+00 1.984003968007953442e-05
0.000000000000000000e+00 -0.000000000000000000e+00 1.984003968007939212e-05
0.000000000000000000e+00 -0.000000000000000000e+00 1.984003968007925321e-05
0.000000000000000000e+00 -0.000000000000000000e+00 1.984003968007932436e-05
0.000000000000000000e+00 0.000000000000000000e+00 1.968473663975388833e-05
0.000000000000000000e+00 -0.000000000000000000e+00 1.968473663975395610e-05
-1.206251173615784274e-03 2.209925814257919399e-04 -1.044913786574436297e-04
0.000000000000000000e+00 -0.000000000000000000e+00 1.403447217227317184e-05
0.000000000000000000e+00 0.000000000000000000e+00 0.000000000000000000e+00
2.565817682874485550e-04 -6.414544207186213874e-05 2.989452019552381822e-05
0.000000000000000000e+00 -0.000000000000000000e+00 -2.299168975069271616e-05
0.000000000000000000e+00 -0.000000000000000000e+00 1.385041551246535813e-05
-0.000000000000000000e+00 0.000000000000000000e+00 -1.394198825823182451e-05
-9.551565017327236738e-05 -5.618567657251322903e-06 -5.962742483528476632e-05
0.000000000000000000e+00 -0.000000000000000000e+00 -8.893845946170153560e-20
0.000000000000000000e+00 -0.000000000000000000e+00 1.953124999999986149e-05
0.000000000000000000e+00 -0.000000000000000000e+00 6.945670167485262780e-20
0.000000000000000000e+00 -0.000000000000000000e+00 6.945670167485262780e-20
-0.000000000000000000e+00 0.000000000000000000e+00 1.389134033497052556e-19
0.000000000000000000e+00 -0.000000000000000000e+00 1.389134033497052556e-19
0.000000000000000000e+00 -0.000000000000000000e+00 1.372193374551966549e-19
0.000000000000000000e+00 -0.000000000000000000e+00 -1.033380195650246414e-19
-0.000000000000000000e+00 0.000000000000000000e+00 3.777766944754179512e-19
-0.000000000000000000e+00 0.000000000000000000e+00 3.777766944754179512e-19
-0.000000000000000000e+00 0.000000000000000000e+00 -2.100641709190664841e-19
-0.000000000000000000e+00 0.000000000000000000e+00 -7.115076756936122848e-20
0.000000000000000000e+00 -0.000000000000000000e+00 3.489775742687717397e-19
-0.000000000000000000e+00 0.000000000000000000e+00 -7.115076756936122848e-20
-0.000000000000000000e+00 0.000000000000000000e+00 -1.984003968007921933e-05
0.000000000000000000e+00 -0.000000000000000000e+00 1.968473663975388833e-05
0.000000000000000000e+00 -0.000000000000000000e+00 6.945670167485262780e-20
0.000000000000000000e+00 0.000000000000000000e+00 -1.403447217227311424e-05
-0.000000000000000000e+00 0.000000000000000000e+00 -1.403447217227314135e-05
0.000000000000000000e+00 0.000000000000000000e+00 2.362168396770420657e-06
-3.872065882062025282e-05 -3.872065882062025282e-05 -1.874949548773940645e-05
0.000000000000000000e+00 0.000000000000000000e+00 1.385041551246547333e-05
0.000000000000000000e+00 -0.000000000000000000e+00 -8.385626177817573357e-20
1.049766931654534645e-05 2.799378484412116556e-05 -1.219301484253311177e-05
0.000000000000000000e+00 0.000000000000000000e+00 -2.536822665645692068e-05
0.000000000000000000e+00 -0.000000000000000000e+00 -2.964615315390051187e-20
0.000000000000000000e+00 -0.000000000000000000e+00 -3.557538378468061424e-20
0.000000000000000000e+00 0.000000000000000000e+00 -1.937955154506525353e-05
0.000000000000000000e+00 -0.000000000000000000e+00 1.727947212398772692e-19
-0.000000000000000000e+00 0.000000000000000000e+00 3.557538378468061424e-20
0.000000000000000000e+00 -0.000000000000000000e+00 2.422514229147298970e-19
-0.000000000000000000e+00 0.000000000000000000e+00 -1.937955154506489100e-05
0.000000000000000000e+00 -0.000000000000000000e+00 -2.066760391300492827e-19
0.000000000000000000e+00 -0.000000000000000000e+00 -2.066760391300492827e-19
-0.000000000000000000e+00 0.000000000000000000e+00 3.999437579090475226e-05
-0.000000000000000000e+00 0.000000000000000000e+00 3.388131789017201356e-20
0.000000000000000000e+00 -0.000000000000000000e+00 2.439454888092384977e-19
0.000000000000000000e+00 -0.000000000000000000e+00 2.439454888092384977e-19
-0.000000000000000000e+00 0.000000000000000000e+00 3.388131789017201356e-20
0.000000000000000000e+00 -0.000000000000000000e+00 0.000000000000000000e+00
0.000000000000000000e+00 -0.000000000000000000e+00 6.945670167485262780e-20
-0.000000000000000000e+00 0.000000000000000000e+00 6.945670167485262780e-20
0.000000000000000000e+00 -0.000000000000000000e+00 2.964615315390051187e-20
-0.000000000000000000e+00 0.000000000000000000e+00 -1.412787938322967906e-05
-0.000000000000000000e+00 0.000000000000000000e+00 -1.953124999999988860e-05
0.000000000000000000e+00 0.000000000000000000e+00 1.480864454625385958e-05
0.000000000000000000e+00 -0.000000000000000000e+00 1.694065894508600678e-21
0.000000000000000000e+00 0.000000000000000000e+00 -1.052631578947367598e-05
0.000000000000000000e+00 0.000000000000000000e+00 2.100641709190664841e-19
0.000000000000000000e+00 0.000000000000000000e+00 -1.088131005246024292e-05
0.000000000000000000e+00 0.000000000000000000e+00 -7.158756613460748677e-06
6.253039883268606046e-05 -2.273832684824952027e-05 1.385578793774310639e-05
-0.000000000000000000e+00 0.000000000000000000e+00 -1.953124999999994958e-05
-0.000000000000000000e+00 0.000000000000000000e+00 1.472845917424929452e-05
0.000000000000000000e+00 0.000000000000000000e+00 -1.472845917424943344e-05
0.000000000000000000e+00 0.000000000000000000e+00 -1.472845917424941650e-05
0.000000000000000000e+00 0.000000000000000000e+00 -1.461450633976329593e-05
0.000000000000000000e+00 0.000000000000000000e+00 -1.461450633976329593e-05
-0.000000000000000000e+00 0.000000000000000000e+00 1.461450633976329593e-05
-0.000000000000000000e+00 -0.000000000000000000e+00 0.000000000000000000e+00
0.000000000000000000e+00 0.000000000000000000e+00 -1.507843015686027465e-05
-0.000000000000000000e+00 0.000000000000000000e+00 1.507843015686015268e-05
-0.000000000000000000e+00 0.000000000000000000e+00 1.507843015686039663e-05
0.000000000000000000e+00 0.000000000000000000e+00 -1.507843015686013405e-05
-0.000000000000000000e+00 0.000000000000000000e+00 1.496039984621282002e-05
-0.000000000000000000e+00 0.000000000000000000e+00 1.496039984621282002e-05
0.000000000000000000e+00 0.000000000000000000e+00 -1.496039984621275056e-05
0.000000000000000000e+00 -0.000000000000000000e+00 1.403447217227310577e-05
0.000000000000000000e+00 0.000000000000000000e+00 1.775371640138245872e-05
-5.147526881720391502e-04 8.579211469533968670e-05 1.009318996415766481e-05
-1.409020503820808557e-05 2.113530755731187678e-05 -2.011810024172054303e-06
0.000000000000000000e+00 -0.000000000000000000e+00 1.385041551246538693e-05
0.000000000000000000e+00 0.000000000000000000e+00 1.394198825823182281e-05
1.945205757763518093e-05 -1.945205757763518093e-05 -3.140415070956217299e-05
0.000000000000000000e+00 -0.000000000000000000e+00 -1.185846126156020475e-19
-3.963723901951639864e-05 -1.132492543414772373e-05 2.075428848279305832e-05
-0.000000000000000000e+00 0.000000000000000000e+00 -1.953124999999998347e-05
-0.000000000000000000e+00 0.000000000000000000e+00 -6.945670167485262780e-20
0.000000000000000000e+00 -0.000000000000000000e+00 3.455894424797545383e-19
-0.000000000000000000e+00 0.000000000000000000e+00 -2.066760391300492827e-19
-0.000000000000000000e+00 0.000000000000000000e+00 -2.066760391300492827e-19
0.000000000000000000e+00 -0.000000000000000000e+00 4.811147140404425926e-19
0.000000000000000000e+00 -0.000000000000000000e+00 4.811147140404425926e-19
0.000000000000000000e+00 -0.000000000000000000e+00 4.811147140404425926e-19
0.000000000000000000e+00 -0.000000000000000000e+00 1.389134033497052556e-19
0.000000000000000000e+00 -0.000000000000000000e+00 1.389134033497052556e-19
-0.000000000000000000e+00 0.000000000000000000e+00 0.000000000000000000e+00
0.000000000000000000e+00 -0.000000000000000000e+00 0.000000000000000000e+00
0.000000000000000000e+00 -0.000000000000000000e+00 6.945670167485262780e-20
0.000000000000000000e+00 -0.000000000000000000e+00 -1.071362142724287581e-05
-0.000000000000000000e+00 0.000000000000000000e+00 6.945670167485262780e-20
3.874806385507163688e-05 -1.409020503820790430e-05 1.550864412828411183e-05
-0.000000000000000000e+00 0.000000000000000000e+00 -5.929230630780102373e-20
-0.000000000000000000e+00 0.000000000000000000e+00 0.000000000000000000e+00
4.860180469936580775e-05 -4.050150391614024440e-05 7.641355934038850182e-05
-1.372185160152258116e-05 2.058277740228401658e-05 -1.249642421250989061e-05
-0.000000000000000000e+00 0.000000000000000000e+00 -8.978549240895583594e-20
-0.000000000000000000e+00 -0.000000000000000000e+00 -1.403447217227309053e-05
9.323747822537412490e-05 1.185846126156020475e-19 2.652531466090787552e-05
0.000000000000000000e+00 -0.000000000000000000e+00 5.929230630780102373e-20
-0.000000000000000000e+00 0.000000000000000000e+00 -3.557538378468061424e-20
0.000000000000000000e+00 0.000000000000000000e+00 1.953124999999996314e-05
-0.000000000000000000e+00 0.000000000000000000e+00 1.389134033497052556e-19
0.000000000000000000e+00 -0.000000000000000000e+00 1.389134033497052556e-19
-0.000000000000000000e+00 0.000000000000000000e+00 2.761327408049019105e-19
0.000000000000000000e+00 -0.000000000000000000e+00 0.000000000000000000e+00
0.000000000000000000e+00 -0.000000000000000000e+00 2.405573570202212963e-19
0.000000000000000000e+00 -0.000000000000000000e+00 3.777766944754179512e-19
-0.000000000000000000e+00 0.000000000000000000e+00 -1.922961360495193574e-05
0.000000000000000000e+00 -0.000000000000000000e+00 -7.115076756936122848e-20
