ply
            format ascii 1.0
            element vertex 27339
            property float x
            property float y
            property float z
            property float nx
            property float ny
            property float nz
end_header
0.19250000000000 -0.27750000000000 2.33750000000000 0.00000000000000 -0.00000000000000 -1.00000000000000
0.22375000000000 -0.27750000000000 2.33750000000000 0.00000000000000 -0.00000000000000 -1.00000000000000
0.25400778210117 -0.27642023346304 2.32840466926070 -0.00000000000000 0.00000000000000 -1.00000000000000
0.28513618677043 -0.27642023346304 2.32840466926070 -0.00000000000000 0.00000000000000 -1.00000000000000
0.31626459143969 -0.27642023346304 2.32840466926070 -0.00000000000000 0.00000000000000 -1.00000000000000
0.34739299610895 -0.27642023346304 2.32840466926070 -0.00000000000000 0.00000000000000 -1.00000000000000
0.37852140077821 -0.27642023346304 2.32840466926070 -0.00000000000000 0.00000000000000 -1.00000000000000
-0.36553359683794 -0.28015810276680 2.36521739130435 0.00000000000000 -0.00000000000000 1.00000000000000
-0.33391304347826 -0.28015810276680 2.36521739130435 0.00000000000000 -0.00000000000000 1.00000000000000
-0.30110236220472 -0.27905511811024 2.35590551181102 0.00000000000000 -0.00000000000000 -1.00000000000000
-0.26960629921260 -0.27905511811024 2.35590551181102 0.00000000000000 -0.00000000000000 -1.00000000000000
-0.23811023622047 -0.27905511811024 2.35590551181102 0.00000000000000 -0.00000000000000 -1.00000000000000
-0.20661417322835 -0.27905511811024 2.35590551181102 0.00000000000000 -0.00000000000000 -1.00000000000000
-0.17443137254902 -0.27796078431373 2.34666666666667 0.00000000000000 -0.00000000000000 -1.00000000000000
-0.11960655737705 -0.23239344262295 1.96196721311475 0.00000000000000 0.00000000000000 1.00000000000000
-0.11168627450980 -0.27796078431373 2.34666666666667 0.00000000000000 -0.00000000000000 1.00000000000000
-0.08031372549020 -0.27796078431373 2.34666666666667 -0.00000000000000 0.00000000000000 -1.00000000000000
-0.04091803278689 -0.23239344262295 1.96196721311475 0.00000000000000 0.00000000000000 1.00000000000000
-0.01445161290323 -0.22864516129032 1.93032258064516 0.00000000000000 0.00000000000000 -1.00000000000000
0.01135483870968 -0.22864516129032 1.93032258064516 -0.00000000000000 0.00000000000000 -1.00000000000000
0.03740259740260 -0.23012987012987 1.94285714285714 -0.00000000000000 0.00000000000000 -1.00000000000000
0.07595330739300 -0.27579766536965 2.32840466926070 0.52194143922162 -0.78291215883244 0.33856415282129
0.09173333333333 -0.23626666666667 1.99466666666667 -0.00000000000000 0.00000000000000 -1.00000000000000
0.13875000000000 -0.27687500000000 2.33750000000000 -0.00000000000000 0.00000000000000 -1.00000000000000
0.17000000000000 -0.27687500000000 2.33750000000000 -0.00000000000000 0.00000000000000 -1.00000000000000
0.20125000000000 -0.27687500000000 2.33750000000000 -0.00000000000000 0.00000000000000 -1.00000000000000
0.23250000000000 -0.27687500000000 2.33750000000000 0.00000000000000 0.00000000000000 1.00000000000000
0.26272373540856 -0.27579766536965 2.32840466926070 0.00000000000000 0.00000000000000 -1.00000000000000
0.29385214007782 -0.27579766536965 2.32840466926070 0.00000000000000 -0.00000000000000 1.00000000000000
0.32498054474708 -0.27579766536965 2.32840466926070 -0.00000000000000 0.00000000000000 -1.00000000000000
0.35610894941634 -0.27579766536965 2.32840466926070 -0.00000000000000 0.00000000000000 -1.00000000000000
-0.38830039525692 -0.27952569169960 2.36521739130435 0.00000000000000 0.00000000000000 -1.00000000000000
-0.35667984189723 -0.27952569169960 2.36521739130435 -0.00000000000000 0.00000000000000 -1.00000000000000
-0.32505928853755 -0.27952569169960 2.36521739130435 0.00000000000000 0.00000000000000 1.00000000000000
-0.29228346456693 -0.27842519685039 2.35590551181102 0.00000000000000 -0.00000000000000 1.00000000000000
-0.26078740157480 -0.27842519685039 2.35590551181102 0.00000000000000 -0.00000000000000 -1.00000000000000
-0.22929133858268 -0.27842519685039 2.35590551181102 0.00000000000000 -0.00000000000000 -1.00000000000000
-0.19779527559055 -0.27842519685039 2.35590551181102 0.00000000000000 -0.00000000000000 -1.00000000000000
-0.15360000000000 -0.25716363636364 2.17600000000000 0.97279383588459 -0.10808820398718 0.20491240329414
-0.11263157894737 -0.23263157894737 1.96842105263158 nan nan nan
-0.10290196078431 -0.27733333333333 2.34666666666667 nan nan nan
-0.06120805369128 -0.23731543624161 2.00805369127517 0.89281788759996 -0.32466105003635 0.31220413541597
-0.03335504885993 -0.23035830618893 1.94918566775244 0.00000000000000 0.00000000000000 -1.00000000000000
-0.00722580645161 -0.22812903225806 1.93032258064516 -0.00000000000000 0.00000000000000 1.00000000000000
0.01858064516129 -0.22812903225806 1.93032258064516 -0.00000000000000 0.00000000000000 -1.00000000000000
0.04482084690554 -0.23035830618893 1.94918566775244 -0.00000000000000 0.00000000000000 -1.00000000000000
0.07277591973244 -0.23652173913043 2.00133779264214 0.00000000000000 0.00000000000000 -1.00000000000000
0.09920000000000 -0.23573333333333 1.99466666666667 -0.00000000000000 0.00000000000000 -1.00000000000000
0.14750000000000 -0.27625000000000 2.33750000000000 -0.00000000000000 0.00000000000000 -1.00000000000000
0.17875000000000 -0.27625000000000 2.33750000000000 -0.00000000000000 0.00000000000000 -1.00000000000000
0.21000000000000 -0.27625000000000 2.33750000000000 -0.00000000000000 0.00000000000000 -1.00000000000000
0.24031128404669 -0.27517509727626 2.32840466926070 0.00000000000000 -0.00000000000000 1.00000000000000
0.27143968871595 -0.27517509727626 2.32840466926070 0.00000000000000 -0.00000000000000 1.00000000000000
0.30256809338521 -0.27517509727626 2.32840466926070 0.00000000000000 -0.00000000000000 -1.00000000000000
0.33369649805447 -0.27517509727626 2.32840466926070 -0.00000000000000 0.00000000000000 1.00000000000000
0.36482490272374 -0.27517509727626 2.32840466926070 0.00000000000000 -0.00000000000000 -1.00000000000000
-0.37944664031621 -0.27889328063241 2.36521739130435 nan nan nan
-0.34782608695652 -0.27889328063241 2.36521739130435 0.00000000000000 -0.00000000000000 1.00000000000000
-0.31496062992126 -0.27779527559055 2.35590551181102 0.00000000000000 -0.00000000000000 1.00000000000000
-0.28346456692913 -0.27779527559055 2.35590551181102 0.00000000000000 -0.00000000000000 -1.00000000000000
-0.25196850393701 -0.27779527559055 2.35590551181102 0.00000000000000 -0.00000000000000 -1.00000000000000
-0.22047244094488 -0.27779527559055 2.35590551181102 0.00000000000000 -0.00000000000000 -1.00000000000000
-0.18897637795276 -0.27779527559055 2.35590551181102 0.00000000000000 -0.00000000000000 -1.00000000000000
-0.13114754098361 -0.23134426229508 1.96196721311475 0.00000000000000 -0.00000000000000 -1.00000000000000
-0.10596026490066 -0.23364238410596 1.98145695364238 -0.00000000000000 0.00000000000000 -1.00000000000000
-0.09411764705882 -0.27670588235294 2.34666666666667 nan nan nan
-0.05315614617940 -0.23441860465116 1.98803986710963 0.00000000000000 0.00000000000000 1.00000000000000
-0.02597402597403 -0.22909090909091 1.94285714285714 -0.00000000000000 0.00000000000000 -1.00000000000000
0.00000000000000 -0.22761290322581 1.93032258064516 nan nan nan
0.02588996763754 -0.22834951456311 1.93656957928803 0.00000000000000 -0.00000000000000 -1.00000000000000
0.05351170568562 -0.23598662207358 2.00133779264214 0.00000000000000 0.00000000000000 -1.00000000000000
0.08000000000000 -0.23520000000000 1.99466666666667 0.00000000000000 -0.00000000000000 1.00000000000000
0.11267605633803 -0.24845070422535 2.10704225352113 -0.96923853458245 0.21758416082463 0.11503823728966
0.15625000000000 -0.27562500000000 2.33750000000000 0.00000000000000 -0.00000000000000 -1.00000000000000
0.18750000000000 -0.27562500000000 2.33750000000000 0.00000000000000 -0.00000000000000 -1.00000000000000
0.21875000000000 -0.27562500000000 2.33750000000000 0.00000000000000 -0.00000000000000 -1.00000000000000
0.24902723735409 -0.27455252918288 2.32840466926070 -0.00000000000000 0.00000000000000 -1.00000000000000
0.28015564202335 -0.27455252918288 2.32840466926070 -0.00000000000000 0.00000000000000 -1.00000000000000
0.31128404669261 -0.27455252918288 2.32840466926070 0.00000000000000 -0.00000000000000 1.00000000000000
0.34241245136187 -0.27455252918288 2.32840466926070 -0.00000000000000 0.00000000000000 -1.00000000000000
0.37209302325581 -0.27348837209302 2.31937984496124 0.00000000000000 0.00000000000000 1.00000000000000
-0.37059288537549 -0.27826086956522 2.36521739130435 -0.00000000000000 0.00000000000000 1.00000000000000
-0.33897233201581 -0.27826086956522 2.36521739130435 0.00000000000000 -0.00000000000000 1.00000000000000
-0.30735177865613 -0.27826086956522 2.36521739130435 -0.34142093789210 -0.91045583437891 0.23345645592764
-0.27464566929134 -0.27716535433071 2.35590551181102 -0.00000000000000 0.00000000000000 -1.00000000000000
-0.24314960629921 -0.27716535433071 2.35590551181102 -0.00000000000000 0.00000000000000 -1.00000000000000
-0.21165354330709 -0.27716535433071 2.35590551181102 -0.00000000000000 0.00000000000000 -1.00000000000000
-0.17945098039216 -0.27607843137255 2.34666666666667 0.00000000000000 -0.00000000000000 1.00000000000000
-0.12380327868852 -0.23081967213115 1.96196721311475 0.00000000000000 0.00000000000000 1.00000000000000
-0.10666666666667 -0.25232974910394 2.14480286738351 0.98636922303876 0.16439487050646 0.00707689148437
-0.08533333333333 -0.27607843137255 2.34666666666667 0.00000000000000 -0.00000000000000 -1.00000000000000
-0.04526315789474 -0.23157894736842 1.96842105263158 -0.00000000000000 0.00000000000000 1.00000000000000
-0.01864077669903 -0.22783171521036 1.93656957928803 nan nan nan
0.00722580645161 -0.22709677419355 1.93032258064516 -0.00000000000000 0.00000000000000 -1.00000000000000
0.03313915857605 -0.22783171521036 1.93656957928803 -0.00000000000000 0.00000000000000 -1.00000000000000
0.07125000000000 -0.27500000000000 2.33750000000000 0.00000000000000 0.00000000000000 -1.00000000000000
0.08746666666667 -0.23466666666667 1.99466666666667 nan nan nan
0.13375000000000 -0.27500000000000 2.33750000000000 -0.00000000000000 0.00000000000000 -1.00000000000000
0.16500000000000 -0.27500000000000 2.33750000000000 -0.00000000000000 0.00000000000000 -1.00000000000000
0.19625000000000 -0.27500000000000 2.33750000000000 -0.00000000000000 0.00000000000000 -1.00000000000000
0.22750000000000 -0.27500000000000 2.33750000000000 -0.00000000000000 0.00000000000000 -1.00000000000000
0.25774319066148 -0.27392996108949 2.32840466926070 0.00000000000000 -0.00000000000000 -1.00000000000000
0.28887159533074 -0.27392996108949 2.32840466926070 0.00000000000000 -0.00000000000000 -1.00000000000000
0.32000000000000 -0.27392996108949 2.32840466926070 0.00000000000000 -0.00000000000000 -1.00000000000000
0.35112840466926 -0.27392996108949 2.32840466926070 0.00000000000000 -0.00000000000000 -1.00000000000000
0.38077519379845 -0.27286821705426 2.31937984496124 0.00000000000000 0.00000000000000 1.00000000000000
-0.36173913043478 -0.27762845849802 2.36521739130435 -0.00000000000000 0.00000000000000 -1.00000000000000
-0.33011857707510 -0.27762845849802 2.36521739130435 0.00000000000000 0.00000000000000 1.00000000000000
-0.29732283464567 -0.27653543307087 2.35590551181102 -0.00000000000000 0.00000000000000 -1.00000000000000
-0.26582677165354 -0.27653543307087 2.35590551181102 -0.00000000000000 0.00000000000000 -1.00000000000000
-0.23433070866142 -0.27653543307087 2.35590551181102 -0.00000000000000 0.00000000000000 -1.00000000000000
-0.20283464566929 -0.27653543307087 2.35590551181102 -0.00000000000000 0.00000000000000 -1.00000000000000
-0.17066666666667 -0.27545098039216 2.34666666666667 0.00000000000000 0.00000000000000 1.00000000000000
-0.11684210526316 -0.23105263157895 1.96842105263158 0.00000000000000 -0.00000000000000 1.00000000000000
-0.10792156862745 -0.27545098039216 2.34666666666667 -0.00000000000000 0.00000000000000 -1.00000000000000
-0.07072463768116 -0.25449275362319 2.16811594202899 0.98025030645778 0.16337505107630 0.11143576344803
-0.03764705882353 -0.22954248366013 1.95555555555556 -0.00000000000000 0.00000000000000 1.00000000000000
-0.01135483870968 -0.22658064516129 1.93032258064516 nan nan nan
0.01445161290323 -0.22658064516129 1.93032258064516 0.00000000000000 -0.00000000000000 1.00000000000000
0.04065146579805 -0.22879478827362 1.94918566775244 0.00000000000000 -0.00000000000000 1.00000000000000
0.06895622895623 -0.23649831649832 2.01481481481481 0.84437071648980 0.24124877613994 0.47836923097696
0.09493333333333 -0.23413333333333 1.99466666666667 0.00000000000000 -0.00000000000000 -1.00000000000000
0.14250000000000 -0.27437500000000 2.33750000000000 0.00000000000000 -0.00000000000000 -1.00000000000000
0.17375000000000 -0.27437500000000 2.33750000000000 0.00000000000000 -0.00000000000000 -1.00000000000000
0.20500000000000 -0.27437500000000 2.33750000000000 0.00000000000000 -0.00000000000000 -1.00000000000000
0.23533073929961 -0.27330739299611 2.32840466926070 0.00000000000000 0.00000000000000 -1.00000000000000
0.26645914396887 -0.27330739299611 2.32840466926070 -0.00000000000000 0.00000000000000 1.00000000000000
0.29758754863813 -0.27330739299611 2.32840466926070 -0.00000000000000 0.00000000000000 1.00000000000000
0.32871595330739 -0.27330739299611 2.32840466926070 0.00000000000000 -0.00000000000000 1.00000000000000
0.35984435797665 -0.27330739299611 2.32840466926070 -0.00000000000000 0.00000000000000 -1.00000000000000
-0.38450592885375 -0.27699604743083 2.36521739130435 nan nan nan
-0.35288537549407 -0.27699604743083 2.36521739130435 nan nan nan
-0.32000000000000 -0.27590551181102 2.35590551181102 0.00000000000000 -0.00000000000000 1.00000000000000
-0.28850393700787 -0.27590551181102 2.35590551181102 -0.00000000000000 0.00000000000000 1.00000000000000
-0.25700787401575 -0.27590551181102 2.35590551181102 nan nan nan
-0.22551181102362 -0.27590551181102 2.35590551181102 nan nan nan
-0.19401574803150 -0.27590551181102 2.35590551181102 -0.00000000000000 0.00000000000000 1.00000000000000
-0.13578947368421 -0.23052631578947 1.96842105263158 0.00000000000000 0.00000000000000 1.00000000000000
-0.11019867549669 -0.23205298013245 1.98145695364238 0.00000000000000 0.00000000000000 -1.00000000000000
-0.09913725490196 -0.27482352941176 2.34666666666667 0.00000000000000 -0.00000000000000 -1.00000000000000
-0.05779264214047 -0.23438127090301 2.00133779264214 0.00000000000000 0.00000000000000 1.00000000000000
-0.03022801302932 -0.22827361563518 1.94918566775244 -0.00000000000000 0.00000000000000 -1.00000000000000
-0.00412903225806 -0.22606451612903 1.93032258064516 0.00000000000000 -0.00000000000000 -1.00000000000000
0.02174757281553 -0.22679611650485 1.93656957928803 0.00000000000000 -0.00000000000000 1.00000000000000
0.04810457516340 -0.22901960784314 1.95555555555556 0.00000000000000 0.00000000000000 1.00000000000000
0.07598662207358 -0.23438127090301 2.00133779264214 -0.00000000000000 0.00000000000000 -1.00000000000000
0.10274247491639 -0.23438127090301 2.00133779264214 -0.00000000000000 0.00000000000000 -1.00000000000000
0.15125000000000 -0.27375000000000 2.33750000000000 0.00000000000000 -0.00000000000000 1.00000000000000
0.18250000000000 -0.27375000000000 2.33750000000000 0.00000000000000 -0.00000000000000 1.00000000000000
0.21375000000000 -0.27375000000000 2.33750000000000 0.00000000000000 -0.00000000000000 1.00000000000000
0.24404669260700 -0.27268482490272 2.32840466926070 -0.00000000000000 0.00000000000000 -1.00000000000000
0.27517509727626 -0.27268482490272 2.32840466926070 -0.00000000000000 0.00000000000000 -1.00000000000000
0.30630350194553 -0.27268482490272 2.32840466926070 -0.00000000000000 0.00000000000000 -1.00000000000000
0.33743190661479 -0.27268482490272 2.32840466926070 0.00000000000000 -0.00000000000000 1.00000000000000
0.36856031128405 -0.27268482490272 2.32840466926070 0.00000000000000 0.00000000000000 1.00000000000000
-0.37565217391304 -0.27636363636364 2.36521739130435 -0.00000000000000 0.00000000000000 -1.00000000000000
-0.34403162055336 -0.27636363636364 2.36521739130435 -0.00000000000000 0.00000000000000 -1.00000000000000
-0.31118110236220 -0.27527559055118 2.35590551181102 0.00000000000000 -0.00000000000000 1.00000000000000
-0.27968503937008 -0.27527559055118 2.35590551181102 0.00000000000000 -0.00000000000000 1.00000000000000
-0.24818897637795 -0.27527559055118 2.35590551181102 -0.00000000000000 0.00000000000000 -1.00000000000000
-0.21669291338583 -0.27527559055118 2.35590551181102 -0.00000000000000 0.00000000000000 -1.00000000000000
-0.18519685039370 -0.27527559055118 2.35590551181102 0.00000000000000 0.00000000000000 1.00000000000000
-0.12800000000000 -0.22924590163934 1.96196721311475 -0.00000000000000 0.00000000000000 -1.00000000000000
-0.10312292358804 -0.23229235880399 1.98803986710963 0.00000000000000 -0.00000000000000 -1.00000000000000
-0.09035294117647 -0.27419607843137 2.34666666666667 -0.00000000000000 0.00000000000000 1.00000000000000
-0.04980132450331 -0.23152317880795 1.98145695364238 0.00000000000000 0.00000000000000 1.00000000000000
-0.02278317152104 -0.22627831715210 1.93656957928803 0.00000000000000 0.00000000000000 -1.00000000000000
0.00309677419355 -0.22554838709677 1.93032258064516 -0.00000000000000 0.00000000000000 -1.00000000000000
0.02899676375405 -0.22627831715210 1.93656957928803 0.00000000000000 0.00000000000000 1.00000000000000
0.06523076923077 -0.26892307692308 2.30153846153846 0.88948087516722 -0.20625643482138 -0.40777696821489
0.08320000000000 -0.23306666666667 1.99466666666667 nan nan nan
0.12824902723735 -0.27206225680934 2.32840466926070 0.87696909807137 -0.31889785384413 -0.35948485342429
0.16000000000000 -0.27312500000000 2.33750000000000 -0.00000000000000 0.00000000000000 -1.00000000000000
0.19125000000000 -0.27312500000000 2.33750000000000 -0.00000000000000 0.00000000000000 -1.00000000000000
0.22250000000000 -0.27312500000000 2.33750000000000 -0.00000000000000 0.00000000000000 -1.00000000000000
0.25276264591440 -0.27206225680934 2.32840466926070 0.00000000000000 -0.00000000000000 -1.00000000000000
0.28389105058366 -0.27206225680934 2.32840466926070 0.00000000000000 -0.00000000000000 -1.00000000000000
0.31501945525292 -0.27206225680934 2.32840466926070 -0.00000000000000 0.00000000000000 1.00000000000000
0.34614785992218 -0.27206225680934 2.32840466926070 0.00000000000000 -0.00000000000000 1.00000000000000
0.37727626459144 -0.27206225680934 2.32840466926070 -0.00000000000000 -0.00000000000000 -1.00000000000000
-0.36679841897233 -0.27573122529644 2.36521739130435 0.00000000000000 -0.00000000000000 1.00000000000000
-0.33517786561265 -0.27573122529644 2.36521739130435 -0.00000000000000 0.00000000000000 -1.00000000000000
-0.30236220472441 -0.27464566929134 2.35590551181102 0.00000000000000 0.00000000000000 -1.00000000000000
-0.27086614173228 -0.27464566929134 2.35590551181102 nan nan nan
-0.23937007874016 -0.27464566929134 2.35590551181102 -0.00000000000000 0.00000000000000 1.00000000000000
-0.20787401574803 -0.27464566929134 2.35590551181102 0.00000000000000 -0.00000000000000 1.00000000000000
-0.17568627450980 -0.27356862745098 2.34666666666667 -0.00000000000000 0.00000000000000 1.00000000000000
-0.12105263157895 -0.22947368421053 1.96842105263158 0.00000000000000 -0.00000000000000 1.00000000000000
-0.11294117647059 -0.27356862745098 2.34666666666667 0.00000000000000 0.00000000000000 -1.00000000000000
-0.08156862745098 -0.27356862745098 2.34666666666667 -0.00000000000000 0.00000000000000 -1.00000000000000
-0.04196721311475 -0.22872131147541 1.96196721311475 0.00000000000000 0.00000000000000 -1.00000000000000
-0.01553398058252 -0.22576051779935 1.93656957928803 -0.00000000000000 0.00000000000000 -1.00000000000000
0.01032258064516 -0.22503225806452 1.93032258064516 0.00000000000000 -0.00000000000000 -1.00000000000000
0.03636363636364 -0.22649350649351 1.94285714285714 -0.00000000000000 -0.00000000000000 -1.00000000000000
0.07500000000000 -0.27250000000000 2.33750000000000 -0.00000000000000 0.00000000000000 -1.00000000000000
0.09066666666667 -0.23253333333333 1.99466666666667 -0.00000000000000 0.00000000000000 -1.00000000000000
0.13750000000000 -0.27250000000000 2.33750000000000 0.00000000000000 -0.00000000000000 1.00000000000000
0.16875000000000 -0.27250000000000 2.33750000000000 -0.00000000000000 0.00000000000000 -1.00000000000000
0.20000000000000 -0.27250000000000 2.33750000000000 -0.00000000000000 0.00000000000000 -1.00000000000000
0.23125000000000 -0.27250000000000 2.33750000000000 -0.00000000000000 0.00000000000000 -1.00000000000000
0.26147859922179 -0.27143968871595 2.32840466926070 -0.00000000000000 0.00000000000000 -1.00000000000000
0.29260700389105 -0.27143968871595 2.32840466926070 -0.00000000000000 0.00000000000000 -1.00000000000000
0.32373540856031 -0.27143968871595 2.32840466926070 -0.00000000000000 0.00000000000000 -1.00000000000000
0.35486381322957 -0.27143968871595 2.32840466926070 -0.00000000000000 0.00000000000000 -1.00000000000000
-0.38956521739130 -0.27509881422925 2.36521739130435 0.00000000000000 0.00000000000000 -1.00000000000000
-0.35794466403162 -0.27509881422925 2.36521739130435 0.00000000000000 -0.00000000000000 -1.00000000000000
-0.32503937007874 -0.27401574803150 2.35590551181102 0.00000000000000 -0.00000000000000 1.00000000000000
-0.29354330708661 -0.27401574803150 2.35590551181102 0.00000000000000 -0.00000000000000 -1.00000000000000
-0.26204724409449 -0.27401574803150 2.35590551181102 -0.00000000000000 0.00000000000000 1.00000000000000
-0.23055118110236 -0.27401574803150 2.35590551181102 0.00000000000000 -0.00000000000000 -1.00000000000000
-0.19905511811024 -0.27401574803150 2.35590551181102 0.00000000000000 -0.00000000000000 -1.00000000000000
-0.16560311284047 -0.27081712062257 2.32840466926070 0.54584006860532 -0.81876010290800 0.17801829510196
-0.11368421052632 -0.22894736842105 1.96842105263158 0.00000000000000 0.00000000000000 1.00000000000000
-0.10415686274510 -0.27294117647059 2.34666666666667 nan nan nan
-0.06270270270270 -0.23513513513514 2.02162162162162 0.99372308575419 -0.11041367619491 0.01797912534832
-0.03439739413681 -0.22671009771987 1.94918566775244 0.00000000000000 0.00000000000000 -1.00000000000000
-0.00825806451613 -0.22451612903226 1.93032258064516 0.00000000000000 -0.00000000000000 -1.00000000000000
0.01754838709677 -0.22451612903226 1.93032258064516 -0.00000000000000 0.00000000000000 -1.00000000000000
0.04377850162866 -0.22671009771987 1.94918566775244 -0.00000000000000 0.00000000000000 -1.00000000000000
0.07170568561873 -0.23277591973244 2.00133779264214 0.00000000000000 0.00000000000000 -1.00000000000000
0.09813333333333 -0.23200000000000 1.99466666666667 0.00000000000000 -0.00000000000000 1.00000000000000
0.14625000000000 -0.27187500000000 2.33750000000000 0.00000000000000 -0.00000000000000 1.00000000000000
0.17750000000000 -0.27187500000000 2.33750000000000 0.00000000000000 -0.00000000000000 1.00000000000000
0.20875000000000 -0.27187500000000 2.33750000000000 0.00000000000000 -0.00000000000000 1.00000000000000
0.23906614785992 -0.27081712062257 2.32840466926070 -0.00000000000000 0.00000000000000 -1.00000000000000
0.27019455252918 -0.27081712062257 2.32840466926070 0.00000000000000 -0.00000000000000 1.00000000000000
0.30132295719844 -0.27081712062257 2.32840466926070 -0.00000000000000 0.00000000000000 -1.00000000000000
0.33245136186770 -0.27081712062257 2.32840466926070 -0.00000000000000 0.00000000000000 -1.00000000000000
0.36217054263566 -0.26976744186047 2.31937984496124 0.00000000000000 0.00000000000000 -1.00000000000000
-0.38071146245059 -0.27446640316206 2.36521739130435 0.00000000000000 -0.00000000000000 -1.00000000000000
-0.34909090909091 -0.27446640316206 2.36521739130435 0.00000000000000 -0.00000000000000 -1.00000000000000
-0.31622047244094 -0.27338582677165 2.35590551181102 0.00000000000000 -0.00000000000000 1.00000000000000
-0.28472440944882 -0.27338582677165 2.35590551181102 -0.00000000000000 0.00000000000000 -1.00000000000000
-0.25322834645669 -0.27338582677165 2.35590551181102 -0.00000000000000 0.00000000000000 -1.00000000000000
-0.22173228346457 -0.27338582677165 2.35590551181102 -0.00000000000000 0.00000000000000 -1.00000000000000
-0.19023622047244 -0.27338582677165 2.35590551181102 -0.00000000000000 0.00000000000000 -1.00000000000000
-0.13263157894737 -0.22842105263158 1.96842105263158 0.00000000000000 -0.00000000000000 -1.00000000000000
-0.10701986754967 -0.22993377483444 1.98145695364238 0.00000000000000 -0.00000000000000 1.00000000000000
-0.09537254901961 -0.27231372549020 2.34666666666667 -0.00000000000000 0.00000000000000 -1.00000000000000
-0.05421926910299 -0.23069767441860 1.98803986710963 -0.00000000000000 0.00000000000000 1.00000000000000
-0.02701298701299 -0.22545454545455 1.94285714285714 0.00000000000000 0.00000000000000 -1.00000000000000
-0.00103225806452 -0.22400000000000 1.93032258064516 -0.00000000000000 0.00000000000000 -1.00000000000000
0.02485436893204 -0.22472491909385 1.93656957928803 -0.00000000000000 0.00000000000000 -1.00000000000000
0.05174917491749 -0.22917491749175 1.97491749174917 -0.99351249711441 0.10267599625690 0.04889333155091
0.07893333333333 -0.23146666666667 1.99466666666667 0.00000000000000 0.00000000000000 -1.00000000000000
0.10702702702703 -0.23459459459459 2.02162162162162 -0.93605932408716 0.34038520875897 0.08905532801354
0.15500000000000 -0.27125000000000 2.33750000000000 -0.00000000000000 0.00000000000000 1.00000000000000
0.18625000000000 -0.27125000000000 2.33750000000000 -0.00000000000000 0.00000000000000 1.00000000000000
0.21750000000000 -0.27125000000000 2.33750000000000 -0.00000000000000 0.00000000000000 1.00000000000000
0.24778210116732 -0.27019455252918 2.32840466926070 -0.00000000000000 0.00000000000000 1.00000000000000
0.27891050583658 -0.27019455252918 2.32840466926070 0.00000000000000 -0.00000000000000 1.00000000000000
0.31003891050584 -0.27019455252918 2.32840466926070 nan nan nan
0.34116731517510 -0.27019455252918 2.32840466926070 -0.00000000000000 0.00000000000000 1.00000000000000
0.37085271317829 -0.26914728682171 2.31937984496124 -0.00000000000000 -0.00000000000000 -1.00000000000000
-0.37185770750988 -0.27383399209486 2.36521739130435 0.00000000000000 -0.00000000000000 -1.00000000000000
-0.34023715415020 -0.27383399209486 2.36521739130435 0.00000000000000 -0.00000000000000 -1.00000000000000
-0.30740157480315 -0.27275590551181 2.35590551181102 -0.00000000000000 0.00000000000000 1.00000000000000
-0.27590551181102 -0.27275590551181 2.35590551181102 -0.00000000000000 0.00000000000000 1.00000000000000
-0.24440944881890 -0.27275590551181 2.35590551181102 0.00000000000000 -0.00000000000000 -1.00000000000000
-0.21291338582677 -0.27275590551181 2.35590551181102 0.00000000000000 -0.00000000000000 -1.00000000000000
-0.18070588235294 -0.27168627450980 2.34666666666667 0.00000000000000 0.00000000000000 -1.00000000000000
-0.12485245901639 -0.22714754098361 1.96196721311475 0.00000000000000 0.00000000000000 1.00000000000000
-0.10336769759450 -0.23807560137457 2.05635738831615 -0.95845114417299 -0.27384318404942 -0.07988313203153
-0.08658823529412 -0.27168627450980 2.34666666666667 nan nan nan
-0.04646864686469 -0.22864686468647 1.97491749174917 0.00000000000000 0.00000000000000 1.00000000000000
-0.01967637540453 -0.22420711974110 1.93656957928803 0.00000000000000 -0.00000000000000 -1.00000000000000
0.00619354838710 -0.22348387096774 1.93032258064516 0.00000000000000 -0.00000000000000 1.00000000000000
0.03220779220779 -0.22493506493506 1.94285714285714 0.00000000000000 0.00000000000000 -1.00000000000000
0.07000000000000 -0.27062500000000 2.33750000000000 0.00000000000000 0.00000000000000 -1.00000000000000
0.08640000000000 -0.23093333333333 1.99466666666667 0.00000000000000 0.00000000000000 1.00000000000000
0.13250000000000 -0.27062500000000 2.33750000000000 0.00000000000000 -0.00000000000000 1.00000000000000
0.16375000000000 -0.27062500000000 2.33750000000000 -0.00000000000000 0.00000000000000 1.00000000000000
0.19500000000000 -0.27062500000000 2.33750000000000 -0.00000000000000 0.00000000000000 1.00000000000000
0.22625000000000 -0.27062500000000 2.33750000000000 -0.00000000000000 0.00000000000000 1.00000000000000
0.25649805447471 -0.26957198443580 2.32840466926070 -0.00000000000000 0.00000000000000 -1.00000000000000
0.28762645914397 -0.26957198443580 2.32840466926070 0.00000000000000 -0.00000000000000 1.00000000000000
0.31875486381323 -0.26957198443580 2.32840466926070 -0.00000000000000 0.00000000000000 -1.00000000000000
0.34988326848249 -0.26957198443580 2.32840466926070 -0.00000000000000 0.00000000000000 -1.00000000000000
0.37953488372093 -0.26852713178295 2.31937984496124 nan nan nan
-0.36300395256917 -0.27320158102767 2.36521739130435 -0.00000000000000 0.00000000000000 1.00000000000000
-0.33007874015748 -0.27212598425197 2.35590551181102 0.00000000000000 0.00000000000000 -1.00000000000000
-0.29858267716535 -0.27212598425197 2.35590551181102 -0.00000000000000 0.00000000000000 1.00000000000000
-0.26708661417323 -0.27212598425197 2.35590551181102 0.00000000000000 -0.00000000000000 -1.00000000000000
-0.23559055118110 -0.27212598425197 2.35590551181102 0.00000000000000 -0.00000000000000 -1.00000000000000
-0.20409448818898 -0.27212598425197 2.35590551181102 0.00000000000000 -0.00000000000000 -1.00000000000000
-0.17192156862745 -0.27105882352941 2.34666666666667 0.00000000000000 -0.00000000000000 -1.00000000000000
-0.11789473684211 -0.22736842105263 1.96842105263158 0.00000000000000 -0.00000000000000 -1.00000000000000
-0.10917647058824 -0.27105882352941 2.34666666666667 0.00000000000000 -0.00000000000000 -1.00000000000000
-0.07750000000000 -0.27000000000000 2.33750000000000 0.51557682851086 -0.77336524276629 0.36889935644253
-0.03881967213115 -0.22662295081967 1.96196721311475 -0.00000000000000 0.00000000000000 -1.00000000000000
-0.01238709677419 -0.22296774193548 1.93032258064516 0.00000000000000 -0.00000000000000 1.00000000000000
0.01341935483871 -0.22296774193548 1.93032258064516 0.00000000000000 -0.00000000000000 1.00000000000000
0.03960912052117 -0.22514657980456 1.94918566775244 0.00000000000000 -0.00000000000000 1.00000000000000
0.06880546075085 -0.23590443686007 2.04232081911263 -0.99058251341537 0.04607360527513 0.12893217989560
0.09386666666667 -0.23040000000000 1.99466666666667 0.00000000000000 -0.00000000000000 -1.00000000000000
0.14125000000000 -0.27000000000000 2.33750000000000 0.00000000000000 -0.00000000000000 -1.00000000000000
0.17250000000000 -0.27000000000000 2.33750000000000 0.00000000000000 -0.00000000000000 -1.00000000000000
0.20375000000000 -0.27000000000000 2.33750000000000 0.00000000000000 -0.00000000000000 -1.00000000000000
0.23500000000000 -0.27000000000000 2.33750000000000 -0.00000000000000 0.00000000000000 -1.00000000000000
0.26521400778210 -0.26894941634241 2.32840466926070 nan nan nan
0.29634241245136 -0.26894941634241 2.32840466926070 0.00000000000000 -0.00000000000000 1.00000000000000
0.32747081712062 -0.26894941634241 2.32840466926070 nan nan nan
0.35859922178988 -0.26894941634241 2.32840466926070 0.00000000000000 0.00000000000000 1.00000000000000
-0.38577075098814 -0.27256916996047 2.36521739130435 0.00000000000000 -0.00000000000000 1.00000000000000
-0.35415019762846 -0.27256916996047 2.36521739130435 -0.00000000000000 0.00000000000000 -1.00000000000000
-0.32125984251969 -0.27149606299213 2.35590551181102 -0.00000000000000 0.00000000000000 -1.00000000000000
-0.28976377952756 -0.27149606299213 2.35590551181102 0.00000000000000 -0.00000000000000 1.00000000000000
-0.25826771653543 -0.27149606299213 2.35590551181102 -0.00000000000000 0.00000000000000 -1.00000000000000
-0.22677165354331 -0.27149606299213 2.35590551181102 -0.00000000000000 0.00000000000000 -1.00000000000000
-0.19527559055118 -0.27149606299213 2.35590551181102 -0.00000000000000 0.00000000000000 -1.00000000000000
-0.13913043478261 -0.23063545150502 2.00133779264214 0.75694758006563 0.44155275503830 0.48172764665408
-0.11089108910891 -0.22759075907591 1.97491749174917 -0.89173643121503 0.32426779316910 0.31568423393816
-0.10039215686275 -0.27043137254902 2.34666666666667 -0.00000000000000 0.00000000000000 1.00000000000000
-0.05886287625418 -0.23063545150502 2.00133779264214 -0.00000000000000 0.00000000000000 1.00000000000000
-0.03127035830619 -0.22462540716612 1.94918566775244 0.00000000000000 0.00000000000000 1.00000000000000
-0.00516129032258 -0.22245161290323 1.93032258064516 -0.00000000000000 0.00000000000000 -1.00000000000000
0.02071197411003 -0.22317152103560 1.93656957928803 0.00000000000000 -0.00000000000000 1.00000000000000
0.04705882352941 -0.22535947712418 1.95555555555556 -0.00000000000000 -0.00000000000000 -1.00000000000000
0.07491638795987 -0.23063545150502 2.00133779264214 0.00000000000000 0.00000000000000 1.00000000000000
0.10133333333333 -0.22986666666667 1.99466666666667 -0.00000000000000 0.00000000000000 -1.00000000000000
0.15000000000000 -0.26937500000000 2.33750000000000 -0.00000000000000 0.00000000000000 1.00000000000000
0.18125000000000 -0.26937500000000 2.33750000000000 -0.00000000000000 0.00000000000000 1.00000000000000
0.21250000000000 -0.26937500000000 2.33750000000000 -0.00000000000000 0.00000000000000 1.00000000000000
0.24280155642023 -0.26832684824903 2.32840466926070 0.00000000000000 -0.00000000000000 -1.00000000000000
0.27392996108949 -0.26832684824903 2.32840466926070 -0.00000000000000 0.00000000000000 1.00000000000000
0.30505836575875 -0.26832684824903 2.32840466926070 0.00000000000000 -0.00000000000000 -1.00000000000000
0.33618677042802 -0.26832684824903 2.32840466926070 0.00000000000000 -0.00000000000000 -1.00000000000000
0.36731517509728 -0.26832684824903 2.32840466926070 0.00000000000000 0.00000000000000 -1.00000000000000
-0.37691699604743 -0.27193675889328 2.36521739130435 -0.00000000000000 0.00000000000000 -1.00000000000000
-0.34529644268775 -0.27193675889328 2.36521739130435 -0.00000000000000 0.00000000000000 -1.00000000000000
-0.31244094488189 -0.27086614173228 2.35590551181102 0.00000000000000 -0.00000000000000 -1.00000000000000
-0.28094488188976 -0.27086614173228 2.35590551181102 0.00000000000000 -0.00000000000000 -1.00000000000000
-0.24944881889764 -0.27086614173228 2.35590551181102 0.00000000000000 -0.00000000000000 -1.00000000000000
-0.21795275590551 -0.27086614173228 2.35590551181102 0.00000000000000 -0.00000000000000 -1.00000000000000
-0.18645669291339 -0.27086614173228 2.35590551181102 0.00000000000000 0.00000000000000 1.00000000000000
-0.12947368421053 -0.22631578947368 1.96842105263158 -0.00000000000000 0.00000000000000 -1.00000000000000
-0.10384105960265 -0.22781456953642 1.98145695364238 -0.00000000000000 0.00000000000000 -1.00000000000000
-0.09160784313725 -0.26980392156863 2.34666666666667 -0.00000000000000 0.00000000000000 -1.00000000000000
-0.05086092715232 -0.22781456953642 1.98145695364238 -0.00000000000000 0.00000000000000 1.00000000000000
-0.02389610389610 -0.22337662337662 1.94285714285714 -0.00000000000000 0.00000000000000 -1.00000000000000
0.00206451612903 -0.22193548387097 1.93032258064516 nan nan nan
0.02796116504854 -0.22265372168285 1.93656957928803 -0.00000000000000 0.00000000000000 1.00000000000000
0.06028985507246 -0.24927536231884 2.16811594202899 -0.41764832893862 -0.41764832893863 -0.80693230612583
0.08213333333333 -0.22933333333333 1.99466666666667 -0.00000000000000 0.00000000000000 -1.00000000000000
0.12410646387833 -0.26159695817490 2.27528517110266 -0.93596389712121 0.34035050804407 0.09018378435071
0.15875000000000 -0.26875000000000 2.33750000000000 0.00000000000000 -0.00000000000000 1.00000000000000
0.19000000000000 -0.26875000000000 2.33750000000000 0.00000000000000 -0.00000000000000 1.00000000000000
0.22125000000000 -0.26875000000000 2.33750000000000 0.00000000000000 -0.00000000000000 1.00000000000000
0.25151750972763 -0.26770428015564 2.32840466926070 0.00000000000000 -0.00000000000000 -1.00000000000000
0.28264591439689 -0.26770428015564 2.32840466926070 -0.00000000000000 0.00000000000000 1.00000000000000
0.31377431906615 -0.26770428015564 2.32840466926070 0.00000000000000 -0.00000000000000 -1.00000000000000
0.34490272373541 -0.26770428015564 2.32840466926070 0.00000000000000 -0.00000000000000 -1.00000000000000
0.37603112840467 -0.26770428015564 2.32840466926070 0.00000000000000 0.00000000000000 -1.00000000000000
-0.36806324110672 -0.27130434782609 2.36521739130435 0.00000000000000 -0.00000000000000 1.00000000000000
-0.33644268774704 -0.27130434782609 2.36521739130435 -0.00000000000000 0.00000000000000 1.00000000000000
-0.30362204724409 -0.27023622047244 2.35590551181102 nan nan nan
-0.27212598425197 -0.27023622047244 2.35590551181102 0.00000000000000 -0.00000000000000 1.00000000000000
-0.24062992125984 -0.27023622047244 2.35590551181102 0.00000000000000 -0.00000000000000 1.00000000000000
-0.20913385826772 -0.27023622047244 2.35590551181102 nan nan nan
-0.17694117647059 -0.26917647058824 2.34666666666667 nan nan nan
-0.12210526315789 -0.22578947368421 1.96842105263158 0.00000000000000 0.00000000000000 -1.00000000000000
-0.11419607843137 -0.26917647058824 2.34666666666667 0.00000000000000 0.00000000000000 -1.00000000000000
-0.08282352941176 -0.26917647058824 2.34666666666667 0.00000000000000 -0.00000000000000 1.00000000000000
-0.04315789473684 -0.22578947368421 1.96842105263158 0.00000000000000 0.00000000000000 1.00000000000000
-0.01656957928803 -0.22213592233010 1.93656957928803 0.00000000000000 0.00000000000000 1.00000000000000
0.00929032258065 -0.22141935483871 1.93032258064516 0.00000000000000 -0.00000000000000 -1.00000000000000
0.03532467532468 -0.22285714285714 1.94285714285714 0.00000000000000 0.00000000000000 1.00000000000000
0.07375000000000 -0.26812500000000 2.33750000000000 -0.00000000000000 0.00000000000000 -1.00000000000000
0.08930232558140 -0.22803986710963 1.98803986710963 0.00000000000000 -0.00000000000000 1.00000000000000
0.13625000000000 -0.26812500000000 2.33750000000000 0.00000000000000 -0.00000000000000 1.00000000000000
0.16750000000000 -0.26812500000000 2.33750000000000 -0.00000000000000 0.00000000000000 1.00000000000000
0.19875000000000 -0.26812500000000 2.33750000000000 -0.00000000000000 0.00000000000000 1.00000000000000
0.23000000000000 -0.26812500000000 2.33750000000000 -0.00000000000000 0.00000000000000 -1.00000000000000
0.26023346303502 -0.26708171206226 2.32840466926070 nan nan nan
0.29136186770428 -0.26708171206226 2.32840466926070 -0.00000000000000 0.00000000000000 1.00000000000000
0.32249027237354 -0.26708171206226 2.32840466926070 0.00000000000000 -0.00000000000000 1.00000000000000
0.35361867704280 -0.26708171206226 2.32840466926070 nan nan nan
-0.40691358024691 -0.28181069958848 2.46255144032922 -0.98662112739732 0.00000000000000 -0.16302990821699
-0.35920948616601 -0.27067193675889 2.36521739130435 0.00000000000000 -0.00000000000000 1.00000000000000
-0.32629921259843 -0.26960629921260 2.35590551181102 -0.00000000000000 0.00000000000000 -1.00000000000000
-0.29480314960630 -0.26960629921260 2.35590551181102 -0.00000000000000 0.00000000000000 -1.00000000000000
-0.26330708661417 -0.26960629921260 2.35590551181102 -0.00000000000000 0.00000000000000 -1.00000000000000
-0.23181102362205 -0.26960629921260 2.35590551181102 -0.00000000000000 0.00000000000000 -1.00000000000000
-0.20031496062992 -0.26960629921260 2.35590551181102 -0.00000000000000 0.00000000000000 -1.00000000000000
-0.16815686274510 -0.26854901960784 2.34666666666667 -0.00000000000000 0.00000000000000 -1.00000000000000
-0.11473684210526 -0.22526315789474 1.96842105263158 0.00000000000000 -0.00000000000000 1.00000000000000
-0.10541176470588 -0.26854901960784 2.34666666666667 -0.00000000000000 0.00000000000000 -1.00000000000000
-0.06465753424658 -0.23452054794521 2.04931506849315 0.96986487993752 -0.20066169929742 0.13819188506873
-0.03555555555556 -0.22379084967320 1.95555555555556 0.00000000000000 0.00000000000000 1.00000000000000
-0.00929032258065 -0.22090322580645 1.93032258064516 -0.00000000000000 0.00000000000000 -1.00000000000000
0.01651612903226 -0.22090322580645 1.93032258064516 0.00000000000000 0.00000000000000 1.00000000000000
0.04273615635179 -0.22306188925081 1.94918566775244 -0.00000000000000 0.00000000000000 -1.00000000000000
0.07087248322148 -0.22979865771812 2.00805369127517 -0.96152094898356 -0.27472027113816 0.00249745701035
0.09706666666667 -0.22826666666667 1.99466666666667 nan nan nan
0.14500000000000 -0.26750000000000 2.33750000000000 nan nan nan
0.17625000000000 -0.26750000000000 2.33750000000000 nan nan nan
0.20750000000000 -0.26750000000000 2.33750000000000 nan nan nan
0.23782101167315 -0.26645914396887 2.32840466926070 0.00000000000000 -0.00000000000000 1.00000000000000
0.26894941634241 -0.26645914396887 2.32840466926070 0.00000000000000 -0.00000000000000 -1.00000000000000
0.30007782101167 -0.26645914396887 2.32840466926070 -0.00000000000000 0.00000000000000 1.00000000000000
0.33120622568093 -0.26645914396887 2.32840466926070 0.00000000000000 -0.00000000000000 -1.00000000000000
0.36093023255814 -0.26542635658915 2.31937984496124 -0.00000000000000 0.00000000000000 1.00000000000000
-0.38197628458498 -0.27003952569170 2.36521739130435 0.00000000000000 -0.00000000000000 -1.00000000000000
-0.35035573122530 -0.27003952569170 2.36521739130435 0.00000000000000 -0.00000000000000 -1.00000000000000
-0.31748031496063 -0.26897637795276 2.35590551181102 nan nan nan
-0.28598425196850 -0.26897637795276 2.35590551181102 -0.00000000000000 0.00000000000000 1.00000000000000
-0.25448818897638 -0.26897637795276 2.35590551181102 0.00000000000000 -0.00000000000000 1.00000000000000
-0.22299212598425 -0.26897637795276 2.35590551181102 -0.00000000000000 0.00000000000000 1.00000000000000
-0.19149606299213 -0.26897637795276 2.35590551181102 0.00000000000000 0.00000000000000 1.00000000000000
-0.13368421052632 -0.22473684210526 1.96842105263158 0.00000000000000 0.00000000000000 -1.00000000000000
-0.10807947019868 -0.22622516556291 1.98145695364238 0.00000000000000 0.00000000000000 -1.00000000000000
-0.09662745098039 -0.26792156862745 2.34666666666667 nan nan nan
-0.05546666666667 -0.22773333333333 1.99466666666667 -0.89251505460530 0.32455092894738 -0.31318296860190
-0.02805194805195 -0.22181818181818 1.94285714285714 0.00000000000000 0.00000000000000 -1.00000000000000
-0.00206451612903 -0.22038709677419 1.93032258064516 0.00000000000000 -0.00000000000000 -1.00000000000000
0.02381877022654 -0.22110032362460 1.93656957928803 -0.00000000000000 0.00000000000000 -1.00000000000000
0.05036065573770 -0.22400000000000 1.96196721311475 -0.84128873136840 -0.24036820896240 0.48420697495260
0.07786666666667 -0.22773333333333 1.99466666666667 0.00000000000000 0.00000000000000 -1.00000000000000
0.10488294314381 -0.22849498327759 2.00133779264214 0.00000000000000 -0.00000000000000 -1.00000000000000
0.15375000000000 -0.26687500000000 2.33750000000000 nan nan nan
0.18500000000000 -0.26687500000000 2.33750000000000 nan nan nan
0.21625000000000 -0.26687500000000 2.33750000000000 nan nan nan
0.24653696498054 -0.26583657587549 2.32840466926070 -0.00000000000000 0.00000000000000 -1.00000000000000
0.27766536964981 -0.26583657587549 2.32840466926070 0.00000000000000 -0.00000000000000 1.00000000000000
0.30879377431907 -0.26583657587549 2.32840466926070 -0.00000000000000 0.00000000000000 -1.00000000000000
0.33992217898833 -0.26583657587549 2.32840466926070 0.00000000000000 -0.00000000000000 1.00000000000000
0.36961240310078 -0.26480620155039 2.31937984496124 -0.00000000000000 0.00000000000000 1.00000000000000
-0.37312252964427 -0.26940711462451 2.36521739130435 0.00000000000000 -0.00000000000000 1.00000000000000
-0.34150197628459 -0.26940711462451 2.36521739130435 nan nan nan
-0.30866141732283 -0.26834645669291 2.35590551181102 -0.00000000000000 0.00000000000000 -1.00000000000000
-0.27716535433071 -0.26834645669291 2.35590551181102 -0.00000000000000 0.00000000000000 -1.00000000000000
-0.24566929133858 -0.26834645669291 2.35590551181102 -0.00000000000000 0.00000000000000 -1.00000000000000
-0.21417322834646 -0.26834645669291 2.35590551181102 -0.00000000000000 0.00000000000000 -1.00000000000000
-0.18196078431373 -0.26729411764706 2.34666666666667 0.00000000000000 -0.00000000000000 1.00000000000000
-0.12631578947368 -0.22421052631579 1.96842105263158 0.00000000000000 -0.00000000000000 1.00000000000000
-0.10519031141869 -0.23584775086505 2.07058823529412 0.95845114417299 0.27384318404942 0.07988313203153
-0.08784313725490 -0.26729411764706 2.34666666666667 0.00000000000000 -0.00000000000000 -1.00000000000000
-0.04752475247525 -0.22495049504950 1.97491749174917 -0.00000000000000 0.00000000000000 1.00000000000000
-0.02071197411003 -0.22058252427184 1.93656957928803 0.00000000000000 -0.00000000000000 1.00000000000000
0.00516129032258 -0.21987096774194 1.93032258064516 0.00000000000000 -0.00000000000000 -1.00000000000000
0.03106796116505 -0.22058252427184 1.93656957928803 -0.00000000000000 0.00000000000000 -1.00000000000000
0.06875000000000 -0.26625000000000 2.33750000000000 0.00000000000000 0.00000000000000 -1.00000000000000
0.08504983388704 -0.22644518272425 1.98803986710963 0.00000000000000 -0.00000000000000 1.00000000000000
0.13125000000000 -0.26625000000000 2.33750000000000 0.00000000000000 0.00000000000000 -1.00000000000000
0.16250000000000 -0.26625000000000 2.33750000000000 0.00000000000000 -0.00000000000000 1.00000000000000
0.19375000000000 -0.26625000000000 2.33750000000000 0.00000000000000 -0.00000000000000 1.00000000000000
0.22500000000000 -0.26625000000000 2.33750000000000 0.00000000000000 -0.00000000000000 1.00000000000000
0.25525291828794 -0.26521400778210 2.32840466926070 0.00000000000000 -0.00000000000000 1.00000000000000
0.28638132295720 -0.26521400778210 2.32840466926070 0.00000000000000 -0.00000000000000 1.00000000000000
0.31750972762646 -0.26521400778210 2.32840466926070 -0.00000000000000 0.00000000000000 1.00000000000000
0.34863813229572 -0.26521400778210 2.32840466926070 0.00000000000000 -0.00000000000000 1.00000000000000
0.37829457364341 -0.26418604651163 2.31937984496124 0.00000000000000 0.00000000000000 -1.00000000000000
-0.36426877470356 -0.26877470355731 2.36521739130435 -0.00000000000000 0.00000000000000 1.00000000000000
-0.33264822134387 -0.26877470355731 2.36521739130435 -0.00000000000000 0.00000000000000 -1.00000000000000
-0.29984251968504 -0.26771653543307 2.35590551181102 0.00000000000000 -0.00000000000000 1.00000000000000
-0.26834645669291 -0.26771653543307 2.35590551181102 -0.00000000000000 0.00000000000000 1.00000000000000
-0.23685039370079 -0.26771653543307 2.35590551181102 -0.00000000000000 0.00000000000000 1.00000000000000
-0.20535433070866 -0.26771653543307 2.35590551181102 -0.00000000000000 0.00000000000000 1.00000000000000
-0.17317647058824 -0.26666666666667 2.34666666666667 0.00000000000000 -0.00000000000000 1.00000000000000
-0.11894736842105 -0.22368421052632 1.96842105263158 -0.00000000000000 0.00000000000000 1.00000000000000
-0.11043137254902 -0.26666666666667 2.34666666666667 0.00000000000000 -0.00000000000000 1.00000000000000
-0.07905882352941 -0.26666666666667 2.34666666666667 -0.00000000000000 0.00000000000000 -1.00000000000000
-0.03986885245902 -0.22295081967213 1.96196721311475 0.00000000000000 -0.00000000000000 -1.00000000000000
-0.01341935483871 -0.21935483870968 1.93032258064516 0.00000000000000 0.00000000000000 -1.00000000000000
0.01238709677419 -0.21935483870968 1.93032258064516 -0.00000000000000 0.00000000000000 -1.00000000000000
0.03856677524430 -0.22149837133550 1.94918566775244 0.00000000000000 0.00000000000000 -1.00000000000000
0.07162454873646 -0.24548736462094 2.16028880866426 0.41764832893862 0.41764832893863 0.80693230612583
0.09249169435216 -0.22591362126246 1.98803986710963 -0.00000000000000 0.00000000000000 1.00000000000000
