ply
            format ascii 1.0
            element vertex 27336
            property float x
            property float y
            property float z
            property float nx
            property float ny
            property float nz
end_header
0.07159159159159 0.02786786786787 1.79699699699700 0.00000000000000 -0.00000000000000 1.00000000000000
0.10075949367089 0.02936708860759 1.89367088607595 0.00000000000000 0.00000000000000 1.00000000000000
0.15441860465116 0.03596899224806 2.31937984496124 0.00000000000000 -0.00000000000000 -1.00000000000000
0.18542635658915 0.03596899224806 2.31937984496124 0.00000000000000 -0.00000000000000 1.00000000000000
0.21643410852713 0.03596899224806 2.31937984496124 -0.00000000000000 -0.00000000000000 -1.00000000000000
0.24648648648649 0.03583011583012 2.31042471042471 0.00000000000000 -0.00000000000000 1.00000000000000
0.27737451737452 0.03583011583012 2.31042471042471 -0.00000000000000 0.00000000000000 1.00000000000000
0.30826254826255 0.03583011583012 2.31042471042471 -0.00000000000000 0.00000000000000 -1.00000000000000
0.33784615384615 0.03569230769231 2.30153846153846 -0.00000000000000 0.00000000000000 -1.00000000000000
0.36861538461538 0.03569230769231 2.30153846153846 -0.00000000000000 0.00000000000000 1.00000000000000
-0.36831372549020 0.03701960784314 2.34666666666667 0.00000000000000 -0.00000000000000 1.00000000000000
-0.33694117647059 0.03701960784314 2.34666666666667 0.00000000000000 -0.00000000000000 -1.00000000000000
-0.30556862745098 0.03701960784314 2.34666666666667 0.00000000000000 -0.00000000000000 -1.00000000000000
-0.27419607843137 0.03701960784314 2.34666666666667 -0.00000000000000 0.00000000000000 1.00000000000000
-0.24187500000000 0.03687500000000 2.33750000000000 0.00000000000000 -0.00000000000000 1.00000000000000
-0.21062500000000 0.03687500000000 2.33750000000000 0.00000000000000 -0.00000000000000 1.00000000000000
-0.14129230769231 0.02904615384615 1.84123076923077 -0.85050056365708 -0.24300016104488 0.46647584390957
-0.11667692307692 0.02904615384615 1.84123076923077 0.00000000000000 -0.00000000000000 1.00000000000000
-0.09350000000000 0.02950000000000 1.87000000000000 -0.48554397698594 0.72831596547891 0.48353169579790
-0.07331103678930 0.03157190635452 2.00133779264214 0.00000000000000 0.00000000000000 1.00000000000000
-0.04718644067797 0.03200000000000 2.02847457627119 0.00000000000000 0.00000000000000 -1.00000000000000
-0.02013605442177 0.03210884353741 2.03537414965986 -0.00000000000000 0.00000000000000 -1.00000000000000
0.00707482993197 0.03210884353741 2.03537414965986 0.00000000000000 -0.00000000000000 1.00000000000000
0.03428571428571 0.03210884353741 2.03537414965986 0.00000000000000 0.00000000000000 1.00000000000000
0.05495440729483 0.02869300911854 1.81884498480243 0.00000000000000 0.00000000000000 1.00000000000000
0.07831831831832 0.02834834834835 1.79699699699700 0.00000000000000 0.00000000000000 1.00000000000000
0.10888178913738 0.03015974440895 1.91182108626198 0.95984943868793 0.27424269676798 -0.05899151057483
0.16310077519380 0.03658914728682 2.31937984496124 nan nan nan
0.19410852713178 0.03658914728682 2.31937984496124 nan nan nan
0.22424710424710 0.03644787644788 2.31042471042471 0.00000000000000 -0.00000000000000 1.00000000000000
0.25513513513514 0.03644787644788 2.31042471042471 nan nan nan
0.28602316602317 0.03644787644788 2.31042471042471 0.00000000000000 -0.00000000000000 1.00000000000000
0.31691119691120 0.03644787644788 2.31042471042471 nan nan nan
0.34646153846154 0.03630769230769 2.30153846153846 0.00000000000000 -0.00000000000000 1.00000000000000
0.37723076923077 0.03630769230769 2.30153846153846 0.00000000000000 0.00000000000000 1.00000000000000
-0.35952941176471 0.03764705882353 2.34666666666667 -0.00000000000000 0.00000000000000 1.00000000000000
-0.32815686274510 0.03764705882353 2.34666666666667 0.00000000000000 -0.00000000000000 -1.00000000000000
-0.29678431372549 0.03764705882353 2.34666666666667 0.00000000000000 -0.00000000000000 1.00000000000000
-0.26541176470588 0.03764705882353 2.34666666666667 0.00000000000000 0.00000000000000 1.00000000000000
-0.23312500000000 0.03750000000000 2.33750000000000 0.00000000000000 -0.00000000000000 1.00000000000000
-0.20187500000000 0.03750000000000 2.33750000000000 0.00000000000000 -0.00000000000000 1.00000000000000
-0.13523219814241 0.02972136222910 1.85263157894737 0.00000000000000 -0.00000000000000 1.00000000000000
-0.11012345679012 0.02962962962963 1.84691358024691 0.00000000000000 0.00000000000000 -1.00000000000000
-0.08704402515723 0.03018867924528 1.88176100628931 0.55427867640375 -0.83141801460563 0.03897735077385
-0.06604026845638 0.03221476510067 2.00805369127517 -0.00000000000000 0.00000000000000 -1.00000000000000
-0.03986348122867 0.03276450511945 2.04232081911263 0.00000000000000 0.00000000000000 -1.00000000000000
-0.01251700680272 0.03265306122449 2.03537414965986 0.00000000000000 -0.00000000000000 -1.00000000000000
0.01469387755102 0.03265306122449 2.03537414965986 0.00000000000000 -0.00000000000000 -1.00000000000000
0.04148148148148 0.03232323232323 2.01481481481481 0.00000000000000 0.00000000000000 -1.00000000000000
0.06157575757576 0.02909090909091 1.81333333333333 -0.00000000000000 0.00000000000000 -1.00000000000000
0.08479041916168 0.02874251497006 1.79161676646707 0.00000000000000 0.00000000000000 1.00000000000000
0.14077519379845 0.03720930232558 2.31937984496124 0.00000000000000 -0.00000000000000 1.00000000000000
0.17178294573643 0.03720930232558 2.31937984496124 -0.00000000000000 0.00000000000000 1.00000000000000
0.20279069767442 0.03720930232558 2.31937984496124 0.00000000000000 -0.00000000000000 -1.00000000000000
0.23289575289575 0.03706563706564 2.31042471042471 0.00000000000000 -0.00000000000000 1.00000000000000
0.26378378378378 0.03706563706564 2.31042471042471 0.00000000000000 -0.00000000000000 1.00000000000000
0.29467181467181 0.03706563706564 2.31042471042471 0.00000000000000 -0.00000000000000 1.00000000000000
0.32430769230769 0.03692307692308 2.30153846153846 0.00000000000000 0.00000000000000 -1.00000000000000
0.35507692307692 0.03692307692308 2.30153846153846 -0.00000000000000 0.00000000000000 1.00000000000000
-0.38211764705882 0.03827450980392 2.34666666666667 0.00000000000000 -0.00000000000000 1.00000000000000
-0.35074509803922 0.03827450980392 2.34666666666667 0.00000000000000 -0.00000000000000 1.00000000000000
-0.31937254901961 0.03827450980392 2.34666666666667 -0.00000000000000 0.00000000000000 1.00000000000000
-0.28800000000000 0.03827450980392 2.34666666666667 -0.00000000000000 0.00000000000000 1.00000000000000
-0.25562500000000 0.03812500000000 2.33750000000000 nan nan nan
-0.22437500000000 0.03812500000000 2.33750000000000 -0.00000000000000 0.00000000000000 1.00000000000000
-0.19312500000000 0.03812500000000 2.33750000000000 -0.00000000000000 0.00000000000000 1.00000000000000
-0.12790123456790 0.03012345679012 1.84691358024691 -0.00000000000000 0.00000000000000 1.00000000000000
-0.10352941176471 0.03021671826625 1.85263157894737 0.00000000000000 -0.00000000000000 1.00000000000000
-0.08050632911392 0.03088607594937 1.89367088607595 0.00000000000000 -0.00000000000000 1.00000000000000
-0.05872053872054 0.03286195286195 2.01481481481481 0.00000000000000 0.00000000000000 1.00000000000000
-0.03221843003413 0.03331058020478 2.04232081911263 0.00000000000000 -0.00000000000000 1.00000000000000
-0.00489795918367 0.03319727891156 2.03537414965986 -0.00000000000000 0.00000000000000 -1.00000000000000
0.02231292517007 0.03319727891156 2.03537414965986 -0.00000000000000 0.00000000000000 1.00000000000000
0.04466257668712 0.02993865030675 1.83558282208589 0.31576765990016 0.84204709306709 0.43731850866210
0.06795180722892 0.02939759036145 1.80240963855422 0.00000000000000 0.00000000000000 -1.00000000000000
0.09610062893082 0.03069182389937 1.88176100628931 0.96014646042235 0.27432756012067 -0.05350854414653
0.14945736434109 0.03782945736434 2.31937984496124 -0.00000000000000 0.00000000000000 1.00000000000000
0.18046511627907 0.03782945736434 2.31937984496124 -0.00000000000000 0.00000000000000 1.00000000000000
0.21147286821705 0.03782945736434 2.31937984496124 0.00000000000000 0.00000000000000 -1.00000000000000
0.24154440154440 0.03768339768340 2.31042471042471 -0.00000000000000 0.00000000000000 1.00000000000000
0.27243243243243 0.03768339768340 2.31042471042471 -0.00000000000000 0.00000000000000 1.00000000000000
0.30332046332046 0.03768339768340 2.31042471042471 -0.00000000000000 0.00000000000000 1.00000000000000
0.33292307692308 0.03753846153846 2.30153846153846 -0.00000000000000 0.00000000000000 -1.00000000000000
0.36369230769231 0.03753846153846 2.30153846153846 -0.00000000000000 0.00000000000000 -1.00000000000000
-0.37333333333333 0.03890196078431 2.34666666666667 -0.00000000000000 0.00000000000000 1.00000000000000
-0.34196078431373 0.03890196078431 2.34666666666667 -0.00000000000000 0.00000000000000 1.00000000000000
-0.31058823529412 0.03890196078431 2.34666666666667 0.00000000000000 -0.00000000000000 1.00000000000000
-0.27921568627451 0.03890196078431 2.34666666666667 -0.00000000000000 0.00000000000000 1.00000000000000
-0.24687500000000 0.03875000000000 2.33750000000000 -0.00000000000000 0.00000000000000 1.00000000000000
-0.21562500000000 0.03875000000000 2.33750000000000 -0.00000000000000 0.00000000000000 1.00000000000000
-0.14658385093168 0.03080745341615 1.85838509316770 0.94716939044961 -0.10524104338329 0.30297601981495
-0.12061538461538 0.03052307692308 1.84123076923077 0.00000000000000 -0.00000000000000 1.00000000000000
-0.09689440993789 0.03080745341615 1.85838509316770 -0.00000000000000 0.00000000000000 -1.00000000000000
-0.07508090614887 0.03210355987055 1.93656957928803 0.87628191650574 -0.47184410888771 -0.09743274456253
-0.05135135135135 0.03351351351351 2.02162162162162 -0.00000000000000 0.00000000000000 -1.00000000000000
-0.02448979591837 0.03374149659864 2.03537414965986 0.00000000000000 0.00000000000000 -1.00000000000000
0.00272108843537 0.03374149659864 2.03537414965986 0.00000000000000 -0.00000000000000 1.00000000000000
0.02993197278912 0.03374149659864 2.03537414965986 0.00000000000000 -0.00000000000000 -1.00000000000000
0.05137614678899 0.03033639143731 1.82996941896024 -0.00000000000000 -0.00000000000000 -1.00000000000000
0.07447447447447 0.02978978978979 1.79699699699700 nan nan nan
0.10412698412698 0.03149206349206 1.89968253968254 0.00000000000000 0.00000000000000 1.00000000000000
0.15813953488372 0.03844961240310 2.31937984496124 0.00000000000000 -0.00000000000000 1.00000000000000
0.18914728682171 0.03844961240310 2.31937984496124 -0.00000000000000 0.00000000000000 1.00000000000000
0.21930501930502 0.03830115830116 2.31042471042471 0.00000000000000 0.00000000000000 -1.00000000000000
0.25019305019305 0.03830115830116 2.31042471042471 -0.00000000000000 0.00000000000000 1.00000000000000
0.28108108108108 0.03830115830116 2.31042471042471 0.00000000000000 -0.00000000000000 1.00000000000000
0.31196911196911 0.03830115830116 2.31042471042471 0.00000000000000 -0.00000000000000 -1.00000000000000
0.34153846153846 0.03815384615385 2.30153846153846 0.00000000000000 -0.00000000000000 1.00000000000000
0.37230769230769 0.03815384615385 2.30153846153846 0.00000000000000 -0.00000000000000 1.00000000000000
-0.36454901960784 0.03952941176471 2.34666666666667 nan nan nan
-0.33317647058824 0.03952941176471 2.34666666666667 nan nan nan
-0.30180392156863 0.03952941176471 2.34666666666667 nan nan nan
-0.27043137254902 0.03952941176471 2.34666666666667 0.00000000000000 0.00000000000000 1.00000000000000
-0.23812500000000 0.03937500000000 2.33750000000000 -0.00000000000000 0.00000000000000 1.00000000000000
-0.20687500000000 0.03937500000000 2.33750000000000 -0.00000000000000 0.00000000000000 1.00000000000000
-0.13919504643963 0.03120743034056 1.85263157894737 0.00000000000000 -0.00000000000000 1.00000000000000
-0.11372307692308 0.03101538461538 1.84123076923077 -0.00000000000000 0.00000000000000 -1.00000000000000
-0.09050000000000 0.03150000000000 1.87000000000000 0.00000000000000 -0.00000000000000 -1.00000000000000
-0.07033557046980 0.03382550335570 2.00805369127517 0.00000000000000 0.00000000000000 -1.00000000000000
-0.04408163265306 0.03428571428571 2.03537414965986 -0.00000000000000 0.00000000000000 1.00000000000000
-0.01687074829932 0.03428571428571 2.03537414965986 nan nan nan
0.01034013605442 0.03428571428571 2.03537414965986 -0.00000000000000 0.00000000000000 1.00000000000000
0.03742372881356 0.03416949152542 2.02847457627119 -0.85330275713652 -0.24380078775329 -0.46090734486888
0.05769696969697 0.03054545454545 1.81333333333333 0.00000000000000 0.00000000000000 -1.00000000000000
0.08095808383234 0.03017964071856 1.79161676646707 0.00000000000000 0.00000000000000 -1.00000000000000
0.11602649006623 0.03337748344371 1.98145695364238 -0.95974404354855 -0.27421258387102 0.06081800489867
0.16682170542636 0.03906976744186 2.31937984496124 0.00000000000000 -0.00000000000000 1.00000000000000
0.19782945736434 0.03906976744186 2.31937984496124 0.00000000000000 0.00000000000000 1.00000000000000
0.22795366795367 0.03891891891892 2.31042471042471 -0.00000000000000 0.00000000000000 -1.00000000000000
0.25884169884170 0.03891891891892 2.31042471042471 -0.00000000000000 0.00000000000000 -1.00000000000000
0.28972972972973 0.03891891891892 2.31042471042471 -0.00000000000000 0.00000000000000 -1.00000000000000
0.32061776061776 0.03891891891892 2.31042471042471 0.00000000000000 0.00000000000000 1.00000000000000
0.35015384615385 0.03876923076923 2.30153846153846 -0.00000000000000 0.00000000000000 1.00000000000000
-0.38866141732283 0.04031496062992 2.35590551181102 0.00000000000000 0.00000000000000 -1.00000000000000
-0.35576470588235 0.04015686274510 2.34666666666667 0.00000000000000 -0.00000000000000 1.00000000000000
-0.32439215686275 0.04015686274510 2.34666666666667 0.00000000000000 -0.00000000000000 1.00000000000000
-0.29301960784314 0.04015686274510 2.34666666666667 -0.00000000000000 0.00000000000000 1.00000000000000
-0.26062500000000 0.04000000000000 2.33750000000000 0.00000000000000 0.00000000000000 -1.00000000000000
-0.22937500000000 0.04000000000000 2.33750000000000 -0.00000000000000 0.00000000000000 1.00000000000000
-0.19812500000000 0.04000000000000 2.33750000000000 -0.00000000000000 0.00000000000000 1.00000000000000
-0.13226006191950 0.03170278637771 1.85263157894737 -0.00000000000000 0.00000000000000 -1.00000000000000
-0.10716049382716 0.03160493827160 1.84691358024691 -0.00000000000000 0.00000000000000 -1.00000000000000
-0.08402515723270 0.03220125786164 1.88176100628931 0.00000000000000 -0.00000000000000 1.00000000000000
-0.06303030303030 0.03447811447811 2.01481481481481 nan nan nan
-0.03658703071672 0.03494880546075 2.04232081911263 -0.00000000000000 0.00000000000000 1.00000000000000
-0.00925170068027 0.03482993197279 2.03537414965986 -0.00000000000000 0.00000000000000 -1.00000000000000
0.01795918367347 0.03482993197279 2.03537414965986 -0.00000000000000 0.00000000000000 -1.00000000000000
0.04086153846154 0.03150769230769 1.84123076923077 0.68101740075528 0.68101740075528 0.26912933644820
0.06429003021148 0.03093655589124 1.80785498489426 0.00000000000000 0.00000000000000 -1.00000000000000
0.08954128440367 0.03131498470948 1.82996941896024 0.96023906984083 0.27435401995452 -0.05167978798341
0.14449612403101 0.03968992248062 2.31937984496124 -0.00000000000000 0.00000000000000 -1.00000000000000
0.17550387596899 0.03968992248062 2.31937984496124 0.00000000000000 -0.00000000000000 1.00000000000000
0.20651162790698 0.03968992248062 2.31937984496124 -0.00000000000000 0.00000000000000 -1.00000000000000
0.23660231660232 0.03953667953668 2.31042471042471 -0.00000000000000 0.00000000000000 1.00000000000000
0.26749034749035 0.03953667953668 2.31042471042471 0.00000000000000 -0.00000000000000 -1.00000000000000
0.29837837837838 0.03953667953668 2.31042471042471 0.00000000000000 -0.00000000000000 -1.00000000000000
0.32800000000000 0.03938461538462 2.30153846153846 0.00000000000000 -0.00000000000000 1.00000000000000
0.35876923076923 0.03938461538462 2.30153846153846 0.00000000000000 -0.00000000000000 1.00000000000000
-0.37835294117647 0.04078431372549 2.34666666666667 0.00000000000000 -0.00000000000000 1.00000000000000
-0.34698039215686 0.04078431372549 2.34666666666667 -0.00000000000000 0.00000000000000 1.00000000000000
-0.31560784313725 0.04078431372549 2.34666666666667 -0.00000000000000 0.00000000000000 1.00000000000000
-0.28423529411765 0.04078431372549 2.34666666666667 0.00000000000000 -0.00000000000000 1.00000000000000
-0.25187500000000 0.04062500000000 2.33750000000000 0.00000000000000 -0.00000000000000 1.00000000000000
-0.22062500000000 0.04062500000000 2.33750000000000 0.00000000000000 -0.00000000000000 1.00000000000000
-0.18937500000000 0.04062500000000 2.33750000000000 -0.00000000000000 0.00000000000000 -1.00000000000000
-0.12493827160494 0.03209876543210 1.84691358024691 -0.00000000000000 0.00000000000000 1.00000000000000
-0.10055727554180 0.03219814241486 1.85263157894737 -0.00000000000000 0.00000000000000 -1.00000000000000
-0.07746835443038 0.03291139240506 1.89367088607595 0.00000000000000 0.00000000000000 -1.00000000000000
-0.05567567567568 0.03513513513514 2.02162162162162 0.00000000000000 0.00000000000000 -1.00000000000000
-0.02894197952218 0.03549488054608 2.04232081911263 -0.00000000000000 0.00000000000000 1.00000000000000
-0.00163265306122 0.03537414965986 2.03537414965986 0.00000000000000 -0.00000000000000 -1.00000000000000
0.02557823129252 0.03537414965986 2.03537414965986 0.00000000000000 -0.00000000000000 -1.00000000000000
0.04746177370031 0.03180428134557 1.82996941896024 0.00000000000000 0.00000000000000 -1.00000000000000
0.07063063063063 0.03123123123123 1.79699699699700 0.00000000000000 0.00000000000000 -1.00000000000000
0.09974683544304 0.03291139240506 1.89367088607595 -0.00000000000000 0.00000000000000 1.00000000000000
0.15317829457364 0.04031007751938 2.31937984496124 nan nan nan
0.18418604651163 0.04031007751938 2.31937984496124 nan nan nan
0.21436293436293 0.04015444015444 2.31042471042471 0.00000000000000 -0.00000000000000 1.00000000000000
0.24525096525097 0.04015444015444 2.31042471042471 0.00000000000000 -0.00000000000000 1.00000000000000
0.27613899613900 0.04015444015444 2.31042471042471 0.00000000000000 -0.00000000000000 1.00000000000000
0.30702702702703 0.04015444015444 2.31042471042471 0.00000000000000 -0.00000000000000 1.00000000000000
0.33661538461538 0.04000000000000 2.30153846153846 -0.00000000000000 0.00000000000000 1.00000000000000
0.36738461538462 0.04000000000000 2.30153846153846 -0.00000000000000 0.00000000000000 1.00000000000000
-0.36956862745098 0.04141176470588 2.34666666666667 -0.00000000000000 0.00000000000000 1.00000000000000
-0.33819607843137 0.04141176470588 2.34666666666667 0.00000000000000 -0.00000000000000 1.00000000000000
-0.30682352941176 0.04141176470588 2.34666666666667 -0.00000000000000 0.00000000000000 1.00000000000000
-0.27545098039216 0.04141176470588 2.34666666666667 -0.00000000000000 0.00000000000000 -1.00000000000000
-0.24312500000000 0.04125000000000 2.33750000000000 0.00000000000000 -0.00000000000000 1.00000000000000
-0.21187500000000 0.04125000000000 2.33750000000000 -0.00000000000000 0.00000000000000 1.00000000000000
-0.14271604938272 0.03259259259259 1.84691358024691 0.90226192327972 -0.32809524482899 -0.27978014961786
-0.11766153846154 0.03249230769231 1.84123076923077 0.00000000000000 -0.00000000000000 1.00000000000000
-0.09420560747664 0.03289719626168 1.86417445482866 -0.55419484545405 0.83129226818107 -0.04267596670876
-0.07463087248322 0.03543624161074 2.00805369127517 0.00000000000000 0.00000000000000 -1.00000000000000
-0.04827118644068 0.03579661016949 2.02847457627119 0.00000000000000 -0.00000000000000 1.00000000000000
-0.02122448979592 0.03591836734694 2.03537414965986 0.00000000000000 0.00000000000000 1.00000000000000
0.00598639455782 0.03591836734694 2.03537414965986 -0.00000000000000 0.00000000000000 -1.00000000000000
0.03319727891156 0.03591836734694 2.03537414965986 -0.00000000000000 0.00000000000000 -1.00000000000000
0.05398176291793 0.03209726443769 1.81884498480243 0.00000000000000 0.00000000000000 -1.00000000000000
0.07735735735736 0.03171171171171 1.79699699699700 0.00000000000000 -0.00000000000000 -1.00000000000000
0.10751592356688 0.03363057324841 1.90573248407643 0.00000000000000 0.00000000000000 1.00000000000000
0.16186046511628 0.04093023255814 2.31937984496124 -0.00000000000000 0.00000000000000 1.00000000000000
0.19286821705426 0.04093023255814 2.31937984496124 0.00000000000000 -0.00000000000000 -1.00000000000000
0.22301158301158 0.04077220077220 2.31042471042471 -0.00000000000000 0.00000000000000 1.00000000000000
0.25389961389961 0.04077220077220 2.31042471042471 0.00000000000000 -0.00000000000000 1.00000000000000
0.28478764478764 0.04077220077220 2.31042471042471 -0.00000000000000 0.00000000000000 -1.00000000000000
0.31567567567568 0.04077220077220 2.31042471042471 0.00000000000000 0.00000000000000 1.00000000000000
0.34523076923077 0.04061538461538 2.30153846153846 nan nan nan
0.37600000000000 0.04061538461538 2.30153846153846 nan nan nan
-0.36078431372549 0.04203921568627 2.34666666666667 -0.00000000000000 0.00000000000000 -1.00000000000000
-0.32941176470588 0.04203921568627 2.34666666666667 0.00000000000000 -0.00000000000000 1.00000000000000
-0.29803921568627 0.04203921568627 2.34666666666667 -0.00000000000000 0.00000000000000 -1.00000000000000
-0.26562500000000 0.04187500000000 2.33750000000000 0.00000000000000 -0.00000000000000 1.00000000000000
-0.23437500000000 0.04187500000000 2.33750000000000 -0.00000000000000 0.00000000000000 -1.00000000000000
-0.20312500000000 0.04187500000000 2.33750000000000 -0.00000000000000 0.00000000000000 -1.00000000000000
-0.13622291021672 0.03318885448916 1.85263157894737 0.00000000000000 -0.00000000000000 -1.00000000000000
-0.11111111111111 0.03308641975309 1.84691358024691 0.00000000000000 -0.00000000000000 1.00000000000000
-0.08750000000000 0.03350000000000 1.87000000000000 -0.00000000000000 0.00000000000000 -1.00000000000000
-0.06711409395973 0.03597315436242 2.00805369127517 0.00000000000000 0.00000000000000 1.00000000000000
-0.04095563139932 0.03658703071672 2.04232081911263 0.00000000000000 0.00000000000000 -1.00000000000000
-0.01360544217687 0.03646258503401 2.03537414965986 0.00000000000000 -0.00000000000000 -1.00000000000000
0.01360544217687 0.03646258503401 2.03537414965986 0.00000000000000 -0.00000000000000 -1.00000000000000
0.03785488958991 0.03381703470032 1.88769716088328 -0.70432919368684 -0.57389786152261 -0.41780573411602
0.06060606060606 0.03248484848485 1.81333333333333 -0.00000000000000 0.00000000000000 -1.00000000000000
0.08383233532934 0.03209580838323 1.79161676646707 0.00000000000000 0.00000000000000 1.00000000000000
0.13953488372093 0.04155038759690 2.31937984496124 0.00000000000000 -0.00000000000000 1.00000000000000
0.17054263565891 0.04155038759690 2.31937984496124 -0.00000000000000 0.00000000000000 1.00000000000000
0.20077220077220 0.04138996138996 2.31042471042471 0.00000000000000 0.00000000000000 -1.00000000000000
0.23166023166023 0.04138996138996 2.31042471042471 -0.00000000000000 0.00000000000000 1.00000000000000
0.26254826254826 0.04138996138996 2.31042471042471 -0.00000000000000 0.00000000000000 1.00000000000000
0.29343629343629 0.04138996138996 2.31042471042471 0.00000000000000 -0.00000000000000 -1.00000000000000
0.32307692307692 0.04123076923077 2.30153846153846 0.00000000000000 0.00000000000000 -1.00000000000000
0.35384615384615 0.04123076923077 2.30153846153846 0.00000000000000 -0.00000000000000 1.00000000000000
-0.38337254901961 0.04266666666667 2.34666666666667 0.00000000000000 0.00000000000000 -1.00000000000000
-0.35200000000000 0.04266666666667 2.34666666666667 0.00000000000000 -0.00000000000000 1.00000000000000
-0.32062745098039 0.04266666666667 2.34666666666667 -0.00000000000000 0.00000000000000 1.00000000000000
-0.28925490196078 0.04266666666667 2.34666666666667 0.00000000000000 -0.00000000000000 1.00000000000000
-0.25687500000000 0.04250000000000 2.33750000000000 -0.00000000000000 0.00000000000000 1.00000000000000
-0.22562500000000 0.04250000000000 2.33750000000000 -0.00000000000000 0.00000000000000 -1.00000000000000
-0.19437500000000 0.04250000000000 2.33750000000000 -0.00000000000000 0.00000000000000 -1.00000000000000
-0.12888888888889 0.03358024691358 1.84691358024691 0.00000000000000 0.00000000000000 -1.00000000000000
-0.10452012383901 0.03368421052632 1.85263157894737 0.00000000000000 0.00000000000000 -1.00000000000000
-0.08100628930818 0.03421383647799 1.88176100628931 -0.00000000000000 0.00000000000000 1.00000000000000
-0.06000000000000 0.03675675675676 2.02162162162162 0.00000000000000 -0.00000000000000 1.00000000000000
-0.03331058020478 0.03713310580205 2.04232081911263 0.00000000000000 -0.00000000000000 1.00000000000000
-0.00598639455782 0.03700680272109 2.03537414965986 0.00000000000000 -0.00000000000000 1.00000000000000
0.02122448979592 0.03700680272109 2.03537414965986 nan nan nan
0.04354740061162 0.03327217125382 1.82996941896024 0.00000000000000 -0.00000000000000 1.00000000000000
0.06698795180723 0.03277108433735 1.80240963855422 0.00000000000000 -0.00000000000000 1.00000000000000
0.09509433962264 0.03421383647799 1.88176100628931 0.96014646042235 0.27432756012067 -0.05350854414653
0.14821705426357 0.04217054263566 2.31937984496124 0.00000000000000 -0.00000000000000 1.00000000000000
0.17922480620155 0.04217054263566 2.31937984496124 -0.00000000000000 0.00000000000000 1.00000000000000
0.20942084942085 0.04200772200772 2.31042471042471 0.00000000000000 -0.00000000000000 1.00000000000000
0.24030888030888 0.04200772200772 2.31042471042471 0.00000000000000 -0.00000000000000 1.00000000000000
0.27119691119691 0.04200772200772 2.31042471042471 -0.00000000000000 0.00000000000000 -1.00000000000000
0.30208494208494 0.04200772200772 2.31042471042471 -0.00000000000000 0.00000000000000 -1.00000000000000
0.33169230769231 0.04184615384615 2.30153846153846 -0.00000000000000 0.00000000000000 1.00000000000000
0.36246153846154 0.04184615384615 2.30153846153846 -0.00000000000000 0.00000000000000 1.00000000000000
-0.37458823529412 0.04329411764706 2.34666666666667 -0.00000000000000 0.00000000000000 1.00000000000000
-0.34321568627451 0.04329411764706 2.34666666666667 -0.00000000000000 0.00000000000000 -1.00000000000000
-0.31184313725490 0.04329411764706 2.34666666666667 0.00000000000000 -0.00000000000000 1.00000000000000
-0.28047058823529 0.04329411764706 2.34666666666667 -0.00000000000000 0.00000000000000 1.00000000000000
-0.24812500000000 0.04312500000000 2.33750000000000 -0.00000000000000 0.00000000000000 1.00000000000000
-0.21687500000000 0.04312500000000 2.33750000000000 -0.00000000000000 0.00000000000000 -1.00000000000000
-0.17600000000000 0.04088888888889 2.21629629629630 0.08535966012458 0.83225668621464 -0.54777964244251
-0.12197530864198 0.03407407407407 1.84691358024691 0.00000000000000 -0.00000000000000 1.00000000000000
-0.09788819875776 0.03428571428571 1.85838509316770 0.00000000000000 0.00000000000000 -1.00000000000000
-0.07514376996805 0.03527156549521 1.91182108626198 0.89656310587377 -0.32602294759046 -0.29980599532100
-0.05243243243243 0.03729729729730 2.02162162162162 0.00000000000000 0.00000000000000 1.00000000000000
-0.02566552901024 0.03767918088737 2.04232081911263 -0.00000000000000 0.00000000000000 1.00000000000000
0.00163265306122 0.03755102040816 2.03537414965986 -0.00000000000000 0.00000000000000 -1.00000000000000
0.02884353741497 0.03755102040816 2.03537414965986 -0.00000000000000 0.00000000000000 -1.00000000000000
0.05024390243902 0.03365853658537 1.82439024390244 -0.83506945978137 -0.23859127422325 -0.49571483859673
0.07351351351351 0.03315315315315 1.79699699699700 0.00000000000000 -0.00000000000000 -1.00000000000000
0.10311111111111 0.03504761904762 1.89968253968254 0.95995164191363 0.27427189768961 -0.05716442359600
0.15689922480620 0.04279069767442 2.31937984496124 0.00000000000000 -0.00000000000000 1.00000000000000
0.18790697674419 0.04279069767442 2.31937984496124 0.00000000000000 -0.00000000000000 1.00000000000000
0.21806949806950 0.04262548262548 2.31042471042471 -0.00000000000000 0.00000000000000 1.00000000000000
0.24895752895753 0.04262548262548 2.31042471042471 -0.00000000000000 0.00000000000000 1.00000000000000
0.27984555984556 0.04262548262548 2.31042471042471 0.00000000000000 -0.00000000000000 -1.00000000000000
0.31073359073359 0.04262548262548 2.31042471042471 0.00000000000000 -0.00000000000000 -1.00000000000000
0.34030769230769 0.04246153846154 2.30153846153846 0.00000000000000 -0.00000000000000 1.00000000000000
0.37107692307692 0.04246153846154 2.30153846153846 0.00000000000000 -0.00000000000000 1.00000000000000
-0.36580392156863 0.04392156862745 2.34666666666667 0.00000000000000 -0.00000000000000 1.00000000000000
-0.33443137254902 0.04392156862745 2.34666666666667 -0.00000000000000 0.00000000000000 1.00000000000000
-0.30305882352941 0.04392156862745 2.34666666666667 0.00000000000000 -0.00000000000000 -1.00000000000000
-0.27168627450980 0.04392156862745 2.34666666666667 0.00000000000000 0.00000000000000 1.00000000000000
-0.23937500000000 0.04375000000000 2.33750000000000 0.00000000000000 -0.00000000000000 1.00000000000000
-0.20812500000000 0.04375000000000 2.33750000000000 0.00000000000000 -0.00000000000000 1.00000000000000
-0.14018575851393 0.03467492260062 1.85263157894737 0.00000000000000 0.00000000000000 -1.00000000000000
-0.11470769230769 0.03446153846154 1.84123076923077 0.00000000000000 0.00000000000000 1.00000000000000
-0.09121495327103 0.03489096573209 1.86417445482866 0.00000000000000 -0.00000000000000 -1.00000000000000
-0.07140939597315 0.03758389261745 2.00805369127517 0.00000000000000 -0.00000000000000 1.00000000000000
-0.04501694915254 0.03796610169492 2.02847457627119 -0.00000000000000 0.00000000000000 -1.00000000000000
-0.01802047781570 0.03822525597270 2.04232081911263 0.00000000000000 -0.00000000000000 1.00000000000000
0.00925170068027 0.03809523809524 2.03537414965986 0.00000000000000 -0.00000000000000 1.00000000000000
0.03646258503401 0.03809523809524 2.03537414965986 -0.00000000000000 0.00000000000000 -1.00000000000000
0.05689969604863 0.03404255319149 1.81884498480243 -0.00000000000000 0.00000000000000 -1.00000000000000
0.08024024024024 0.03363363363363 1.79699699699700 nan nan nan
0.11383606557377 0.03672131147541 1.96196721311475 -0.95974404354855 -0.27421258387102 0.06081800489866
0.16558139534884 0.04341085271318 2.31937984496124 0.00000000000000 -0.00000000000000 1.00000000000000
0.19658914728682 0.04341085271318 2.31937984496124 0.00000000000000 -0.00000000000000 1.00000000000000
0.22671814671815 0.04324324324324 2.31042471042471 0.00000000000000 -0.00000000000000 1.00000000000000
0.25760617760618 0.04324324324324 2.31042471042471 -0.00000000000000 0.00000000000000 1.00000000000000
0.28849420849421 0.04324324324324 2.31042471042471 0.00000000000000 -0.00000000000000 -1.00000000000000
0.31815384615385 0.04307692307692 2.30153846153846 0.00000000000000 -0.00000000000000 1.00000000000000
0.34892307692308 0.04307692307692 2.30153846153846 -0.00000000000000 0.00000000000000 1.00000000000000
0.37969230769231 0.04307692307692 2.30153846153846 -0.00000000000000 0.00000000000000 -1.00000000000000
-0.35701960784314 0.04454901960784 2.34666666666667 0.00000000000000 -0.00000000000000 1.00000000000000
-0.32564705882353 0.04454901960784 2.34666666666667 -0.00000000000000 0.00000000000000 1.00000000000000
-0.29427450980392 0.04454901960784 2.34666666666667 0.00000000000000 -0.00000000000000 -1.00000000000000
-0.26187500000000 0.04437500000000 2.33750000000000 0.00000000000000 -0.00000000000000 1.00000000000000
-0.23062500000000 0.04437500000000 2.33750000000000 0.00000000000000 -0.00000000000000 -1.00000000000000
-0.19937500000000 0.04437500000000 2.33750000000000 0.00000000000000 -0.00000000000000 -1.00000000000000
-0.13325077399381 0.03517027863777 1.85263157894737 -0.00000000000000 0.00000000000000 1.00000000000000
-0.10814814814815 0.03506172839506 1.84691358024691 -0.00000000000000 0.00000000000000 -1.00000000000000
-0.08450000000000 0.03550000000000 1.87000000000000 0.00000000000000 -0.00000000000000 1.00000000000000
-0.06410774410774 0.03824915824916 2.01481481481481 0.00000000000000 0.00000000000000 1.00000000000000
-0.03767918088737 0.03877133105802 2.04232081911263 -0.00000000000000 0.00000000000000 -1.00000000000000
-0.01034013605442 0.03863945578231 2.03537414965986 -0.00000000000000 0.00000000000000 -1.00000000000000
0.01687074829932 0.03863945578231 2.03537414965986 0.00000000000000 0.00000000000000 1.00000000000000
0.03975460122699 0.03484662576687 1.83558282208589 -0.83440897917979 -0.23840256547994 -0.49691636342218
0.06332326283988 0.03432024169184 1.80785498489426 0.00000000000000 0.00000000000000 1.00000000000000
0.08883435582822 0.03484662576687 1.83558282208589 -0.96023906984083 -0.27435401995452 0.05167978798341
0.14325581395349 0.04403100775194 2.31937984496124 0.00000000000000 -0.00000000000000 -1.00000000000000
0.17426356589147 0.04403100775194 2.31937984496124 0.00000000000000 -0.00000000000000 -1.00000000000000
0.20527131782946 0.04403100775194 2.31937984496124 -0.00000000000000 -0.00000000000000 -1.00000000000000
0.23536679536680 0.04386100386100 2.31042471042471 0.00000000000000 -0.00000000000000 1.00000000000000
0.26625482625483 0.04386100386100 2.31042471042471 0.00000000000000 -0.00000000000000 1.00000000000000
0.29714285714286 0.04386100386100 2.31042471042471 nan nan nan
0.32676923076923 0.04369230769231 2.30153846153846 -0.00000000000000 0.00000000000000 -1.00000000000000
0.35753846153846 0.04369230769231 2.30153846153846 -0.00000000000000 0.00000000000000 -1.00000000000000
-0.37960784313725 0.04517647058824 2.34666666666667 -0.00000000000000 0.00000000000000 1.00000000000000
-0.34823529411765 0.04517647058824 2.34666666666667 -0.00000000000000 0.00000000000000 1.00000000000000
-0.31686274509804 0.04517647058824 2.34666666666667 0.00000000000000 -0.00000000000000 1.00000000000000
-0.28549019607843 0.04517647058824 2.34666666666667 -0.00000000000000 0.00000000000000 1.00000000000000
-0.25312500000000 0.04500000000000 2.33750000000000 0.00000000000000 -0.00000000000000 1.00000000000000
-0.22187500000000 0.04500000000000 2.33750000000000 0.00000000000000 -0.00000000000000 1.00000000000000
-0.19062500000000 0.04500000000000 2.33750000000000 0.00000000000000 0.00000000000000 1.00000000000000
-0.12592592592593 0.03555555555556 1.84691358024691 0.00000000000000 -0.00000000000000 1.00000000000000
-0.10154798761610 0.03566563467492 1.85263157894737 -0.00000000000000 0.00000000000000 -1.00000000000000
-0.07798742138365 0.03622641509434 1.88176100628931 -0.00000000000000 0.00000000000000 -1.00000000000000
-0.05675675675676 0.03891891891892 2.02162162162162 -0.00000000000000 0.00000000000000 -1.00000000000000
-0.03003412969283 0.03931740614334 2.04232081911263 nan nan nan
-0.00272108843537 0.03918367346939 2.03537414965986 0.00000000000000 -0.00000000000000 -1.00000000000000
0.02448979591837 0.03918367346939 2.03537414965986 0.00000000000000 -0.00000000000000 -1.00000000000000
0.04648318042813 0.03522935779817 1.82996941896024 0.00000000000000 0.00000000000000 1.00000000000000
0.06987951807229 0.03469879518072 1.80240963855422 -0.00000000000000 0.00000000000000 -1.00000000000000
0.09842271293375 0.03634069400631 1.88769716088328 0.96005065015164 0.27430018575761 -0.05533676207330
0.15193798449612 0.04465116279070 2.31937984496124 -0.00000000000000 0.00000000000000 1.00000000000000
0.18294573643411 0.04465116279070 2.31937984496124 0.00000000000000 0.00000000000000 1.00000000000000
0.21312741312741 0.04447876447876 2.31042471042471 -0.00000000000000 0.00000000000000 1.00000000000000
0.24401544401544 0.04447876447876 2.31042471042471 0.00000000000000 -0.00000000000000 -1.00000000000000
0.27490347490347 0.04447876447876 2.31042471042471 0.00000000000000 -0.00000000000000 -1.00000000000000
0.30579150579151 0.04447876447876 2.31042471042471 0.00000000000000 -0.00000000000000 -1.00000000000000
0.33538461538462 0.04430769230769 2.30153846153846 0.00000000000000 -0.00000000000000 1.00000000000000
0.36615384615385 0.04430769230769 2.30153846153846 0.00000000000000 -0.00000000000000 1.00000000000000
-0.37082352941176 0.04580392156863 2.34666666666667 0.00000000000000 -0.00000000000000 -1.00000000000000
-0.33945098039216 0.04580392156863 2.34666666666667 0.00000000000000 -0.00000000000000 -1.00000000000000
-0.30807843137255 0.04580392156863 2.34666666666667 -0.00000000000000 0.00000000000000 1.00000000000000
-0.27670588235294 0.04580392156863 2.34666666666667 0.00000000000000 -0.00000000000000 -1.00000000000000
-0.24437500000000 0.04562500000000 2.33750000000000 0.00000000000000 -0.00000000000000 1.00000000000000
-0.21312500000000 0.04562500000000 2.33750000000000 0.00000000000000 -0.00000000000000 1.00000000000000
-0.14414860681115 0.03616099071207 1.85263157894737 0.31451083770159 0.83869556720424 -0.44460395693269
-0.11901234567901 0.03604938271605 1.84691358024691 0.00000000000000 -0.00000000000000 -1.00000000000000
-0.09490683229814 0.03627329192547 1.85838509316770 -0.00000000000000 0.00000000000000 -1.00000000000000
-0.07545150501672 0.03906354515050 2.00133779264214 -0.90030403615705 0.32738328587529 0.28683240160210
-0.04935593220339 0.03959322033898 2.02847457627119 0.00000000000000 0.00000000000000 -1.00000000000000
-0.02238907849829 0.03986348122867 2.04232081911263 0.00000000000000 -0.00000000000000 1.00000000000000
0.00489795918367 0.03972789115646 2.03537414965986 0.00000000000000 -0.00000000000000 1.00000000000000
0.03210884353741 0.03972789115646 2.03537414965986 -0.00000000000000 0.00000000000000 -1.00000000000000
0.05300911854103 0.03550151975684 1.81884498480243 0.00000000000000 0.00000000000000 -1.00000000000000
0.07639639639640 0.03507507507508 1.79699699699700 nan nan nan
0.10649681528662 0.03719745222930 1.90573248407643 -0.00000000000000 -0.00000000000000 -1.00000000000000
0.16062015503876 0.04527131782946 2.31937984496124 -0.00000000000000 0.00000000000000 1.00000000000000
0.19162790697674 0.04527131782946 2.31937984496124 -0.00000000000000 0.00000000000000 1.00000000000000
0.22177606177606 0.04509652509653 2.31042471042471 0.00000000000000 -0.00000000000000 1.00000000000000
0.25266409266409 0.04509652509653 2.31042471042471 0.00000000000000 -0.00000000000000 1.00000000000000
0.28355212355212 0.04509652509653 2.31042471042471 -0.00000000000000 0.00000000000000 -1.00000000000000
0.31444015444015 0.04509652509653 2.31042471042471 0.00000000000000 0.00000000000000 1.00000000000000
0.34400000000000 0.04492307692308 2.30153846153846 -0.00000000000000 0.00000000000000 1.00000000000000
0.37476923076923 0.04492307692308 2.30153846153846 -0.00000000000000 0.00000000000000 1.00000000000000
-0.36203921568627 0.04643137254902 2.34666666666667 -0.00000000000000 0.00000000000000 1.00000000000000
-0.33066666666667 0.04643137254902 2.34666666666667 nan nan nan
-0.29929411764706 0.04643137254902 2.34666666666667 nan nan nan
-0.26687500000000 0.04625000000000 2.33750000000000 0.00000000000000 0.00000000000000 -1.00000000000000
-0.23562500000000 0.04625000000000 2.33750000000000 -0.00000000000000 0.00000000000000 1.00000000000000
-0.20437500000000 0.04625000000000 2.33750000000000 -0.00000000000000 0.00000000000000 1.00000000000000
-0.13721362229102 0.03665634674923 1.85263157894737 -0.00000000000000 0.00000000000000 1.00000000000000
-0.11209876543210 0.03654320987654 1.84691358024691 0.00000000000000 0.00000000000000 -1.00000000000000
-0.08822429906542 0.03688473520249 1.86417445482866 -0.00000000000000 0.00000000000000 -1.00000000000000
-0.06818791946309 0.03973154362416 2.00805369127517 0.00000000000000 0.00000000000000 1.00000000000000
-0.04190476190476 0.04027210884354 2.03537414965986 0.00000000000000 0.00000000000000 1.00000000000000
-0.01474402730375 0.04040955631399 2.04232081911263 -0.00000000000000 0.00000000000000 1.00000000000000
0.01251700680272 0.04027210884354 2.03537414965986 0.00000000000000 0.00000000000000 1.00000000000000
0.03593846153846 0.03643076923077 1.84123076923077 0.31615575726975 0.84308201938599 0.43503821180815
0.05963636363636 0.03587878787879 1.81333333333333 nan nan nan
0.08312312312312 0.03555555555556 1.79699699699700 -0.00000000000000 0.00000000000000 -1.00000000000000
0.13829457364341 0.04589147286822 2.31937984496124 0.00000000000000 -0.00000000000000 1.00000000000000
0.16930232558140 0.04589147286822 2.31937984496124 -0.00000000000000 0.00000000000000 1.00000000000000
0.20031007751938 0.04589147286822 2.31937984496124 -0.00000000000000 0.00000000000000 -1.00000000000000
0.23042471042471 0.04571428571429 2.31042471042471 nan nan nan
0.26131274131274 0.04571428571429 2.31042471042471 0.00000000000000 -0.00000000000000 1.00000000000000
0.29220077220077 0.04571428571429 2.31042471042471 nan nan nan
0.32184615384615 0.04553846153846 2.30153846153846 0.00000000000000 -0.00000000000000 1.00000000000000
0.35261538461538 0.04553846153846 2.30153846153846 0.00000000000000 -0.00000000000000 1.00000000000000
-0.38462745098039 0.04705882352941 2.34666666666667 0.00000000000000 0.00000000000000 -1.00000000000000
-0.35325490196078 0.04705882352941 2.34666666666667 -0.00000000000000 0.00000000000000 1.00000000000000
-0.32188235294118 0.04705882352941 2.34666666666667 0.00000000000000 -0.00000000000000 1.00000000000000
-0.29050980392157 0.04705882352941 2.34666666666667 0.00000000000000 -0.00000000000000 1.00000000000000
-0.25812500000000 0.04687500000000 2.33750000000000 -0.00000000000000 0.00000000000000 1.00000000000000
-0.22687500000000 0.04687500000000 2.33750000000000 nan nan nan
-0.19562500000000 0.04687500000000 2.33750000000000 nan nan nan
-0.13027863777090 0.03715170278638 1.85263157894737 -0.00000000000000 0.00000000000000 -1.00000000000000
-0.10551083591331 0.03715170278638 1.85263157894737 0.00000000000000 0.00000000000000 -1.00000000000000
-0.08150000000000 0.03750000000000 1.87000000000000 0.48554397698595 -0.72831596547891 -0.48353169579790
-0.06108108108108 0.04054054054054 2.02162162162162 0.00000000000000 -0.00000000000000 1.00000000000000
-0.03440273037543 0.04095563139932 2.04232081911263 0.00000000000000 0.00000000000000 1.00000000000000
-0.00707482993197 0.04081632653061 2.03537414965986 0.00000000000000 0.00000000000000 1.00000000000000
0.02020477815700 0.04095563139932 2.04232081911263 0.00000000000000 -0.00000000000000 1.00000000000000
0.04256880733945 0.03669724770642 1.82996941896024 0.00000000000000 0.00000000000000 -1.00000000000000
0.06602409638554 0.03614457831325 1.80240963855422 0.00000000000000 0.00000000000000 -1.00000000000000
0.09379310344828 0.03761755485893 1.87586206896552 -0.32733891272085 -0.84810536477676 -0.41661316164472
0.14697674418605 0.04651162790698 2.31937984496124 0.00000000000000 -0.00000000000000 1.00000000000000
0.17798449612403 0.04651162790698 2.31937984496124 0.00000000000000 -0.00000000000000 1.00000000000000
0.20818532818533 0.04633204633205 2.31042471042471 0.00000000000000 -0.00000000000000 1.00000000000000
0.23907335907336 0.04633204633205 2.31042471042471 -0.00000000000000 0.00000000000000 1.00000000000000
0.26996138996139 0.04633204633205 2.31042471042471 -0.00000000000000 0.00000000000000 -1.00000000000000
0.30084942084942 0.04633204633205 2.31042471042471 -0.00000000000000 0.00000000000000 1.00000000000000
0.33046153846154 0.04615384615385 2.30153846153846 -0.00000000000000 0.00000000000000 1.00000000000000
0.36123076923077 0.04615384615385 2.30153846153846 -0.00000000000000 0.00000000000000 1.00000000000000
-0.37584313725490 0.04768627450980 2.34666666666667 -0.00000000000000 0.00000000000000 1.00000000000000
-0.34447058823529 0.04768627450980 2.34666666666667 0.00000000000000 -0.00000000000000 1.00000000000000
-0.31309803921569 0.04768627450980 2.34666666666667 -0.00000000000000 0.00000000000000 1.00000000000000
-0.28172549019608 0.04768627450980 2.34666666666667 -0.00000000000000 0.00000000000000 1.00000000000000
-0.24937500000000 0.04750000000000 2.33750000000000 nan nan nan
-0.21812500000000 0.04750000000000 2.33750000000000 -0.00000000000000 0.00000000000000 1.00000000000000
-0.18614785992218 0.04731517509728 2.32840466926070 0.87977642767718 -0.31991870097352 0.35163256685210
-0.12296296296296 0.03753086419753 1.84691358024691 -0.00000000000000 0.00000000000000 1.00000000000000
-0.09857585139319 0.03764705882353 1.85263157894737 -0.00000000000000 0.00000000000000 -1.00000000000000
-0.07520504731861 0.03835962145110 1.88769716088328 -0.89568094273266 0.32570216099370 0.30277673482215
-0.05351351351351 0.04108108108108 2.02162162162162 0.00000000000000 0.00000000000000 1.00000000000000
-0.02675767918089 0.04150170648464 2.04232081911263 -0.00000000000000 0.00000000000000 -1.00000000000000
0.00054421768707 0.04136054421769 2.03537414965986 0.00000000000000 0.00000000000000 1.00000000000000
0.02775510204082 0.04136054421769 2.03537414965986 -0.00000000000000 0.00000000000000 -1.00000000000000
0.04926829268293 0.03707317073171 1.82439024390244 -0.00000000000000 -0.00000000000000 1.00000000000000
0.07255255255255 0.03651651651652 1.79699699699700 0.00000000000000 0.00000000000000 -1.00000000000000
0.10177215189873 0.03848101265823 1.89367088607595 0.00000000000000 0.00000000000000 1.00000000000000
0.15565891472868 0.04713178294574 2.31937984496124 0.00000000000000 -0.00000000000000 1.00000000000000
0.18594594594595 0.04694980694981 2.31042471042471 0.00000000000000 0.00000000000000 1.00000000000000
0.21683397683398 0.04694980694981 2.31042471042471 0.00000000000000 -0.00000000000000 1.00000000000000
0.24772200772201 0.04694980694981 2.31042471042471 -0.00000000000000 0.00000000000000 1.00000000000000
0.27861003861004 0.04694980694981 2.31042471042471 -0.00000000000000 0.00000000000000 -1.00000000000000
0.30949806949807 0.04694980694981 2.31042471042471 -0.00000000000000 0.00000000000000 1.00000000000000
0.33907692307692 0.04676923076923 2.30153846153846 -0.00000000000000 0.00000000000000 -1.00000000000000
0.36984615384615 0.04676923076923 2.30153846153846 -0.00000000000000 0.00000000000000 1.00000000000000
-0.36705882352941 0.04831372549020 2.34666666666667 -0.00000000000000 0.00000000000000 -1.00000000000000
-0.33568627450980 0.04831372549020 2.34666666666667 -0.00000000000000 0.00000000000000 -1.00000000000000
-0.30431372549020 0.04831372549020 2.34666666666667 -0.00000000000000 0.00000000000000 -1.00000000000000
-0.27294117647059 0.04831372549020 2.34666666666667 0.00000000000000 0.00000000000000 1.00000000000000
-0.24062500000000 0.04812500000000 2.33750000000000 -0.00000000000000 0.00000000000000 1.00000000000000
-0.20937500000000 0.04812500000000 2.33750000000000 -0.00000000000000 0.00000000000000 1.00000000000000
-0.14074074074074 0.03802469135802 1.84691358024691 0.00000000000000 0.00000000000000 1.00000000000000
-0.11604938271605 0.03802469135802 1.84691358024691 -0.00000000000000 0.00000000000000 1.00000000000000
-0.09192546583851 0.03826086956522 1.85838509316770 -0.00000000000000 0.00000000000000 1.00000000000000
-0.07248322147651 0.04134228187919 2.00805369127517 0.00000000000000 0.00000000000000 1.00000000000000
-0.04610169491525 0.04176271186441 2.02847457627119 0.00000000000000 0.00000000000000 1.00000000000000
-0.01911262798635 0.04204778156997 2.04232081911263 -0.00000000000000 0.00000000000000 1.00000000000000
0.00816326530612 0.04190476190476 2.03537414965986 0.00000000000000 0.00000000000000 1.00000000000000
0.03513513513514 0.04162162162162 2.02162162162162 0.87103062696644 0.44956419456333 0.19798404444063
0.05592705167173 0.03744680851064 1.81884498480243 -0.00000000000000 0.00000000000000 -1.00000000000000
0.07927927927928 0.03699699699700 1.79699699699700 0.00000000000000 0.00000000000000 1.00000000000000
