ply
            format ascii 1.0
            element vertex 3295
            property float x
            property float y
            property float z
            property float nx
            property float ny
            property float nz
end_header
-0.12173913043478 -0.05942028985507 2.16811594202899 0.00000000000000 -0.00000000000000 -1.00000000000000
-0.09142857142857 -0.05857142857143 2.13714285714286 0.00000000000000 -0.00000000000000 -1.00000000000000
-0.06175438596491 -0.05754385964912 2.09964912280702 -0.00000000000000 0.00000000000000 1.00000000000000
-0.03344947735192 -0.05714285714286 2.08501742160279 0.00000000000000 -0.00000000000000 -1.00000000000000
-0.00528052805281 -0.05412541254125 1.97491749174917 0.00000000000000 -0.00000000000000 -1.00000000000000
0.02253521126761 -0.05774647887324 2.10704225352113 -0.00000000000000 0.00000000000000 1.00000000000000
0.05413533834586 -0.06165413533835 2.24962406015038 0.89253418462243 -0.24990957169428 0.37540369638025
0.08597864768683 -0.05836298932384 2.12953736654804 0.48110656689949 -0.37419399647738 -0.79278958386603
0.11244755244755 -0.05734265734266 2.09230769230769 0.06352367880836 -0.95285518212540 -0.29670143937537
-0.11263537906137 -0.05862815884477 2.16028880866426 -0.00000000000000 -0.00000000000000 -1.00000000000000
-0.08226950354610 -0.05758865248227 2.12198581560284 nan nan nan
-0.05314685314685 -0.05678321678322 2.09230769230769 -0.00000000000000 -0.00000000000000 -1.00000000000000
-0.02517482517483 -0.05678321678322 2.09230769230769 0.00000000000000 -0.00000000000000 1.00000000000000
0.00283687943262 -0.05758865248227 2.12198581560284 -0.86981174174949 0.46836016863434 0.15513312461088
0.03076923076923 -0.05678321678322 2.09230769230769 -0.09441170741085 0.94411707410850 0.31579958815770
0.05894736842105 -0.05698245614035 2.09964912280702 0.00000000000000 0.00000000000000 1.00000000000000
0.09319298245614 -0.05698245614035 2.09964912280702 0.00000000000000 0.00000000000000 1.00000000000000
0.12083916083916 -0.05678321678322 2.09230769230769 0.48003548672942 0.84006210177649 -0.25270852110546
-0.10322580645161 -0.05763440860215 2.14480286738351 0.00000000000000 0.00000000000000 -1.00000000000000
-0.07050847457627 -0.05450847457627 2.02847457627119 0.00000000000000 -0.00000000000000 1.00000000000000
-0.04444444444444 -0.05583333333333 2.07777777777778 0.00000000000000 -0.00000000000000 1.00000000000000
-0.01589403973510 -0.05324503311258 1.98145695364238 -0.85534007921762 -0.34213603168705 -0.38901964565485
0.01126760563380 -0.05661971830986 2.10704225352113 0.38287192460665 0.89336782408219 0.23516594192751
0.03929824561404 -0.05642105263158 2.09964912280702 0.00000000000000 -0.00000000000000 1.00000000000000
0.06736842105263 -0.05642105263158 2.09964912280702 0.00000000000000 0.00000000000000 1.00000000000000
0.09543859649123 -0.05642105263158 2.09964912280702 -0.00000000000000 0.00000000000000 -1.00000000000000
0.12407017543860 -0.05642105263158 2.09964912280702 0.00000000000000 0.00000000000000 -1.00000000000000
-0.10000000000000 -0.05685714285714 2.13714285714286 0.00000000000000 -0.00000000000000 1.00000000000000
-0.06779661016949 -0.05396610169492 2.02847457627119 0.00000000000000 -0.00000000000000 -1.00000000000000
-0.04166666666667 -0.05527777777778 2.07777777777778 0.00000000000000 -0.00000000000000 -1.00000000000000
-0.01320132013201 -0.05254125412541 1.97491749174917 -0.00000000000000 0.00000000000000 1.00000000000000
0.01403508771930 -0.05585964912281 2.09964912280702 0.00000000000000 0.00000000000000 -1.00000000000000
0.04210526315789 -0.05585964912281 2.09964912280702 -0.00000000000000 0.00000000000000 -1.00000000000000
0.06920415224913 -0.05508650519031 2.07058823529412 -0.70267546514071 -0.32563009360179 0.63262329456808
0.09859154929577 -0.05605633802817 2.10704225352113 0.00000000000000 0.00000000000000 1.00000000000000
-0.12579710144928 -0.05710144927536 2.16811594202899 0.00000000000000 0.00000000000000 1.00000000000000
-0.09542857142857 -0.05628571428571 2.13714285714286 0.00000000000000 -0.00000000000000 -1.00000000000000
-0.06389078498294 -0.05378839590444 2.04232081911263 0.00000000000000 -0.00000000000000 1.00000000000000
-0.03722222222222 -0.05472222222222 2.07777777777778 0.00000000000000 -0.00000000000000 1.00000000000000
-0.00897689768977 -0.05201320132013 1.97491749174917 0.00000000000000 -0.00000000000000 1.00000000000000
0.01852631578947 -0.05529824561404 2.09964912280702 0.00000000000000 0.00000000000000 1.00000000000000
0.04811594202899 -0.05710144927536 2.16811594202899 0.62797149483765 -0.09661099920578 -0.77221636637915
0.10230769230769 -0.07576923076923 2.87692307692308 -0.52161490025788 -0.47625708284415 -0.70788211368118
0.13876777251185 -0.07469194312796 2.83601895734597 0.69900243880776 0.61162713395679 -0.37055072466343
-0.11956678700361 -0.05631768953069 2.16028880866426 0.00000000000000 0.00000000000000 -1.00000000000000
-0.08939501779359 -0.05551601423488 2.12953736654804 0.00000000000000 0.00000000000000 1.00000000000000
-0.06007017543860 -0.05473684210526 2.09964912280702 0.00000000000000 0.00000000000000 1.00000000000000
-0.03177700348432 -0.05435540069686 2.08501742160279 -0.00000000000000 0.00000000000000 -1.00000000000000
-0.00369636963696 -0.05148514851485 1.97491749174917 -0.00000000000000 0.00000000000000 -1.00000000000000
0.02422535211268 -0.05492957746479 2.10704225352113 0.00000000000000 0.00000000000000 1.00000000000000
0.05221052631579 -0.05473684210526 2.09964912280702 0.00000000000000 -0.00000000000000 1.00000000000000
0.10641860465116 -0.07255813953488 2.78325581395349 0.67323971397708 0.16157753135450 0.72155456403896
0.11867158671587 -0.05756457564576 2.20811808118081 -0.78629678257990 0.45430480771283 0.41874158068372
-0.11223021582734 -0.05553956834532 2.15251798561151 0.00000000000000 0.00000000000000 -1.00000000000000
-0.08226950354610 -0.05475177304965 2.12198581560284 -0.00000000000000 -0.00000000000000 -1.00000000000000
-0.05296167247387 -0.05379790940767 2.08501742160279 0.00000000000000 -0.00000000000000 1.00000000000000
-0.02517482517483 -0.05398601398601 2.09230769230769 -0.00000000000000 -0.00000000000000 -1.00000000000000
0.00280701754386 -0.05417543859649 2.09964912280702 0.00000000000000 0.00000000000000 1.00000000000000
0.03577235772358 -0.06276422764228 2.43252032520325 0.00000000000000 -0.00000000000000 1.00000000000000
0.05915492957746 -0.05436619718310 2.10704225352113 -0.42480392451353 -0.84960784902705 0.31258299472225
0.08701754385965 -0.05417543859649 2.09964912280702 0.00000000000000 0.00000000000000 -1.00000000000000
0.12014035087719 -0.05417543859649 2.09964912280702 0.00000000000000 -0.00000000000000 1.00000000000000
-0.10437275985663 -0.05476702508961 2.14480286738351 -0.00000000000000 -0.00000000000000 -1.00000000000000
-0.07159322033898 -0.05179661016949 2.02847457627119 -0.00000000000000 0.00000000000000 1.00000000000000
-0.04555555555556 -0.05305555555556 2.07777777777778 -0.00000000000000 0.00000000000000 1.00000000000000
-0.01695364238411 -0.05059602649007 1.98145695364238 -0.00000000000000 -0.00000000000000 -1.00000000000000
0.01010526315789 -0.05361403508772 2.09964912280702 0.00000000000000 0.00000000000000 -1.00000000000000
0.03817543859649 -0.05361403508772 2.09964912280702 -0.00000000000000 0.00000000000000 1.00000000000000
0.06624561403509 -0.05361403508772 2.09964912280702 -0.00000000000000 0.00000000000000 1.00000000000000
0.09431578947368 -0.05361403508772 2.09964912280702 0.00000000000000 -0.00000000000000 -1.00000000000000
-0.12521739130435 -0.05478260869565 2.16811594202899 -0.00000000000000 0.00000000000000 -1.00000000000000
-0.09451957295374 -0.05380782918149 2.12953736654804 0.00000000000000 0.00000000000000 -1.00000000000000
-0.06334470989761 -0.05160409556314 2.04232081911263 0.96228603702262 -0.24057150925565 -0.12700760562173
-0.03666666666667 -0.05250000000000 2.07777777777778 0.00000000000000 0.00000000000000 1.00000000000000
-0.00844884488449 -0.04990099009901 1.97491749174917 0.00000000000000 0.00000000000000 1.00000000000000
0.01908771929825 -0.05305263157895 2.09964912280702 0.00000000000000 0.00000000000000 1.00000000000000
0.04765957446809 -0.05361702127660 2.12198581560284 0.78798250279095 -0.61501073388562 0.02907529020993
0.08610441767068 -0.06072289156627 2.40321285140562 -0.53895879633264 -0.04826496683576 -0.84094822006591
0.14646766169154 -0.07522388059701 2.97711442786070 0.73225178443537 -0.35566515244004 -0.58078362884212
-0.11568345323741 -0.05381294964029 2.15251798561151 0.00000000000000 0.00000000000000 -1.00000000000000
-0.08567375886525 -0.05304964539007 2.12198581560284 0.00000000000000 0.00000000000000 -1.00000000000000
-0.05650349650350 -0.05230769230769 2.09230769230769 0.00000000000000 0.00000000000000 -1.00000000000000
-0.02853146853147 -0.05230769230769 2.09230769230769 0.00000000000000 0.00000000000000 -1.00000000000000
-0.00052980132450 -0.04953642384106 1.98145695364238 0.00000000000000 0.00000000000000 -1.00000000000000
0.03003831417625 -0.05731800766284 2.29272030651341 0.43390961965237 0.89636592480819 0.09083265280659
0.05577464788732 -0.05267605633803 2.10704225352113 -0.00000000000000 -0.00000000000000 -1.00000000000000
0.08364912280702 -0.05249122807018 2.09964912280702 -0.00000000000000 0.00000000000000 1.00000000000000
0.11677192982456 -0.05249122807018 2.09964912280702 -0.00000000000000 0.00000000000000 1.00000000000000
-0.10781362007168 -0.05304659498208 2.14480286738351 -0.00000000000000 -0.00000000000000 1.00000000000000
-0.07510204081633 -0.05034013605442 2.03537414965986 0.85222879348332 0.38737672431060 0.35163241747648
-0.04905923344948 -0.05156794425087 2.08501742160279 -0.00000000000000 0.00000000000000 -1.00000000000000
-0.02068027210884 -0.05034013605442 2.03537414965986 0.76689363585055 0.38344681792528 0.51462869052833
0.00683274021352 -0.05266903914591 2.12953736654804 -0.86265846739423 0.46450840551997 -0.20013073185877
0.04032520325203 -0.06016260162602 2.43252032520325 -0.00000000000000 0.00000000000000 -1.00000000000000
0.06354609929078 -0.05248226950355 2.12198581560284 -0.68702648337423 -0.66794241439161 0.28609009454917
0.09094736842105 -0.05192982456140 2.09964912280702 0.00000000000000 -0.00000000000000 -1.00000000000000
0.12294736842105 -0.05192982456140 2.09964912280702 0.00000000000000 0.00000000000000 1.00000000000000
-0.10114285714286 -0.05228571428571 2.13714285714286 -0.00000000000000 -0.00000000000000 -1.00000000000000
-0.06888135593220 -0.04962711864407 2.02847457627119 0.00000000000000 0.00000000000000 1.00000000000000
-0.04277777777778 -0.05083333333333 2.07777777777778 0.00000000000000 0.00000000000000 1.00000000000000
-0.01425742574257 -0.04831683168317 1.97491749174917 -0.00000000000000 -0.00000000000000 -1.00000000000000
0.01291228070175 -0.05136842105263 2.09964912280702 0.00000000000000 0.00000000000000 1.00000000000000
0.04098245614035 -0.05136842105263 2.09964912280702 0.00000000000000 0.00000000000000 1.00000000000000
0.06905263157895 -0.05136842105263 2.09964912280702 -0.00000000000000 0.00000000000000 -1.00000000000000
0.09712280701754 -0.05136842105263 2.09964912280702 -0.00000000000000 0.00000000000000 -1.00000000000000
-0.12579710144928 -0.05246376811594 2.16811594202899 0.00000000000000 0.00000000000000 -1.00000000000000
-0.09508896797153 -0.05153024911032 2.12953736654804 -0.00000000000000 0.00000000000000 1.00000000000000
-0.06367346938776 -0.04925170068027 2.03537414965986 0.96228603702262 -0.24057150925565 -0.12700760562173
-0.03722222222222 -0.05027777777778 2.07777777777778 -0.00000000000000 0.00000000000000 1.00000000000000
-0.00897689768977 -0.04778877887789 1.97491749174917 -0.00000000000000 0.00000000000000 1.00000000000000
0.01852631578947 -0.05080701754386 2.09964912280702 0.00000000000000 0.00000000000000 -1.00000000000000
0.04659649122807 -0.05080701754386 2.09964912280702 0.00000000000000 0.00000000000000 1.00000000000000
0.07654676258993 -0.05208633093525 2.15251798561151 0.81742771845449 0.54495181230300 0.18665328116581
0.12302521008403 -0.06084033613445 2.51428571428571 0.45414456233899 -0.55894715364799 -0.69378007749339
-0.12129963898917 -0.05169675090253 2.16028880866426 -0.00000000000000 -0.00000000000000 -1.00000000000000
-0.09110320284698 -0.05096085409253 2.12953736654804 0.00000000000000 0.00000000000000 1.00000000000000
-0.06132404181185 -0.04989547038328 2.08501742160279 0.00000000000000 0.00000000000000 -1.00000000000000
-0.03333333333333 -0.04972222222222 2.07777777777778 0.00000000000000 0.00000000000000 1.00000000000000
-0.00528052805281 -0.04726072607261 1.97491749174917 0.00000000000000 0.00000000000000 1.00000000000000
0.02237762237762 -0.05006993006993 2.09230769230769 0.85602471512245 0.21400617878061 0.47055609925199
0.05070422535211 -0.05042253521127 2.10704225352113 0.38929087808067 0.87590447568150 0.28503326424175
0.07943262411348 -0.05078014184397 2.12198581560284 -0.04012516752850 -0.72225301551274 -0.69046401246811
0.14775119617225 -0.06851674641148 2.86315789473684 0.69900243880776 0.61162713395679 -0.37055072466343
-0.11683453237410 -0.05093525179856 2.15251798561151 0.00000000000000 0.00000000000000 -1.00000000000000
-0.08680851063830 -0.05021276595745 2.12198581560284 -0.00000000000000 0.00000000000000 1.00000000000000
-0.05762237762238 -0.04951048951049 2.09230769230769 0.87723204072443 0.35089281628977 0.32762505734863
-0.02954703832753 -0.04933797909408 2.08501742160279 -0.00000000000000 0.00000000000000 -1.00000000000000
-0.00158940397351 -0.04688741721854 1.98145695364238 0.00000000000000 0.00000000000000 -1.00000000000000
0.03327433628319 -0.06265486725664 2.64778761061947 0.15116009828291 0.75580049141453 0.63711556397930
0.05445614035088 -0.04968421052632 2.09964912280702 -0.00000000000000 0.00000000000000 -1.00000000000000
0.08281690140845 -0.04985915492958 2.10704225352113 -0.22726547931306 0.90906191725224 -0.34922318438827
0.12264591439689 -0.05509727626459 2.32840466926070 0.35301105774022 0.46827997455335 -0.80999818428528
-0.11453237410072 -0.05035971223022 2.15251798561151 0.00000000000000 0.00000000000000 1.00000000000000
-0.08424028268551 -0.04946996466431 2.11448763250883 0.00000000000000 0.00000000000000 -1.00000000000000
-0.05519163763066 -0.04878048780488 2.08501742160279 0.00000000000000 0.00000000000000 -1.00000000000000
-0.02741258741259 -0.04895104895105 2.09230769230769 0.00000000000000 0.00000000000000 1.00000000000000
0.00052980132450 -0.04635761589404 1.98145695364238 0.00000000000000 0.00000000000000 1.00000000000000
0.03414225941423 -0.05857740585774 2.50376569037657 0.60734966682079 0.70452561351212 -0.36711039500136
0.05876363636364 -0.05090909090909 2.17600000000000 0.62797149483765 -0.09661099920578 -0.77221636637915
0.08507042253521 -0.04929577464789 2.10704225352113 0.24240772071502 -0.96963088286007 -0.03247226419204
0.11323943661972 -0.04929577464789 2.10704225352113 0.00000000000000 -0.00000000000000 1.00000000000000
-0.11182795698925 -0.04960573476703 2.14480286738351 nan nan nan
-0.08226950354610 -0.04907801418440 2.12198581560284 0.00000000000000 0.00000000000000 1.00000000000000
-0.05296167247387 -0.04822299651568 2.08501742160279 0.00000000000000 0.00000000000000 1.00000000000000
-0.02526315789474 -0.04856140350877 2.09964912280702 -0.91793927151644 0.30597975717215 0.25251511243633
0.00272108843537 -0.04707482993197 2.03537414965986 -0.00000000000000 0.00000000000000 -1.00000000000000
0.03211678832117 -0.05051094890511 2.18394160583942 0.57875603818726 0.77167471758300 0.26374149939853
0.07400881057269 -0.06096916299559 2.63612334801762 -0.15116009828291 -0.75580049141453 -0.63711556397930
0.08701754385965 -0.04856140350877 2.09964912280702 0.00000000000000 0.00000000000000 1.00000000000000
0.11549295774648 -0.04873239436620 2.10704225352113 -0.00000000000000 0.00000000000000 -1.00000000000000
-0.10953405017921 -0.04903225806452 2.14480286738351 nan nan nan
-0.07806228373702 -0.04733564013841 2.07058823529412 0.96391755843543 0.24990455218696 0.09170962510070
-0.05055555555556 -0.04750000000000 2.07777777777778 0.00000000000000 -0.00000000000000 1.00000000000000
-0.02208754208754 -0.04606060606061 2.01481481481481 -0.91323858885207 -0.40588381726759 -0.03540630892608
0.00508833922261 -0.04833922261484 2.11448763250883 0.59109877476486 0.59109877476486 0.54882098806711
0.03562264150943 -0.05162264150943 2.25811320754717 0.55580548180476 0.77812767452666 0.29257065562273
0.08633663366337 -0.06772277227723 2.96237623762376 0.27444088283225 0.34603415661458 -0.89718591400350
0.09318681318681 -0.05010989010989 2.19194139194139 0.09839894560712 -0.28113984459176 -0.95460883888969
0.11733333333333 -0.04800000000000 2.09964912280702 0.00000000000000 -0.00000000000000 -1.00000000000000
-0.10724014336918 -0.04845878136201 2.14480286738351 0.00000000000000 0.00000000000000 1.00000000000000
-0.07430508474576 -0.04583050847458 2.02847457627119 0.00000000000000 0.00000000000000 1.00000000000000
-0.04833333333333 -0.04694444444444 2.07777777777778 0.00000000000000 0.00000000000000 1.00000000000000
-0.01960264900662 -0.04476821192053 1.98145695364238 0.00000000000000 0.00000000000000 -1.00000000000000
0.00742857142857 -0.04828571428571 2.13714285714286 -0.98605259039030 -0.09860525903903 0.13407942375481
0.04344827586207 -0.05827586206897 2.57931034482759 -0.53059955620746 -0.55270787104943 -0.64263373723487
0.07022900763359 -0.05160305343511 2.28396946564885 -0.00000000000000 0.00000000000000 1.00000000000000
0.09395017793594 -0.04811387900356 2.12953736654804 0.48110656689949 -0.37419399647738 -0.79278958386603
0.12070175438596 -0.04743859649123 2.09964912280702 0.00000000000000 0.00000000000000 1.00000000000000
-0.10342857142857 -0.04771428571429 2.13714285714286 -0.00000000000000 -0.00000000000000 -1.00000000000000
-0.07081081081081 -0.04513513513514 2.02162162162162 0.00000000000000 0.00000000000000 1.00000000000000
-0.04484429065744 -0.04622837370242 2.07058823529412 0.00000000000000 -0.00000000000000 1.00000000000000
-0.01636963696370 -0.04409240924092 1.97491749174917 0.00000000000000 0.00000000000000 -1.00000000000000
0.01070422535211 -0.04704225352113 2.10704225352113 0.00000000000000 0.00000000000000 -1.00000000000000
0.03985559566787 -0.04823104693141 2.16028880866426 0.81512080199924 0.49812937899953 -0.29571134561538
0.06905263157895 -0.04687719298246 2.09964912280702 0.00000000000000 0.00000000000000 -1.00000000000000
0.09712280701754 -0.04687719298246 2.09964912280702 0.00000000000000 0.00000000000000 -1.00000000000000
-0.12880866425993 -0.04765342960289 2.16028880866426 0.00000000000000 0.00000000000000 1.00000000000000
-0.09850533807829 -0.04697508896797 2.12953736654804 0.00000000000000 0.00000000000000 -1.00000000000000
-0.06648648648649 -0.04459459459459 2.02162162162162 -0.00000000000000 0.00000000000000 -1.00000000000000
-0.04041522491349 -0.04567474048443 2.07058823529412 0.12382802300545 -0.99062418404358 -0.05770915617607
-0.01214521452145 -0.04356435643564 1.97491749174917 0.00000000000000 -0.00000000000000 1.00000000000000
0.01515789473684 -0.04631578947368 2.09964912280702 0.00000000000000 0.00000000000000 -1.00000000000000
0.04322807017544 -0.04631578947368 2.09964912280702 nan nan nan
0.07129824561404 -0.04631578947368 2.09964912280702 0.00000000000000 -0.00000000000000 1.00000000000000
0.09936842105263 -0.04631578947368 2.09964912280702 nan nan nan
-0.12695652173913 -0.04724637681159 2.16811594202899 0.00000000000000 0.00000000000000 1.00000000000000
-0.09622775800712 -0.04640569395018 2.12953736654804 0.00000000000000 0.00000000000000 1.00000000000000
-0.06454237288136 -0.04420338983051 2.02847457627119 0.00000000000000 0.00000000000000 1.00000000000000
-0.03806896551724 -0.04496551724138 2.06344827586207 0.51957174605111 0.81646988665174 0.25183749700213
-0.01003300330033 -0.04303630363036 1.97491749174917 0.00000000000000 -0.00000000000000 -1.00000000000000
0.01740350877193 -0.04575438596491 2.09964912280702 -0.00000000000000 0.00000000000000 1.00000000000000
0.04547368421053 -0.04575438596491 2.09964912280702 nan nan nan
0.07354385964912 -0.04575438596491 2.09964912280702 nan nan nan
0.10161403508772 -0.04575438596491 2.09964912280702 -0.00000000000000 0.00000000000000 1.00000000000000
-0.12418772563177 -0.04649819494585 2.16028880866426 0.00000000000000 0.00000000000000 1.00000000000000
-0.09361702127660 -0.04567375886525 2.12198581560284 0.00000000000000 -0.00000000000000 1.00000000000000
-0.06237288135593 -0.04366101694915 2.02847457627119 -0.00000000000000 0.00000000000000 -1.00000000000000
-0.03344051446945 -0.04141479099678 1.92411575562701 0.99664791948158 -0.03163961649148 -0.07544441173021
-0.00792079207921 -0.04250825082508 1.97491749174917 -0.00000000000000 0.00000000000000 -1.00000000000000
0.01964912280702 -0.04519298245614 2.09964912280702 0.00000000000000 -0.00000000000000 1.00000000000000
0.04771929824561 -0.04519298245614 2.09964912280702 nan nan nan
0.07578947368421 -0.04519298245614 2.09964912280702 nan nan nan
0.10385964912281 -0.04519298245614 2.09964912280702 0.00000000000000 0.00000000000000 1.00000000000000
-0.12143884892086 -0.04575539568345 2.15251798561151 0.00000000000000 -0.00000000000000 1.00000000000000
-0.09134751773050 -0.04510638297872 2.12198581560284 -0.00000000000000 0.00000000000000 1.00000000000000
-0.06188153310105 -0.04432055749129 2.08501742160279 0.00000000000000 0.00000000000000 1.00000000000000
-0.03342465753425 -0.04356164383562 2.04931506849315 0.64186100492736 0.71317889436373 0.28176287013686
-0.00580858085809 -0.04198019801980 1.97491749174917 0.00000000000000 -0.00000000000000 -1.00000000000000
0.02189473684211 -0.04463157894737 2.09964912280702 -0.00000000000000 0.00000000000000 -1.00000000000000
0.04996491228070 -0.04463157894737 2.09964912280702 nan nan nan
0.07803508771930 -0.04463157894737 2.09964912280702 -0.00000000000000 0.00000000000000 -1.00000000000000
0.10573426573427 -0.04447552447552 2.09230769230769 0.24240464128988 -0.96961856515951 -0.03286073613208
-0.11913669064748 -0.04517985611511 2.15251798561151 -0.00000000000000 0.00000000000000 -1.00000000000000
-0.08907801418440 -0.04453900709220 2.12198581560284 0.00000000000000 0.00000000000000 1.00000000000000
-0.06092526690391 -0.04469750889680 2.12953736654804 0.28917774729739 0.20349545180187 -0.93539608271788
-0.03177700348432 -0.04376306620209 2.08501742160279 0.00000000000000 0.00000000000000 1.00000000000000
-0.00369636963696 -0.04145214521452 1.97491749174917 -0.00000000000000 0.00000000000000 -1.00000000000000
0.02414035087719 -0.04407017543860 2.09964912280702 0.00000000000000 0.00000000000000 -1.00000000000000
0.05184668989547 -0.04376306620209 2.08501742160279 0.24245119141729 -0.96980476566915 -0.02638439436012
0.08028070175439 -0.04407017543860 2.09964912280702 0.00000000000000 0.00000000000000 -1.00000000000000
0.10873239436620 -0.04422535211268 2.10704225352113 0.00000000000000 0.00000000000000 -1.00000000000000
-0.11641577060932 -0.04444444444444 2.14480286738351 0.00000000000000 0.00000000000000 -1.00000000000000
-0.08650176678445 -0.04381625441696 2.11448763250883 0.00000000000000 0.00000000000000 -1.00000000000000
-0.05722222222222 -0.04305555555556 2.07777777777778 0.00000000000000 0.00000000000000 -1.00000000000000
-0.02954703832753 -0.04320557491289 2.08501742160279 -0.00000000000000 0.00000000000000 -1.00000000000000
-0.00158940397351 -0.04105960264901 1.98145695364238 0.00000000000000 0.00000000000000 -1.00000000000000
0.02647887323944 -0.04366197183099 2.10704225352113 -0.24247065467011 0.96988261868042 0.02314492612760
0.05834586466165 -0.04661654135338 2.24962406015038 0.77840531237114 -0.21795348746392 0.58871168408203
0.08310954063604 -0.04381625441696 2.11448763250883 -0.19143794808647 0.76575179234589 -0.61398347253937
0.11211267605634 -0.04366197183099 2.10704225352113 0.00000000000000 0.00000000000000 1.00000000000000
-0.11297491039427 -0.04387096774194 2.14480286738351 0.00000000000000 0.00000000000000 1.00000000000000
-0.08310954063604 -0.04325088339223 2.11448763250883 -0.00000000000000 0.00000000000000 -1.00000000000000
-0.05388888888889 -0.04250000000000 2.07777777777778 -0.00000000000000 0.00000000000000 -1.00000000000000
-0.02593103448276 -0.04220689655172 2.06344827586207 0.22155712009901 -0.97485132843565 -0.02402769195512
0.00159468438538 -0.04066445182724 1.98803986710963 -0.88714265363988 0.19714281191997 0.41726804790335
0.03028571428571 -0.04371428571429 2.13714285714286 -0.64128467897405 0.52564317948693 0.55897514110381
0.07012765957447 -0.05208510638298 2.54638297872340 0.62014114468626 0.76325063961386 -0.18131029147913
0.11076923076923 -0.05538461538462 2.70769230769231 -0.93784264714570 -0.15126494308802 0.31236210747676
0.11703180212014 -0.04325088339223 2.11448763250883 -0.71963737157484 -0.47975824771656 0.50195027361361
-0.10800000000000 -0.04314285714286 2.13714285714286 0.00000000000000 0.00000000000000 -1.00000000000000
-0.07291803278689 -0.03960655737705 1.96196721311475 0.00000000000000 0.00000000000000 -1.00000000000000
-0.04927335640138 -0.04179930795848 2.07058823529412 0.00000000000000 0.00000000000000 -1.00000000000000
-0.02066225165563 -0.04000000000000 1.98145695364238 -0.00000000000000 -0.00000000000000 -1.00000000000000
0.00619718309859 -0.04253521126761 2.10704225352113 0.00000000000000 0.00000000000000 -1.00000000000000
0.03286195286195 -0.04067340067340 2.01481481481481 0.41622549845591 0.90421401388698 -0.09567314944915
0.07622317596567 -0.05184549356223 2.56824034334764 -0.76193704075111 0.61409851045612 0.20575462421783
0.13083743842365 -0.05950738916256 2.94778325123153 0.72082267943128 0.09402034949104 -0.68671306868232
0.13041509433962 -0.04558490566038 2.25811320754717 -0.36816776560211 -0.20453764755673 0.90698227496655
-0.10249110320285 -0.04241992882562 2.12953736654804 0.00000000000000 0.00000000000000 -1.00000000000000
-0.07027027027027 -0.04027027027027 2.02162162162162 -0.00000000000000 0.00000000000000 1.00000000000000
-0.04413793103448 -0.04110344827586 2.06344827586207 0.00000000000000 0.00000000000000 -1.00000000000000
-0.01584158415842 -0.03933993399340 1.97491749174917 0.00000000000000 0.00000000000000 -1.00000000000000
0.01122807017544 -0.04182456140351 2.09964912280702 0.00000000000000 0.00000000000000 1.00000000000000
0.03648208469055 -0.03882736156352 1.94918566775244 0.34024985831353 0.93237298836565 0.12210914987719
0.07164179104478 -0.04447761194030 2.23283582089552 -0.00000000000000 0.99198129355546 0.12638478245433
0.10049122807018 -0.04182456140351 2.09964912280702 0.00000000000000 -0.00000000000000 1.00000000000000
-0.12534296028881 -0.04245487364621 2.16028880866426 0.00000000000000 0.00000000000000 1.00000000000000
-0.09475177304965 -0.04170212765957 2.12198581560284 0.00000000000000 0.00000000000000 -1.00000000000000
-0.06345762711864 -0.03986440677966 2.02847457627119 0.00000000000000 0.00000000000000 -1.00000000000000
-0.03424920127796 -0.03757188498403 1.91182108626198 -0.96214770421835 0.23562800919633 0.13693515454230
-0.00894736842105 -0.03868421052632 1.96842105263158 0.00000000000000 0.00000000000000 -1.00000000000000
0.01872340425532 -0.04170212765957 2.12198581560284 0.29531256352237 -0.91546894691934 0.27332599044408
0.04270096463023 -0.03781350482315 1.92411575562701 -0.31020451881516 -0.94367479934297 -0.11511311650572
0.07466666666667 -0.04126315789474 2.09964912280702 0.00000000000000 -0.00000000000000 1.00000000000000
0.10891228070175 -0.04126315789474 2.09964912280702 0.00000000000000 -0.00000000000000 1.00000000000000
-0.11183391003460 -0.04013840830450 2.07058823529412 -0.20306905980141 0.78326637351973 -0.58758552148995
-0.08593639575972 -0.04098939929329 2.11448763250883 -0.00000000000000 0.00000000000000 -1.00000000000000
-0.05666666666667 -0.04027777777778 2.07777777777778 -0.00000000000000 0.00000000000000 -1.00000000000000
-0.02898954703833 -0.04041811846690 2.08501742160279 -0.00000000000000 0.00000000000000 -1.00000000000000
-0.00105610561056 -0.03828382838284 1.97491749174917 0.00000000000000 0.00000000000000 1.00000000000000
0.02568561872910 -0.03879598662207 2.00133779264214 -0.41622549845591 -0.90421401388698 0.09567314944915
0.05580071174377 -0.04128113879004 2.12953736654804 0.49601892445107 0.69442649423150 -0.52128405950667
0.09250000000000 -0.04531250000000 2.33750000000000 -0.35519552204532 -0.25956595841774 -0.89803210095722
0.15700934579439 -0.05420560747664 2.79626168224299 0.15294840054894 -0.90528918162753 -0.39630579657340
-0.10628571428571 -0.04085714285714 2.13714285714286 0.00000000000000 0.00000000000000 1.00000000000000
-0.07302013422819 -0.03838926174497 2.00805369127517 -0.98237303403369 0.08186441950281 0.16805189324407
-0.04761245674740 -0.03958477508651 2.07058823529412 -0.00000000000000 0.00000000000000 -1.00000000000000
-0.01900990099010 -0.03775577557756 1.97491749174917 0.00000000000000 0.00000000000000 -1.00000000000000
0.00788732394366 -0.04028169014085 2.10704225352113 0.00000000000000 0.00000000000000 1.00000000000000
0.03180124223602 -0.03552795031056 1.85838509316770 -0.36197822411683 -0.81445100426287 -0.45347693096830
0.06755555555556 -0.04237037037037 2.21629629629630 0.96812397983721 0.10959894111365 -0.22521996308260
0.09824561403509 -0.04014035087719 2.09964912280702 -0.00000000000000 0.00000000000000 1.00000000000000
-0.12765342960289 -0.04072202166065 2.16028880866426 0.00000000000000 0.00000000000000 -1.00000000000000
-0.09702127659574 -0.04000000000000 2.12198581560284 -0.00000000000000 0.00000000000000 1.00000000000000
-0.06540540540541 -0.03810810810811 2.02162162162162 0.00000000000000 -0.00000000000000 1.00000000000000
-0.03890410958904 -0.03863013698630 2.04931506849315 -0.00000000000000 -0.00000000000000 1.00000000000000
-0.01105263157895 -0.03710526315789 1.96842105263158 -0.00000000000000 0.00000000000000 1.00000000000000
0.02008658008658 -0.04883116883117 2.59047619047619 -0.17659067651775 0.53779887848586 -0.82437133578646
0.03925465838509 -0.03503105590062 1.85838509316770 0.06105209704497 -0.91578145567451 -0.39701003373855
0.07242105263158 -0.03957894736842 2.09964912280702 -0.00000000000000 0.00000000000000 1.00000000000000
0.10105263157895 -0.03957894736842 2.09964912280702 0.00000000000000 0.00000000000000 -1.00000000000000
-0.12316546762590 -0.04000000000000 2.15251798561151 0.00000000000000 0.00000000000000 -1.00000000000000
-0.09304964539007 -0.03943262411348 2.12198581560284 -0.00000000000000 0.00000000000000 -1.00000000000000
-0.06183050847458 -0.03769491525424 2.02847457627119 0.00000000000000 0.00000000000000 1.00000000000000
-0.03180124223602 -0.03453416149068 1.85838509316770 -0.88993325055687 -0.44496662527844 -0.10011749068765
-0.00739273927393 -0.03669966996700 1.97491749174917 0.00000000000000 0.00000000000000 -1.00000000000000
0.01979381443299 -0.03821305841924 2.05635738831615 -0.09922227485362 -0.99222274853615 0.07515954670061
0.04300000000000 -0.03475000000000 1.87000000000000 -0.11042414828925 0.99381733460320 0.01155910536237
0.07635087719298 -0.03901754385965 2.09964912280702 0.00000000000000 0.00000000000000 -1.00000000000000
0.10442105263158 -0.03901754385965 2.09964912280702 0.00000000000000 0.00000000000000 1.00000000000000
-0.11856115107914 -0.03942446043165 2.15251798561151 -0.00000000000000 0.00000000000000 -1.00000000000000
-0.08819787985866 -0.03872791519435 2.11448763250883 0.00000000000000 0.00000000000000 -1.00000000000000
-0.05888888888889 -0.03805555555556 2.07777777777778 -0.00000000000000 0.00000000000000 1.00000000000000
-0.03121951219512 -0.03818815331010 2.08501742160279 0.00000000000000 0.00000000000000 -1.00000000000000
-0.00316831683168 -0.03617161716172 1.97491749174917 -0.00000000000000 0.00000000000000 1.00000000000000
0.02206896551724 -0.03435736677116 1.87586206896552 -0.44133930244858 -0.88267860489716 -0.16154906552195
0.04714733542320 -0.03435736677116 1.87586206896552 0.11042414828925 -0.99381733460320 -0.01155910536237
0.08084210526316 -0.03845614035088 2.09964912280702 0.00000000000000 -0.00000000000000 1.00000000000000
0.10891228070175 -0.03845614035088 2.09964912280702 0.00000000000000 -0.00000000000000 -1.00000000000000
-0.11024734982332 -0.03816254416961 2.11448763250883 0.93421120090053 -0.32030098316589 -0.15702455952798
-0.08000000000000 -0.03724137931034 2.06344827586207 0.96391755843543 0.24990455218696 0.09170962510070
-0.05277777777778 -0.03750000000000 2.07777777777778 0.00000000000000 0.00000000000000 1.00000000000000
-0.02384105960265 -0.03576158940397 1.98145695364238 0.00000000000000 0.00000000000000 -1.00000000000000
0.00265780730897 -0.03588039867110 1.98803986710963 -0.00000000000000 0.00000000000000 -1.00000000000000
0.02732919254658 -0.03354037267081 1.85838509316770 0.00000000000000 0.00000000000000 1.00000000000000
0.06000000000000 -0.03857142857143 2.13714285714286 -0.49601892445107 -0.69442649423150 0.52128405950667
0.11481481481481 -0.05000000000000 2.77037037037037 0.67323971397708 0.16157753135450 0.72155456403896
0.15845410628019 -0.05217391304348 2.89082125603865 0.06209343020416 0.84861021279034 -0.52536188734377
-0.10419928825623 -0.03786476868327 2.12953736654804 0.00000000000000 0.00000000000000 1.00000000000000
-0.07164983164983 -0.03582491582492 2.01481481481481 -0.98237303403369 0.08186441950281 0.16805189324407
-0.04579310344828 -0.03668965517241 2.06344827586207 0.00000000000000 0.00000000000000 -1.00000000000000
-0.01742574257426 -0.03511551155116 1.97491749174917 0.00000000000000 0.00000000000000 1.00000000000000
0.01105691056911 -0.04325203252033 2.43252032520325 0.00000000000000 0.00000000000000 1.00000000000000
0.03318885448916 -0.03294117647059 1.85263157894737 0.22689255658284 -0.90757022633127 -0.35332145709581
0.06568421052632 -0.03733333333333 2.09964912280702 0.00000000000000 0.00000000000000 -1.00000000000000
0.11133333333333 -0.04433333333333 2.49333333333333 0.45414456233899 -0.55894715364799 -0.69378007749339
-0.12546762589928 -0.03769784172662 2.15251798561151 0.00000000000000 0.00000000000000 -1.00000000000000
-0.09531914893617 -0.03716312056738 2.12198581560284 0.00000000000000 -0.00000000000000 -1.00000000000000
-0.06378378378378 -0.03540540540541 2.02162162162162 0.00000000000000 -0.00000000000000 1.00000000000000
-0.03400000000000 -0.03275000000000 1.87000000000000 0.91784233395109 0.37979682784183 0.11541152268509
-0.00947368421053 -0.03447368421053 1.96842105263158 0.00000000000000 -0.00000000000000 1.00000000000000
0.01777777777778 -0.03638888888889 2.07777777777778 0.07376199920865 0.73761999208649 0.67117502541965
0.04049382716049 -0.03234567901235 1.84691358024691 -0.43304139114589 0.86608278229177 0.24975141195233
0.07358885017422 -0.03651567944251 2.08501742160279 -0.13878164339995 0.97147150379964 0.19230905532627
0.10217543859649 -0.03677192982456 2.09964912280702 0.00000000000000 -0.00000000000000 -1.00000000000000
-0.10562091503268 -0.03372549019608 1.95555555555556 0.92236634910986 0.18447326982197 -0.33942588403205
-0.08563380281690 -0.03633802816901 2.10704225352113 0.00000000000000 0.00000000000000 1.00000000000000
-0.05666666666667 -0.03583333333333 2.07777777777778 0.00000000000000 0.00000000000000 1.00000000000000
-0.02829931972789 -0.03510204081633 2.03537414965986 0.97906921869952 0.20256604524818 0.01976011911980
-0.00105610561056 -0.03405940594059 1.97491749174917 0.00000000000000 0.00000000000000 1.00000000000000
0.02385093167702 -0.03204968944099 1.85838509316770 0.39093268489138 0.91217626474656 0.12290686684085
0.04854489164087 -0.03195046439628 1.85263157894737 0.17800574464125 -0.89002872320627 -0.41971755591413
0.08308771929825 -0.03621052631579 2.09964912280702 0.00000000000000 0.00000000000000 1.00000000000000
0.11038327526132 -0.03595818815331 2.08501742160279 0.96145238621558 0.05341402145643 0.26973366744296
-0.10704626334520 -0.03615658362989 2.12953736654804 -0.00000000000000 -0.00000000000000 1.00000000000000
-0.07031847133758 -0.03235668789809 1.90573248407643 0.95960892540649 0.27417397868757 0.06308200766328
-0.04871972318339 -0.03515570934256 2.07058823529412 -0.00000000000000 -0.00000000000000 -1.00000000000000
-0.02006600660066 -0.03353135313531 1.97491749174917 -0.00000000000000 -0.00000000000000 1.00000000000000
0.00666666666667 -0.03527777777778 2.07777777777778 -0.09589050678202 -0.95890506782024 -0.26703198613229
0.03061728395062 -0.03135802469136 1.84691358024691 -0.89843381653762 -0.29947793884593 0.32113804110730
0.06136986301370 -0.03479452054795 2.04931506849315 0.88462530100632 -0.12841335014608 -0.44827233722786
0.09893129770992 -0.03877862595420 2.28396946564885 -0.06607908165172 -0.92510714312402 -0.37391219384900
0.16761904761905 -0.04838095238095 2.84952380952381 0.32746821512500 0.28653468823438 0.90036794729781
-0.08745341614907 -0.03105590062112 1.85838509316770 0.96643692729502 -0.25670980881274 0.00998697250862
-0.06810810810811 -0.03378378378378 2.02162162162162 0.00000000000000 0.00000000000000 -1.00000000000000
-0.04193103448276 -0.03448275862069 2.06344827586207 -0.00000000000000 0.00000000000000 -1.00000000000000
-0.01368421052632 -0.03289473684211 1.96842105263158 0.00000000000000 0.00000000000000 -1.00000000000000
0.01352112676056 -0.03521126760563 2.10704225352113 0.60834623184167 -0.67594025760186 0.41595628419002
0.03643076923077 -0.03076923076923 1.84123076923077 0.09399999975526 -0.93999999755262 -0.32796951786269
0.06961403508772 -0.03508771929825 2.09964912280702 0.00000000000000 0.00000000000000 1.00000000000000
0.09768421052632 -0.03508771929825 2.09964912280702 0.00000000000000 0.00000000000000 -1.00000000000000
-0.12431654676259 -0.03539568345324 2.15251798561151 -0.00000000000000 0.00000000000000 1.00000000000000
-0.09385159010601 -0.03477031802120 2.11448763250883 -0.53718395812135 -0.76740565445907 -0.35003136522506
-0.06270270270270 -0.03324324324324 2.02162162162162 -0.00000000000000 0.00000000000000 -1.00000000000000
-0.03259259259259 -0.03037037037037 1.84691358024691 0.00000000000000 0.00000000000000 -1.00000000000000
-0.00842105263158 -0.03236842105263 1.96842105263158 -0.00000000000000 0.00000000000000 -1.00000000000000
0.01700000000000 -0.03075000000000 1.87000000000000 0.44133930244858 0.88267860489716 0.16154906552195
0.04135384615385 -0.03027692307692 1.84123076923077 -0.09399999975526 0.93999999755262 0.32796951786269
0.08183206106870 -0.03755725190840 2.28396946564885 0.00000000000000 -0.00000000000000 -1.00000000000000
0.10329824561404 -0.03452631578947 2.09964912280702 -0.00000000000000 0.00000000000000 1.00000000000000
-0.11971223021583 -0.03482014388489 2.15251798561151 0.00000000000000 0.00000000000000 1.00000000000000
-0.08901408450704 -0.03408450704225 2.10704225352113 0.00000000000000 0.00000000000000 -1.00000000000000
-0.05877551020408 -0.03292517006803 2.03537414965986 0.70212795125200 0.40121597214403 -0.58825341798173
-0.03222222222222 -0.03361111111111 2.07777777777778 0.66759362470941 0.66759362470941 0.32960203957911
-0.00422442244224 -0.03194719471947 1.97491749174917 0.00000000000000 0.00000000000000 -1.00000000000000
0.02080495356037 -0.02996904024768 1.85263157894737 -0.25752193010537 -0.94424707705299 -0.20513389040255
0.04543209876543 -0.02987654320988 1.84691358024691 0.00000000000000 0.00000000000000 -1.00000000000000
0.07971929824561 -0.03396491228070 2.09964912280702 0.00000000000000 0.00000000000000 -1.00000000000000
0.10778947368421 -0.03396491228070 2.09964912280702 0.00000000000000 -0.00000000000000 1.00000000000000
-0.10614379084967 -0.03111111111111 1.95555555555556 -0.92236634910986 -0.18447326982197 0.33942588403205
-0.08619718309859 -0.03352112676056 2.10704225352113 0.00000000000000 0.00000000000000 1.00000000000000
-0.05438943894389 -0.03141914191419 1.97491749174917 -0.02513874120615 -0.86728657161228 -0.49717406045729
-0.02874576271186 -0.03227118644068 2.02847457627119 -0.97906921869952 -0.20256604524818 -0.01976011911980
-0.00158415841584 -0.03141914191419 1.97491749174917 0.00000000000000 -0.00000000000000 -1.00000000000000
0.02320987654321 -0.02938271604938 1.84691358024691 -0.54535085502653 -0.77907265003790 -0.30925434658992
0.04790123456790 -0.02938271604938 1.84691358024691 -0.00000000000000 0.00000000000000 1.00000000000000
0.08252631578947 -0.03340350877193 2.09964912280702 0.00000000000000 0.00000000000000 1.00000000000000
0.11059649122807 -0.03340350877193 2.09964912280702 0.00000000000000 0.00000000000000 1.00000000000000
-0.10386885245902 -0.03068852459016 1.96196721311475 -0.92236634910986 -0.18447326982197 0.33942588403205
-0.08193771626298 -0.03238754325260 2.07058823529412 -0.96391755843543 -0.24990455218696 -0.09170962510070
-0.05351535836177 -0.03194539249147 2.04232081911263 0.31447758810416 -0.94343276431248 -0.10506410329843
-0.02543046357616 -0.03099337748344 1.98145695364238 0.00000000000000 0.00000000000000 -1.00000000000000
0.00105960264901 -0.03099337748344 1.98145695364238 -0.00000000000003 -0.99788725684562 0.06496939760480
0.02560000000000 -0.02880000000000 1.84123076923077 0.24253484935999 -0.97013939743994 0.00252910671793
0.05037037037037 -0.02888888888889 1.84691358024691 -0.00000000000000 0.00000000000000 -1.00000000000000
0.08533333333333 -0.03284210526316 2.09964912280702 0.00000000000000 -0.00000000000000 1.00000000000000
0.11222222222222 -0.03250000000000 2.07777777777778 -0.75402463922148 0.64630683361841 0.11719351630986
-0.11046263345196 -0.03274021352313 2.12953736654804 0.00000000000000 0.00000000000000 1.00000000000000
-0.07554098360656 -0.03016393442623 1.96196721311475 -0.96345779691607 -0.26762716581002 0.01117021405961
-0.05204152249135 -0.03183391003460 2.07058823529412 0.67694095945542 0.67694095945542 0.28896690956433
-0.02331125827815 -0.03046357615894 1.98145695364238 0.00000000000000 0.00000000000000 1.00000000000000
0.00318936877076 -0.03056478405316 1.98803986710963 0.00000000000000 -0.00000000000000 -1.00000000000000
0.02756923076923 -0.02830769230769 1.84123076923077 0.24249392144477 -0.96997568577906 -0.01854365281637
0.05218461538462 -0.02830769230769 1.84123076923077 0.69892829474542 -0.69892829474542 0.15165248962190
0.08757894736842 -0.03228070175439 2.09964912280702 -0.00000000000000 0.00000000000000 1.00000000000000
0.12437735849057 -0.03471698113208 2.25811320754717 -0.00000000000000 -0.00000000000000 -1.00000000000000
-0.10818505338078 -0.03217081850534 2.12953736654804 0.00000000000000 -0.00000000000000 1.00000000000000
-0.07133757961783 -0.02878980891720 1.90573248407643 -0.00000000000000 0.00000000000000 1.00000000000000
-0.04965517241379 -0.03117241379310 2.06344827586207 0.00000000000000 0.00000000000000 -1.00000000000000
-0.02112211221122 -0.02983498349835 1.97491749174917 0.00000000000000 -0.00000000000000 1.00000000000000
0.00533333333333 -0.03013333333333 1.99466666666667 0.92268301644298 -0.26362371898371 -0.28135135677098
0.02944785276074 -0.02773006134969 1.83558282208589 0.24249392144477 -0.96997568577906 -0.01854365281637
0.05432098765432 -0.02790123456790 1.84691358024691 0.00000000000000 -0.00000000000000 1.00000000000000
0.08982456140351 -0.03171929824561 2.09964912280702 0.00000000000000 -0.00000000000000 1.00000000000000
0.14420600858369 -0.03879828326180 2.56824034334764 0.16652167187353 -0.93396937702979 0.31618307286607
-0.10590747330961 -0.03160142348754 2.12953736654804 -0.00000000000000 0.00000000000000 1.00000000000000
-0.06996784565916 -0.02855305466238 1.92411575562701 0.96397023580878 0.21421560795751 -0.15771194559117
-0.04744827586207 -0.03062068965517 2.06344827586207 0.00000000000000 0.00000000000000 1.00000000000000
-0.01900990099010 -0.02930693069307 1.97491749174917 -0.00000000000000 0.00000000000000 -1.00000000000000
0.00732026143791 -0.02901960784314 1.95555555555556 0.51509352896698 0.70240026677316 0.49123570885404
0.03141104294479 -0.02723926380368 1.83558282208589 0.24249392144477 -0.96997568577906 -0.01854365281636
0.05629629629630 -0.02740740740741 1.84691358024691 -0.00000000000000 0.00000000000000 -1.00000000000000
0.09207017543860 -0.03115789473684 2.09964912280702 -0.00000000000000 0.00000000000000 -1.00000000000000
0.13118773946360 -0.03402298850575 2.29272030651341 0.14833395461060 -0.98889303073736 -0.00936011050484
-0.10362989323843 -0.03103202846975 2.12953736654804 0.00000000000000 0.00000000000000 1.00000000000000
-0.07111111111111 -0.02936026936027 2.01481481481481 0.00000000000000 0.00000000000000 -1.00000000000000
-0.04493150684932 -0.02986301369863 2.04931506849315 0.53276222718272 0.36627403118812 -0.76289431991890
-0.01684210526316 -0.02868421052632 1.96842105263158 0.00000000000000 -0.00000000000000 1.00000000000000
0.01035971223022 -0.03136690647482 2.15251798561151 0.13581819621401 -0.67909098107005 0.72137982852759
0.03327217125382 -0.02666666666667 1.82996941896024 0.00000000000000 0.00000000000000 -1.00000000000000
0.05845201238390 -0.02699690402477 1.85263157894737 0.69119287172333 -0.69119287172332 -0.21096167461823
0.09712280701754 -0.03059649122807 2.09964912280702 0.00000000000000 0.00000000000000 1.00000000000000
-0.12788530465950 -0.03068100358423 2.14480286738351 0.08912487387810 -0.89124873878104 0.44467116218327
-0.08287425149701 -0.02562874251497 1.79161676646707 0.14389308981201 0.14922246350875 0.97827779034829
-0.06626262626263 -0.02882154882155 2.01481481481481 0.00000000000000 -0.00000000000000 1.00000000000000
-0.03842105263158 -0.02815789473684 1.96842105263158 0.30280357466349 -0.90841072399047 0.28827062235010
-0.01210526315789 -0.02815789473684 1.96842105263158 0.00000000000000 -0.00000000000000 1.00000000000000
0.01337461300310 -0.02650154798762 1.85263157894737 -0.68065012126078 -0.56720843438398 -0.46367014610751
0.03767584097859 -0.02617737003058 1.82996941896024 0.00000000000000 -0.00000000000000 1.00000000000000
0.09912195121951 -0.04175609756098 2.91902439024390 0.16740385340974 -0.74570807427973 -0.64489954087252
0.12200000000000 -0.03566666666667 2.49333333333333 0.58136246136070 -0.71552302936702 -0.38735575762608
-0.12215053763441 -0.03010752688172 2.14480286738351 0.08826406158229 -0.88264061582288 -0.46168712212147
-0.09183098591549 -0.02957746478873 2.10704225352113 -0.00000000000000 0.00000000000000 1.00000000000000
-0.06108108108108 -0.02837837837838 2.02162162162162 0.00000000000000 0.00000000000000 -1.00000000000000
-0.03251612903226 -0.02709677419355 1.93032258064516 -0.75795369395218 0.30002333718940 -0.57921688076745
-0.00684210526316 -0.02763157894737 1.96842105263158 0.00000000000000 -0.00000000000000 1.00000000000000
0.01827160493827 -0.02592592592593 1.84691358024691 0.00000000000000 0.00000000000000 -1.00000000000000
0.04269938650307 -0.02576687116564 1.83558282208589 -0.08476749643665 0.84767496436649 0.52369993921532
0.08113475177305 -0.02978723404255 2.12198581560284 0.98921157723881 0.07065796980277 0.12832734221533
0.10797202797203 -0.02937062937063 2.09230769230769 0.80468339583822 -0.51207125189705 -0.30044577787490
-0.10477419354839 -0.02658064516129 1.93032258064516 0.00000000000000 0.00000000000000 -1.00000000000000
-0.08619718309859 -0.02901408450704 2.10704225352113 0.00000000000000 -0.00000000000000 -1.00000000000000
-0.04832844574780 -0.02416422287390 1.75483870967742 0.87936533123644 -0.25124723749613 0.40446438640503
-0.02826666666667 -0.02746666666667 1.99466666666667 -0.98921922941202 0.13644403164304 -0.05318216233359
-0.00158415841584 -0.02719471947195 1.97491749174917 0.00000000000000 -0.00000000000000 -1.00000000000000
0.02306748466258 -0.02527607361963 1.83558282208589 -0.73556828614935 -0.51489780030454 -0.44024941982114
0.04760736196319 -0.02527607361963 1.83558282208589 -0.00000000000000 0.00000000000000 1.00000000000000
0.08645614035088 -0.02891228070175 2.09964912280702 0.00000000000000 0.00000000000000 -1.00000000000000
0.11452631578947 -0.02891228070175 2.09964912280702 0.00000000000000 0.00000000000000 -1.00000000000000
