ply
            format ascii 1.0
            element vertex 3303
            property float x
            property float y
            property float z
            property float nx
            property float ny
            property float nz
end_header
0.08731861198738 -0.00757097791798 1.88769716088328 0.00000000000000 0.00000000000000 -1.00000000000000
-0.11933110367893 -0.00749163879599 2.00133779264214 0.00000000000000 0.00000000000000 -1.00000000000000
-0.07710306406685 -0.00623955431755 1.66685236768802 -0.78124551467933 0.12019161764297 -0.61254340323098
-0.05822485207101 -0.00662721893491 1.77041420118343 0.00000000000000 -0.00000000000000 1.00000000000000
-0.03507507507508 -0.00672672672673 1.79699699699700 0.22828516265159 -0.91314065060637 -0.33772775533456
-0.01171974522293 -0.00713375796178 1.90573248407643 -0.00000000000000 0.00000000000000 1.00000000000000
0.01301204819277 -0.00674698795181 1.80240963855422 0.25474898270849 -0.96700634252609 -0.00129973970770
0.03710843373494 -0.00674698795181 1.80240963855422 0.00000000000000 0.00000000000000 -1.00000000000000
0.06157575757576 -0.00678787878788 1.81333333333333 0.00000000000000 -0.00000000000000 1.00000000000000
0.08990476190476 -0.00711111111111 1.89968253968254 nan nan nan
-0.11719063545151 -0.00695652173913 2.00133779264214 0.00000000000000 0.00000000000000 1.00000000000000
-0.07952941176471 -0.00611764705882 1.76000000000000 -0.46001653763932 0.88169836380869 -0.10484646086258
-0.05633136094675 -0.00615384615385 1.77041420118343 0.24253333576709 -0.97013334306834 0.00434484852845
-0.03428571428571 -0.00645962732919 1.85838509316770 0.00000000000000 0.00000000000000 1.00000000000000
-0.00968152866242 -0.00662420382166 1.90573248407643 0.00000000000000 -0.00000000000000 -1.00000000000000
0.01489489489489 -0.00624624624625 1.79699699699700 0.00000000000000 0.00000000000000 1.00000000000000
0.03880239520958 -0.00622754491018 1.79161676646707 -0.24252660449771 0.97010641799083 0.00862460919738
0.06351515151515 -0.00630303030303 1.81333333333333 0.00000000000000 0.00000000000000 -1.00000000000000
0.09193650793651 -0.00660317460317 1.89968253968254 nan nan nan
-0.11132686084142 -0.00621359223301 1.93656957928803 -0.16343448342773 -0.70821609485352 -0.68681812193414
-0.08712871287129 -0.00633663366337 1.97491749174917 nan nan nan
-0.05427728613569 -0.00566371681416 1.76519174041298 0.00000000000000 0.00000000000000 1.00000000000000
-0.03229813664596 -0.00596273291925 1.85838509316770 -0.00000000000000 0.00000000000000 -1.00000000000000
-0.00764331210191 -0.00611464968153 1.90573248407643 0.00000000000000 0.00000000000000 1.00000000000000
0.01681681681682 -0.00576576576577 1.79699699699700 0.00000000000000 -0.00000000000000 1.00000000000000
0.04071856287425 -0.00574850299401 1.79161676646707 0.24252660449771 -0.97010641799083 -0.00862460919738
0.06565349544073 -0.00583586626140 1.81884498480243 -0.24251854810912 0.97007419243646 0.01186654927914
0.09396825396825 -0.00609523809524 1.89968253968254 -0.00000000000000 0.00000000000000 -1.00000000000000
-0.10820512820513 -0.00564102564103 1.91794871794872 0.00000000000000 0.00000000000000 1.00000000000000
-0.08501650165017 -0.00580858085809 1.97491749174917 nan nan nan
-0.05238938053097 -0.00519174041298 1.76519174041298 0.00000000000000 -0.00000000000000 1.00000000000000
-0.03031055900621 -0.00546583850932 1.85838509316770 0.00000000000000 0.00000000000000 -1.00000000000000
-0.00556962025316 -0.00556962025316 1.89367088607595 -0.93000417018711 -0.32347971136943 -0.17450822263416
0.01873873873874 -0.00528528528529 1.79699699699700 -0.00000000000000 0.00000000000000 -1.00000000000000
0.04250746268657 -0.00525373134328 1.78626865671642 nan nan nan
0.06822085889571 -0.00539877300613 1.83558282208589 0.98900861275975 -0.14492780056210 -0.02928987045481
0.09630573248408 -0.00560509554140 1.90573248407643 -0.24250794345453 0.97003177381813 0.01510811519383
-0.10615384615385 -0.00512820512821 1.91794871794872 -0.00000000000000 0.00000000000000 -1.00000000000000
-0.08290429042904 -0.00528052805281 1.97491749174917 nan nan nan
-0.05050147492625 -0.00471976401180 1.76519174041298 -0.00000000000000 0.00000000000000 1.00000000000000
-0.02895238095238 -0.00507936507937 1.89968253968254 -0.62045232293260 0.26590813839969 0.73778843641003
-0.00346749226006 -0.00495356037152 1.85263157894737 0.82924008035816 0.45231277110445 0.32828957678155
0.02066066066066 -0.00480480480480 1.79699699699700 0.00000000000000 0.00000000000000 -1.00000000000000
0.04441791044776 -0.00477611940299 1.78626865671642 nan nan nan
0.07172413793103 -0.00501567398119 1.87586206896552 -0.24251854810912 0.97007419243646 0.01186654927914
0.09803174603175 -0.00507936507937 1.89968253968254 0.00000000000000 0.00000000000000 -1.00000000000000
-0.10410256410256 -0.00461538461538 1.91794871794872 0.00000000000000 -0.00000000000000 -1.00000000000000
-0.07948051948052 -0.00467532467532 1.94285714285714 -0.98557603455496 -0.16426267242583 -0.04071430410127
-0.04861356932153 -0.00424778761062 1.76519174041298 -0.00000000000000 0.00000000000000 1.00000000000000
-0.02762214983713 -0.00469055374593 1.94918566775244 -0.98827976168560 0.15204304025932 -0.01363915508209
-0.00147239263804 -0.00441717791411 1.83558282208589 -0.24253506966967 0.97014027867868 0.00214001532061
0.02251497005988 -0.00431137724551 1.79161676646707 0.24579984500047 -0.96931238310919 -0.00399251160665
0.04632835820896 -0.00429850746269 1.78626865671642 0.00000000000000 -0.00000000000000 1.00000000000000
0.07419558359621 -0.00454258675079 1.88769716088328 0.00000000000000 0.00000000000000 -1.00000000000000
0.10070287539936 -0.00460063897764 1.91182108626198 0.24250794345453 -0.97003177381813 -0.01510811519382
-0.10205128205128 -0.00410256410256 1.91794871794872 0.00000000000000 0.00000000000000 1.00000000000000
-0.07568253968254 -0.00406349206349 1.89968253968254 0.00000000000000 0.00000000000000 -1.00000000000000
-0.04672566371681 -0.00377581120944 1.76519174041298 0.00000000000000 0.00000000000000 1.00000000000000
-0.02537216828479 -0.00414239482201 1.93656957928803 -0.17142861743014 0.68571446972074 0.70739514780750
0.00049079754601 -0.00392638036810 1.83558282208589 0.24253506966967 -0.97014027867868 -0.00214001532061
0.02435820895522 -0.00382089552239 1.78626865671642 -0.67567363620482 -0.67567363620482 -0.29483940488938
0.04823880597015 -0.00382089552239 1.78626865671642 0.00000000000000 0.00000000000000 -1.00000000000000
0.07621451104101 -0.00403785488959 1.88769716088328 0.00000000000000 0.00000000000000 1.00000000000000
0.10307692307692 -0.00410256410256 1.91794871794872 -0.24250794345453 0.97003177381813 0.01510811519383
-0.09936305732484 -0.00356687898089 1.90573248407643 0.16903345966885 -0.67613383867542 0.71712671245075
-0.07365079365079 -0.00355555555556 1.89968253968254 0.00000000000000 0.00000000000000 1.00000000000000
-0.04497041420118 -0.00331360946746 1.77041420118343 0.93215179774455 0.15535863295743 -0.32704238429782
-0.02300319488818 -0.00357827476038 1.91182108626198 0.67621165466106 0.67621165466106 0.29236209775053
0.00244648318043 -0.00342507645260 1.82996941896024 -0.23775812888249 0.97131519951047 0.00422555916260
0.02611275964392 -0.00332344213650 1.77566765578635 0.24253211185824 -0.97012844743295 -0.00538239713482
0.05029940119760 -0.00335329341317 1.79161676646707 -0.24252660449771 0.97010641799083 0.00862460919738
0.07848101265823 -0.00354430379747 1.89367088607595 0.67214476737708 0.67214476737708 -0.31055244867048
0.10580645161290 -0.00361290322581 1.93032258064516 0.00000000000000 0.00000000000000 1.00000000000000
-0.08326975476839 -0.00261580381471 1.63051771117166 -0.44218348894536 -0.88436697789073 0.14956206243740
-0.07139240506329 -0.00303797468354 1.89367088607595 0.00000000000000 -0.00000000000000 1.00000000000000
-0.04333333333333 -0.00285714285714 1.78095238095238 -0.98814765957648 0.00000000000000 0.15350636101977
-0.02089171974522 -0.00305732484076 1.90573248407643 0.00000000000000 0.00000000000000 1.00000000000000
0.00439024390244 -0.00292682926829 1.82439024390244 0.23411303798144 -0.97219460047254 -0.00536136728202
0.02801186943620 -0.00284866468843 1.77566765578635 -0.24253211185824 0.97012844743295 0.00538239713482
0.05221556886228 -0.00287425149701 1.79161676646707 -0.24252660449771 0.97010641799083 0.00862460919738
0.07779816513761 -0.00293577981651 1.82996941896024 0.27403114337021 0.61657007258297 0.73807064570964
0.10787096774194 -0.00309677419355 1.93032258064516 0.00000000000000 -0.00000000000000 1.00000000000000
-0.07873684210526 -0.00210526315789 1.57473684210526 0.90618254286070 -0.13941269890166 0.39924591218879
-0.06936708860759 -0.00253164556962 1.89367088607595 -0.00000000000000 0.00000000000000 -1.00000000000000
-0.04256880733945 -0.00244648318043 1.82996941896024 -0.84132171603034 0.46417749849950 0.27697837464776
-0.01885350318471 -0.00254777070064 1.90573248407643 0.00000000000000 -0.00000000000000 1.00000000000000
0.00632218844985 -0.00243161094225 1.81884498480243 -0.20222333978831 0.97918669792236 0.01729541721874
0.03000000000000 -0.00238095238095 1.78095238095238 -0.36514697456927 0.92946502617632 0.05255903421830
0.05429429429429 -0.00240240240240 1.79699699699700 0.00000000000000 0.00000000000000 -1.00000000000000
0.06791666666667 -0.00208333333333 1.55833333333333 0.92935179165656 0.32325279709794 -0.17836164529712
0.10993548387097 -0.00258064516129 1.93032258064516 -0.00000000000000 0.00000000000000 1.00000000000000
-0.08043956043956 -0.00175824175824 1.64395604395604 0.15595035503132 -0.62380142012528 0.76586635584499
-0.06448484848485 -0.00193939393939 1.81333333333333 -0.87745393725586 -0.47861123850319 -0.03171545952113
-0.03709497206704 -0.00178770949721 1.67150837988827 -0.80466367773582 0.57173471839124 0.16011176570990
-0.01681528662420 -0.00203821656051 1.90573248407643 -0.00000000000000 0.00000000000000 1.00000000000000
0.00824242424242 -0.00193939393939 1.81333333333333 0.22650782005093 -0.97398362621902 -0.00707836937659
0.03200000000000 -0.00191044776119 1.78626865671642 0.00000000000000 0.00000000000000 -1.00000000000000
0.05621621621622 -0.00192192192192 1.79699699699700 -0.00000000000000 0.00000000000000 1.00000000000000
0.07835777126100 -0.00187683284457 1.75483870967742 0.12589361325398 -0.50357445301593 0.85473011437036
0.11200000000000 -0.00206451612903 1.93032258064516 0.00000000000000 -0.00000000000000 1.00000000000000
-0.08022408963585 -0.00134453781513 1.67619047619048 nan nan nan
-0.06124629080119 -0.00142433234421 1.77566765578635 0.81783162331205 0.44608997635203 0.36353152395497
-0.03407008086253 -0.00129380053908 1.61293800539084 0.99352871066864 0.08110438454438 -0.07951590963318
-0.01477707006369 -0.00152866242038 1.90573248407643 -0.00000000000000 0.00000000000000 -1.00000000000000
0.01015105740181 -0.00145015105740 1.80785498489426 -0.23890548108258 0.97103518117435 0.00385331421101
0.03391044776119 -0.00143283582090 1.78626865671642 0.00000000000000 -0.00000000000000 -1.00000000000000
0.05813813813814 -0.00144144144144 1.79699699699700 0.00000000000000 0.00000000000000 1.00000000000000
0.08685714285714 -0.00152380952381 1.89968253968254 0.00000000000000 0.00000000000000 1.00000000000000
0.11406451612903 -0.00154838709677 1.93032258064516 0.00000000000000 0.00000000000000 -1.00000000000000
-0.07843137254902 -0.00089635854342 1.67619047619048 nan nan nan
-0.05917159763314 -0.00094674556213 1.77041420118343 0.25333314432222 -0.96727200559393 0.01439392865467
-0.03269754768392 -0.00087193460490 1.63051771117166 -0.93192317736684 0.14337279651797 0.33311174207031
-0.01273885350318 -0.00101910828025 1.90573248407643 0.00000000000000 -0.00000000000000 -1.00000000000000
0.01204819277108 -0.00096385542169 1.80240963855422 0.24253516605535 -0.97014066422139 -0.00194546924643
0.03582089552239 -0.00095522388060 1.78626865671642 -0.00000000000000 0.00000000000000 1.00000000000000
0.05988023952096 -0.00095808383234 1.79161676646707 -0.24252660449771 0.97010641799083 0.00862460919738
0.08832807570978 -0.00100946372240 1.88769716088328 nan nan nan
-0.11786666666667 -0.00053333333333 1.99466666666667 0.17507891945210 -0.70031567780839 -0.69202985728888
-0.07663865546218 -0.00044817927171 1.67619047619048 nan nan nan
-0.05710914454277 -0.00047197640118 1.76519174041298 nan nan nan
-0.03311953352770 -0.00046647230321 1.74460641399417 0.83106888469852 -0.20776722117463 0.51590434257847
-0.01070063694268 -0.00050955414013 1.90573248407643 nan nan nan
0.01393393393393 -0.00048048048048 1.79699699699700 0.24253506966967 -0.97014027867868 -0.00214001532061
0.03773134328358 -0.00047761194030 1.78626865671642 nan nan nan
0.06198198198198 -0.00048048048048 1.79699699699700 0.24252660449771 -0.97010641799083 -0.00862460919738
0.09034700315457 -0.00050473186120 1.88769716088328 nan nan nan
-0.11200000000000 0.00000000000000 1.93032258064516 0.98478241706431 0.16413040284406 0.05713844505427
-0.08121580547112 0.00000000000000 1.81884498480243 -0.39501545424094 0.79003090848189 0.46884320892395
-0.05522123893805 0.00000000000000 1.76519174041298 nan nan nan
-0.03329192546584 0.00000000000000 1.85838509316770 0.00000000000000 0.00000000000000 -1.00000000000000
-0.00866242038217 0.00000000000000 1.90573248407643 nan nan nan
0.01585585585586 0.00000000000000 1.79699699699700 0.24253506966967 -0.97014027867868 -0.00214001532061
0.03964179104478 0.00000000000000 1.78626865671642 nan nan nan
0.06409638554217 0.00000000000000 1.80240963855422 -0.19430574562213 0.98088034153632 -0.01091021566327
0.09236593059937 0.00000000000000 1.88769716088328 nan nan nan
-0.10888178913738 0.00051118210863 1.91182108626198 0.00000000000000 0.00000000000000 -1.00000000000000
-0.08635761589404 0.00052980132450 1.98145695364238 -0.17235380113174 0.68941520452696 -0.70356296306904
-0.05333333333333 0.00047197640118 1.76519174041298 -0.00000000000000 0.00000000000000 1.00000000000000
-0.03130434782609 0.00049689440994 1.85838509316770 0.00000000000000 0.00000000000000 1.00000000000000
-0.00656151419558 0.00050473186120 1.88769716088328 -0.93000417018711 -0.32347971136943 -0.17450822263416
0.01772455089820 0.00047904191617 1.79161676646707 0.25490166905762 -0.96696394022944 0.00242433652636
0.04142857142857 0.00047619047619 1.78095238095238 0.00000000000000 0.00000000000000 1.00000000000000
0.06622356495468 0.00048338368580 1.80785498489426 0.87437230652947 -0.37473098851263 -0.30830140418539
0.09438485804416 0.00050473186120 1.88769716088328 -0.00000000000000 0.00000000000000 -1.00000000000000
-0.10683706070288 0.00102236421725 1.91182108626198 -0.00000000000000 0.00000000000000 1.00000000000000
-0.08423841059603 0.00105960264901 1.98145695364238 0.17235380113174 -0.68941520452696 0.70356296306904
-0.05144542772861 0.00094395280236 1.76519174041298 0.00000000000000 -0.00000000000000 1.00000000000000
-0.02940809968847 0.00099688473520 1.86417445482866 -0.93466243930166 -0.15577707321694 0.31959290983786
-0.00443076923077 0.00098461538462 1.84123076923077 0.16685715970354 -0.66742863881414 0.72573941628271
0.01958208955224 0.00095522388060 1.78626865671642 -0.26720352371955 0.96361585719333 -0.00683788544952
0.04333333333333 0.00095238095238 1.78095238095238 0.00000000000000 -0.00000000000000 1.00000000000000
0.06899082568807 0.00097859327217 1.82996941896024 -0.98852744407340 0.14764181381755 0.03186513967285
0.09670886075949 0.00101265822785 1.89367088607595 -0.24251854810912 0.97007419243646 0.01186654927914
-0.10479233226837 0.00153354632588 1.91182108626198 0.00000000000000 0.00000000000000 1.00000000000000
-0.07974276527331 0.00154340836013 1.92411575562701 0.98557603455496 0.16426267242583 0.04071430410127
-0.04955752212389 0.00141592920354 1.76519174041298 -0.00000000000000 0.00000000000000 1.00000000000000
-0.02811501597444 0.00153354632588 1.91182108626198 0.52624298374810 0.52624298374810 0.66793461065570
-0.00244648318043 0.00146788990826 1.82996941896024 0.82869021993985 0.45201284723992 0.33008620890019
0.02142857142857 0.00142857142857 1.78095238095238 -0.67567363620482 -0.67567363620482 -0.29483940488937
0.04523809523810 0.00142857142857 1.78095238095238 -0.00000000000000 0.00000000000000 1.00000000000000
0.07341772151899 0.00151898734177 1.89367088607595 0.59950938790303 0.59950938790303 -0.53026124470140
0.09842271293375 0.00151419558360 1.88769716088328 0.00000000000000 -0.00000000000000 -1.00000000000000
-0.10307692307692 0.00205128205128 1.91794871794872 0.94735438435514 0.15789239739252 -0.27854920802029
-0.07645569620253 0.00202531645570 1.89367088607595 0.00000000000000 0.00000000000000 -1.00000000000000
-0.04766961651917 0.00188790560472 1.76519174041298 0.00000000000000 0.00000000000000 1.00000000000000
-0.02657980456026 0.00208469055375 1.94918566775244 0.97444643692495 -0.14991483644999 0.16727128676626
-0.00048780487805 0.00195121951220 1.82439024390244 0.24673929957695 -0.96907753891815 0.00290544465082
0.02319526627219 0.00189349112426 1.77041420118343 0.24253506966967 -0.97014027867868 -0.00214001532061
0.04714285714286 0.00190476190476 1.78095238095238 0.00000000000000 -0.00000000000000 1.00000000000000
0.07137724550898 0.00191616766467 1.79161676646707 0.00000000000000 -0.00000000000000 1.00000000000000
0.10044164037855 0.00201892744479 1.88769716088328 -0.00000000000000 0.00000000000000 1.00000000000000
-0.08683195592287 0.00220385674931 1.64848484848485 0.15595035503132 -0.62380142012528 0.76586635584499
-0.07443037974684 0.00253164556962 1.89367088607595 -0.00000000000000 0.00000000000000 1.00000000000000
-0.04591715976331 0.00236686390533 1.77041420118343 -0.45423351399009 -0.86065297387597 0.23010513537656
-0.02425806451613 0.00258064516129 1.93032258064516 -0.93712809534891 -0.15618801589149 0.31208370127195
0.00145896656535 0.00243161094225 1.81884498480243 -0.29584553701741 0.95501015458252 -0.02076109031701
0.02501474926254 0.00235988200590 1.76519174041298 0.24253506966967 -0.97014027867868 -0.00214001532062
0.04904761904762 0.00238095238095 1.78095238095238 0.00000000000000 -0.00000000000000 -1.00000000000000
0.06493368700265 0.00212201591512 1.58726790450928 -0.85822822059632 0.25428984313966 -0.44584862571066
0.10246056782334 0.00252365930599 1.88769716088328 0.00000000000000 0.00000000000000 1.00000000000000
-0.08169312169312 0.00253968253968 1.58306878306878 -0.24251161413907 0.97004645655629 -0.01407086103427
-0.07240506329114 0.00303797468354 1.89367088607595 0.00000000000000 0.00000000000000 1.00000000000000
-0.04415430267062 0.00284866468843 1.77566765578635 -0.94197207264024 0.14491878040620 0.30279887954123
-0.02191082802548 0.00305732484076 1.90573248407643 0.00000000000000 0.00000000000000 1.00000000000000
0.00339393939394 0.00290909090909 1.81333333333333 0.29958879213438 -0.95379288924415 0.02292771368375
0.02690265486726 0.00283185840708 1.76519174041298 -0.24253506966967 0.97014027867868 0.00214001532061
0.05095238095238 0.00285714285714 1.78095238095238 -0.00000000000000 0.00000000000000 1.00000000000000
0.07777089783282 0.00297213622291 1.85263157894737 0.98553860707983 0.16425643451330 -0.04163505345417
0.10415094339623 0.00301886792453 1.88176100628931 0.24251854810911 -0.97007419243646 -0.01186654927914
-0.07978891820580 0.00295514511873 1.57889182058047 0.24251161413907 -0.97004645655629 0.01407086103427
-0.06780487804878 0.00341463414634 1.82439024390244 -0.87745393725586 -0.47861123850319 -0.03171545952113
-0.03912087912088 0.00307692307692 1.64395604395604 -0.81931255796686 0.41918316919235 -0.39116799846570
-0.01980952380952 0.00355555555556 1.89968253968254 nan nan nan
0.00531722054381 0.00338368580060 1.80785498489426 -0.25389348926633 0.96721329244317 -0.00604508307777
0.02887573964497 0.00331360946746 1.77041420118343 0.00000000000000 0.00000000000000 1.00000000000000
0.05285714285714 0.00333333333333 1.78095238095238 0.00000000000000 -0.00000000000000 1.00000000000000
0.07712574850299 0.00335329341317 1.79161676646707 -0.00000000000000 0.00000000000000 -1.00000000000000
0.10616352201258 0.00352201257862 1.88176100628931 -0.00000000000000 0.00000000000000 -1.00000000000000
-0.07830687830688 0.00338624338624 1.58306878306878 0.24251161413907 -0.97004645655629 0.01407086103427
-0.06428571428571 0.00380952380952 1.78095238095238 -0.81812689146832 -0.44625103171000 -0.36266845210763
-0.03496143958869 0.00329048843188 1.53830334190231 -0.15012253246836 0.60049012987344 -0.78541379486858
-0.01777777777778 0.00406349206349 1.89968253968254 nan nan nan
0.00722891566265 0.00385542168675 1.80240963855422 0.23144274438759 -0.97284407810379 -0.00294206878459
0.03076923076923 0.00378698224852 1.77041420118343 0.00000000000000 -0.00000000000000 1.00000000000000
0.05476190476190 0.00380952380952 1.78095238095238 0.00000000000000 -0.00000000000000 1.00000000000000
0.07058823529412 0.00342245989305 1.60000000000000 -0.80390669344112 -0.43849456005879 0.40181656142999
0.10783699059561 0.00401253918495 1.87586206896552 0.24251854810911 -0.97007419243646 -0.01186654927914
-0.07681697612732 0.00381962864721 1.58726790450928 -0.24251161413907 0.97004645655629 -0.01407086103427
-0.06201183431953 0.00426035502959 1.77041420118343 0.00000000000000 -0.00000000000000 1.00000000000000
-0.03383812010444 0.00375979112272 1.56240208877285 -0.98774625097141 -0.08063234701808 0.13362547775883
-0.01574603174603 0.00457142857143 1.89968253968254 nan nan nan
0.00912912912913 0.00432432432432 1.79699699699700 -0.22845478128372 0.97354586533979 0.00410621338909
0.03266272189349 0.00426035502959 1.77041420118343 0.00000000000000 0.00000000000000 -1.00000000000000
0.05666666666667 0.00428571428571 1.78095238095238 -0.00000000000000 0.00000000000000 1.00000000000000
0.08450000000000 0.00450000000000 1.87000000000000 0.53437796209099 0.83125460769709 -0.15315342246856
0.10984326018809 0.00451410658307 1.87586206896552 -0.00000000000000 0.00000000000000 -1.00000000000000
-0.07801652892562 0.00440771349862 1.64848484848485 -0.15595035503132 0.62380142012528 -0.76586635584499
-0.06011834319527 0.00473372781065 1.77041420118343 0.24252140344613 -0.97008561378453 0.01082916427153
-0.03347826086957 0.00434782608696 1.62608695652174 0.93192317736684 -0.14337279651797 -0.33311174207031
-0.01371428571429 0.00507936507937 1.89968253968254 0.00000000000000 -0.00000000000000 1.00000000000000
0.01101796407186 0.00479041916168 1.79161676646707 0.23831270987462 -0.97118835529550 -0.00048046917313
0.03465875370920 0.00474777448071 1.77566765578635 -0.24253506966967 0.97014027867868 0.00214001532061
0.05857142857143 0.00476190476190 1.78095238095238 0.00000000000000 -0.00000000000000 1.00000000000000
0.08731861198738 0.00504731861199 1.88769716088328 nan nan nan
-0.11660130718954 0.00575163398693 1.95555555555556 0.95504250939527 0.28352824497672 0.08663451707261
-0.07797183098592 0.00495774647887 1.68563380281690 -0.86611145103784 0.37119062187335 -0.33476630149167
-0.05805309734513 0.00519174041298 1.76519174041298 nan nan nan
-0.03182561307902 0.00479564032698 1.63051771117166 0.92067111013566 0.15344518502261 -0.35891403170530
-0.01168253968254 0.00558730158730 1.89968253968254 0.00000000000000 0.00000000000000 -1.00000000000000
0.01289552238806 0.00525373134328 1.78626865671642 -0.24605537644205 0.96925235739150 -0.00257282237725
0.03644970414201 0.00520710059172 1.77041420118343 0.00000000000000 -0.00000000000000 1.00000000000000
0.06047619047619 0.00523809523810 1.78095238095238 0.00000000000000 0.00000000000000 -1.00000000000000
0.08933753943218 0.00555205047319 1.88769716088328 nan nan nan
-0.11230769230769 0.00615384615385 1.91794871794872 -0.24249927722182 0.96999710888727 -0.01731211417600
-0.07595505617978 0.00539325842697 1.68089887640449 0.86611145103784 -0.37119062187335 0.33476630149167
-0.05616519174041 0.00566371681416 1.76519174041298 nan nan nan
-0.03136363636364 0.00545454545455 1.70000000000000 0.07948205181358 0.34442222452551 0.93544424456640
-0.00962025316456 0.00607594936709 1.89367088607595 0.93050917238060 0.15508486206343 0.33181525835069
0.01476190476190 0.00571428571429 1.78095238095238 0.24253547765215 -0.97014191060862 0.00110243398933
0.03834319526627 0.00568047337278 1.77041420118343 -0.00000000000000 0.00000000000000 1.00000000000000
0.06256716417910 0.00573134328358 1.78626865671642 0.28591509058979 -0.95797380906100 -0.02321081916227
0.09135646687697 0.00605678233438 1.88769716088328 nan nan nan
-0.10990415335463 0.00664536741214 1.91182108626198 0.00000000000000 0.00000000000000 1.00000000000000
-0.08224299065421 0.00647975077882 1.86417445482866 0.23012143470208 -0.92048573880833 -0.31583243965930
-0.05427728613569 0.00613569321534 1.76519174041298 -0.00000000000000 0.00000000000000 1.00000000000000
-0.03209876543210 0.00641975308642 1.84691358024691 0.21538494732436 -0.86153978929743 -0.45973744237709
-0.00743034055728 0.00643962848297 1.85263157894737 0.94058391956264 0.32715962419570 0.09093113084263
0.01666666666667 0.00619047619048 1.78095238095238 0.24253547765215 -0.97014191060862 0.00110243398933
0.04023668639053 0.00615384615385 1.77041420118343 0.00000000000000 -0.00000000000000 1.00000000000000
0.06467065868263 0.00622754491018 1.79161676646707 -0.51925734145779 -0.80773364226767 0.27917409709928
0.09337539432177 0.00656151419558 1.88769716088328 -0.00000000000000 0.00000000000000 -1.00000000000000
-0.10751592356688 0.00713375796178 1.90573248407643 0.81988814501145 0.44721171546079 0.35747043405617
-0.08586666666667 0.00746666666667 1.99466666666667 -0.21689222914048 0.86756891656191 -0.44752869846980
-0.05238938053097 0.00660766961652 1.76519174041298 0.00000000000000 -0.00000000000000 1.00000000000000
-0.03040498442368 0.00697819314642 1.86417445482866 -0.93466243930166 -0.15577707321694 0.31959290983786
-0.00538226299694 0.00685015290520 1.82996941896024 0.82869021993985 0.45201284723992 0.33008620890019
0.01851632047478 0.00664688427300 1.77566765578635 0.26175937164310 -0.96509542240587 0.00853563168401
0.04213017751479 0.00662721893491 1.77041420118343 0.00000000000000 0.00000000000000 -1.00000000000000
0.06698795180723 0.00674698795181 1.80240963855422 -0.87437230652947 0.37473098851263 0.30830140418539
0.09539432176656 0.00706624605678 1.88769716088328 0.00000000000000 -0.00000000000000 -1.00000000000000
-0.10615384615385 0.00769230769231 1.91794871794872 0.00000000000000 0.00000000000000 1.00000000000000
-0.08025559105431 0.00766773162939 1.91182108626198 0.95705600825738 0.27344457378783 0.09629050900496
-0.05050147492625 0.00707964601770 1.76519174041298 -0.00000000000000 0.00000000000000 1.00000000000000
-0.02850000000000 0.00750000000000 1.87000000000000 -0.93466243930166 -0.15577707321694 0.31959290983786
-0.00340425531915 0.00729483282675 1.81884498480243 0.82841443995550 0.45186242179391 0.33098318302257
0.02035502958580 0.00710059171598 1.77041420118343 0.82896543409346 0.45216296405098 0.32918833973712
0.04389380530973 0.00707964601770 1.76519174041298 nan nan nan
0.06975609756098 0.00731707317073 1.82439024390244 -0.84384192971244 -0.29351023642172 -0.44920211350222
0.09741324921136 0.00757097791798 1.88769716088328 -0.00000000000000 0.00000000000000 -1.00000000000000
-0.09724550898204 0.00766467065868 1.79161676646707 0.75780331786981 0.63557697627791 0.14756706492623
-0.07746835443038 0.00810126582278 1.89367088607595 0.00000000000000 0.00000000000000 -1.00000000000000
-0.04861356932153 0.00755162241888 1.76519174041298 0.00000000000000 0.00000000000000 1.00000000000000
-0.02726688102894 0.00823151125402 1.92411575562701 -0.24252864421712 0.97011457686849 -0.00758712603567
-0.00145454545455 0.00775757575758 1.81333333333333 0.22162025319363 -0.97512911405198 -0.00277025316492
0.02211764705882 0.00752941176471 1.76000000000000 0.24253547765215 -0.97014191060862 0.00110243398933
0.04578171091445 0.00755162241888 1.76519174041298 nan nan nan
0.06797687861272 0.00739884393064 1.72947976878613 0.73168823870264 0.25450025694005 0.63234637704479
0.09974683544304 0.00810126582278 1.89367088607595 -0.24252660449771 0.97010641799083 0.00862460919738
-0.08423280423280 0.00719576719577 1.58306878306878 0.00000000000000 0.00000000000000 1.00000000000000
-0.07544303797468 0.00860759493671 1.89367088607595 0.00000000000000 0.00000000000000 1.00000000000000
-0.04686390532544 0.00804733727811 1.77041420118343 -0.93215179774455 -0.15535863295742 0.32704238429782
-0.02529032258065 0.00877419354839 1.93032258064516 0.93712809534891 0.15618801589149 -0.31208370127195
0.00048338368580 0.00821752265861 1.80785498489426 -0.23135316240573 0.97286970857794 0.00049434436411
0.02392961876833 0.00797653958944 1.75483870967742 nan nan nan
0.04766961651917 0.00802359882006 1.76519174041298 -0.00000000000000 0.00000000000000 1.00000000000000
0.06425531914894 0.00723404255319 1.59148936170213 0.85822822059632 -0.25428984313966 0.44584862571066
0.10145110410095 0.00858044164038 1.88769716088328 0.00000000000000 -0.00000000000000 -1.00000000000000
-0.08253968253968 0.00761904761905 1.58306878306878 -0.00000000000000 0.00000000000000 -1.00000000000000
-0.07030303030303 0.00872727272727 1.81333333333333 -0.87745393725586 -0.47861123850319 -0.03171545952113
-0.04318181818182 0.00818181818182 1.70000000000000 0.00000000000000 0.00000000000000 1.00000000000000
-0.02307692307692 0.00923076923077 1.91794871794872 0.64833759409288 -0.68647509962775 0.32925719684908
0.00240963855422 0.00867469879518 1.80240963855422 0.67549348012465 0.67549348012465 0.29566385747701
0.02580645161290 0.00844574780059 1.75483870967742 nan nan nan
0.04955752212389 0.00849557522124 1.76519174041298 0.00000000000000 -0.00000000000000 1.00000000000000
0.07750000000000 0.00900000000000 1.87000000000000 0.43371226343941 0.67466352090575 0.59726276135493
0.10347003154574 0.00908517350158 1.88769716088328 -0.00000000000000 0.00000000000000 -1.00000000000000
-0.08084656084656 0.00804232804233 1.58306878306878 -0.00000000000000 0.00000000000000 -1.00000000000000
-0.06714285714286 0.00904761904762 1.78095238095238 -0.81812689146832 -0.44625103171000 -0.36266845210763
-0.03862068965517 0.00806366047745 1.58726790450928 0.53082025241575 0.42873943464348 0.73103512693090
-0.02075949367089 0.00962025316456 1.89367088607595 -0.92890046760325 -0.15481674460054 -0.33641595811995
0.00431137724551 0.00910179640719 1.79161676646707 0.00000000000000 -0.00000000000000 1.00000000000000
0.02768328445748 0.00891495601173 1.75483870967742 nan nan nan
0.05144542772861 0.00896755162242 1.76519174041298 -0.00000000000000 0.00000000000000 1.00000000000000
0.08000000000000 0.00955974842767 1.88176100628931 0.59279370186105 -0.09119903105555 -0.80017395844179
0.10515723270440 0.00955974842767 1.88176100628931 0.00000000000000 0.00000000000000 -1.00000000000000
-0.07915343915344 0.00846560846561 1.58306878306878 0.00000000000000 -0.00000000000000 -1.00000000000000
-0.06504451038576 0.00949554896142 1.77566765578635 0.22990208756371 -0.97317776871630 0.00837022163460
-0.03587628865979 0.00824742268041 1.54226804123711 -0.15012253246836 0.60049012987344 -0.78541379486858
-0.01867507886435 0.01009463722397 1.88769716088328 0.00000000000000 0.00000000000000 1.00000000000000
0.00622754491018 0.00958083832335 1.79161676646707 0.00000000000000 0.00000000000000 1.00000000000000
0.02964705882353 0.00941176470588 1.76000000000000 0.00000000000000 0.00000000000000 1.00000000000000
0.05333333333333 0.00943952802360 1.76519174041298 0.00000000000000 -0.00000000000000 1.00000000000000
0.06899470899471 0.00846560846561 1.58306878306878 0.79975709403962 -0.12303955292917 0.58757966178918
0.10716981132075 0.01006289308176 1.88176100628931 0.24252660449771 -0.97010641799083 -0.00862460919738
-0.07746031746032 0.00888888888889 1.58306878306878 -0.00000000000000 0.00000000000000 -1.00000000000000
-0.06295857988166 0.00994082840237 1.77041420118343 0.18806649645487 -0.98212503704212 -0.00783610401895
-0.03422680412371 0.00865979381443 1.54226804123711 -0.15012253246836 0.60049012987345 -0.78541379486857
-0.01665615141956 0.01059936908517 1.88769716088328 0.00000000000000 -0.00000000000000 1.00000000000000
0.00809523809524 0.01000000000000 1.78095238095238 -0.24253333576708 0.97013334306834 -0.00434484852845
0.03152941176471 0.00988235294118 1.76000000000000 0.00000000000000 -0.00000000000000 1.00000000000000
0.05522123893805 0.00991150442478 1.76519174041298 0.00000000000000 -0.00000000000000 -1.00000000000000
0.07548022598870 0.00949152542373 1.69039548022599 0.97792278996817 -0.09168026155952 -0.18778111327088
0.10884012539185 0.01053291536050 1.87586206896552 0.00000000000000 0.00000000000000 -1.00000000000000
-0.07576719576720 0.00931216931217 1.58306878306878 0.00000000000000 0.00000000000000 -1.00000000000000
-0.06088495575221 0.01038348082596 1.76519174041298 0.00000000000000 0.00000000000000 1.00000000000000
-0.03317585301837 0.00923884514436 1.57060367454068 0.96580490210228 -0.24471407992456 0.08564992797360
-0.01463722397476 0.01110410094637 1.88769716088328 -0.00000000000000 0.00000000000000 1.00000000000000
0.01000000000000 0.01047619047619 1.78095238095238 0.24253333576708 -0.97013334306834 0.00434484852845
0.03341176470588 0.01035294117647 1.76000000000000 nan nan nan
0.05710914454277 0.01038348082596 1.76519174041298 0.00000000000000 -0.00000000000000 -1.00000000000000
0.08658227848101 0.01113924050633 1.89367088607595 0.24253211185824 -0.97012844743295 -0.00538239713482
0.11084639498433 0.01103448275862 1.87586206896552 0.00000000000000 0.00000000000000 1.00000000000000
-0.07466666666667 0.00981333333333 1.59573333333333 -0.88424585121634 0.37896250766415 0.27294082214207
-0.05899705014749 0.01085545722714 1.76519174041298 -0.00000000000000 0.00000000000000 -1.00000000000000
-0.03269754768392 0.01002724795640 1.63051771117166 0.92067111013566 0.15344518502261 -0.35891403170529
-0.01261829652997 0.01160883280757 1.88769716088328 0.00000000000000 0.00000000000000 1.00000000000000
0.01186943620178 0.01091988130564 1.77566765578635 0.24253348350605 -0.97013393402420 0.00420231283303
0.03529411764706 0.01082352941176 1.76000000000000 nan nan nan
0.05899705014749 0.01085545722714 1.76519174041298 0.00000000000000 0.00000000000000 1.00000000000000
0.08832807570978 0.01160883280757 1.88769716088328 nan nan nan
-0.10846625766871 0.01177914110429 1.83558282208589 0.24248439386090 -0.96993757544361 0.02055282161869
-0.07600000000000 0.01066666666667 1.66222222222222 0.94954502691818 -0.31361120155096 0.00350087370715
-0.05710914454277 0.01132743362832 1.76519174041298 0.00000000000000 0.00000000000000 -1.00000000000000
-0.03103825136612 0.01049180327869 1.63497267759563 0.93222040402523 -0.14341852369619 -0.33225930442931
-0.01063291139241 0.01215189873418 1.89367088607595 0.93309847817844 0.15551641302974 -0.32425587935987
0.01372781065089 0.01136094674556 1.77041420118343 0.21633973323743 -0.97630238589198 -0.00554717264711
0.03706744868035 0.01126099706745 1.75483870967742 0.24253547765215 -0.97014191060862 0.00110243398933
0.06106508875740 0.01136094674556 1.77041420118343 -0.27122053550225 0.96239544855635 0.01531083668158
0.09034700315457 0.01211356466877 1.88769716088328 nan nan nan
-0.10617737003058 0.01223241590214 1.82996941896024 0.24248439386090 -0.96993757544361 0.02055282161869
-0.07569405099150 0.01133144475921 1.69518413597734 0.20892431234919 -0.83569724939669 0.50789835504777
-0.05505882352941 0.01176470588235 1.76000000000000 0.00000000000000 0.00000000000000 1.00000000000000
-0.02977777777778 0.01111111111111 1.66222222222222 -0.79908778681088 0.57639119048654 0.17097340289997
-0.00869009584665 0.01277955271565 1.91182108626198 0.93372615117872 0.15562102519645 -0.32239350353533
0.01557522123894 0.01179941002950 1.76519174041298 0.24253333576708 -0.97013334306834 0.00434484852845
0.03905882352941 0.01176470588235 1.76000000000000 0.24253547765215 -0.97014191060862 0.00110243398933
0.06314540059347 0.01186943620178 1.77566765578635 -0.20797658276013 0.97805203784494 -0.01264722462731
0.09236593059937 0.01261829652997 1.88769716088328 0.00000000000000 -0.00000000000000 -1.00000000000000
-0.10422018348624 0.01272171253823 1.82996941896024 -0.24248439386090 0.96993757544361 -0.02055282161869
-0.08049382716049 0.01283950617284 1.84691358024691 -0.24249927722181 0.96999710888727 -0.01731211417599
-0.05317647058824 0.01223529411765 1.76000000000000 0.00000000000000 -0.00000000000000 1.00000000000000
-0.03036144578313 0.01253012048193 1.80240963855422 -0.87802158141035 0.37629496346158 -0.29577052431085
-0.00632218844985 0.01264437689970 1.81884498480243 0.82841443995550 0.45186242179391 0.33098318302257
0.01746312684366 0.01227138643068 1.76519174041298 -0.24253333576708 0.97013334306834 -0.00434484852845
0.04082111436950 0.01219941348974 1.75483870967742 0.00000000000000 0.00000000000000 -1.00000000000000
0.06523809523810 0.01238095238095 1.78095238095238 -0.80210458644603 0.53473639096402 0.26586693021326
0.09438485804416 0.01312302839117 1.88769716088328 -0.00000000000000 0.00000000000000 -1.00000000000000
-0.09952380952381 0.01285714285714 1.78095238095238 0.75780331786981 0.63557697627791 0.14756706492623
-0.07851851851852 0.01333333333333 1.84691358024691 0.24249927722181 -0.96999710888727 0.01731211417599
-0.05129411764706 0.01270588235294 1.76000000000000 0.00000000000000 0.00000000000000 -1.00000000000000
-0.02950000000000 0.01350000000000 1.87000000000000 -0.93466243930166 -0.15577707321694 0.31959290983786
-0.00435045317221 0.01305135951662 1.80785498489426 -0.67549348012465 -0.67549348012465 -0.29566385747701
0.01923753665689 0.01266862170088 1.75483870967742 0.00000000000000 0.00000000000000 -1.00000000000000
0.04269794721408 0.01266862170088 1.75483870967742 -0.00000000000000 0.00000000000000 1.00000000000000
0.07348534201954 0.01407166123779 1.94918566775244 0.91465805486801 -0.39199630922915 -0.09868908863592
0.09640378548896 0.01362776025237 1.88769716088328 0.00000000000000 -0.00000000000000 1.00000000000000
-0.08840970350404 0.01207547169811 1.61293800539084 -0.57725603093045 0.61121226804400 -0.54147487305223
-0.07630769230769 0.01378461538462 1.84123076923077 0.24249927722181 -0.96999710888727 0.01731211417599
-0.04955752212389 0.01321533923304 1.76519174041298 -0.93215179774455 -0.15535863295742 0.32704238429781
-0.02758620689655 0.01404388714734 1.87586206896552 0.24252140344613 -0.97008561378453 0.01082916427153
-0.00240963855422 0.01349397590361 1.80240963855422 0.20723980934137 -0.97827487639405 -0.00547061608510
0.02099125364431 0.01306122448980 1.74460641399417 -0.24253333576708 0.97013334306834 -0.00434484852845
0.04457478005865 0.01313782991202 1.75483870967742 nan nan nan
0.07656765676568 0.01478547854785 1.97491749174917 0.98199183089250 -0.15107566629115 -0.11343803204870
0.09842271293375 0.01413249211356 1.88769716088328 -0.00000000000000 0.00000000000000 1.00000000000000
-0.08507936507937 0.01227513227513 1.58306878306878 nan nan nan
-0.07299093655589 0.01401812688822 1.80785498489426 0.87745393725585 0.47861123850320 0.03171545952114
-0.04590909090909 0.01318181818182 1.70000000000000 -0.00000000000000 -0.00000000000000 -1.00000000000000
-0.02582278481013 0.01468354430380 1.89367088607595 0.24252140344613 -0.97008561378453 0.01082916427153
-0.00048048048048 0.01393393393393 1.79699699699700 -0.21757007558946 0.97604353354715 0.00151090330270
0.02285714285714 0.01352769679300 1.74460641399417 0.24253333576708 -0.97013334306834 0.00434484852845
0.04645161290323 0.01360703812317 1.75483870967742 -0.00000000000000 0.00000000000000 1.00000000000000
0.06081632653061 0.01183673469388 1.52653061224490 -0.97037990318388 -0.05245296773967 -0.23582096953439
0.10044164037855 0.01463722397476 1.88769716088328 -0.00000000000000 0.00000000000000 1.00000000000000
-0.08338624338624 0.01269841269841 1.58306878306878 nan nan nan
-0.06897360703812 0.01407624633431 1.75483870967742 0.12214761170433 0.73288567022596 -0.66929706060342
-0.04205962059621 0.01300813008130 1.62168021680217 -0.69609041782415 -0.37968568244954 0.60934137620568
-0.02387301587302 0.01523809523810 1.89968253968254 0.24252140344613 -0.97008561378453 0.01082916427153
0.00143712574850 0.01437125748503 1.79161676646707 0.82813809619898 0.45171168883581 0.33187926086612
0.02465116279070 0.01395348837209 1.73953488372093 0.24253333576708 -0.97013334306834 0.00434484852845
0.04832844574780 0.01407624633431 1.75483870967742 0.00000000000000 -0.00000000000000 1.00000000000000
0.07626168224299 0.01495327102804 1.86417445482866 0.16785447767822 -0.67141791071289 -0.72181913489274
0.10246056782334 0.01514195583596 1.88769716088328 0.00000000000000 -0.00000000000000 1.00000000000000
-0.08169312169312 0.01312169312169 1.58306878306878 -0.00000000000000 0.00000000000000 -1.00000000000000
-0.06555873925501 0.01421203438395 1.71461318051576 0.43039917362313 -0.64559876043470 -0.63083975133920
-0.03844961240310 0.01281653746770 1.54625322997416 0.00000000000000 0.00000000000000 -1.00000000000000
-0.02177215189873 0.01569620253165 1.89367088607595 0.00000000000000 0.00000000000000 1.00000000000000
0.00333333333333 0.01476190476190 1.78095238095238 -0.67531291763050 -0.67531291763050 -0.29648764993296
0.02651162790698 0.01441860465116 1.73953488372093 -0.24253333576708 0.97013334306834 -0.00434484852845
0.05020527859238 0.01454545454545 1.75483870967742 -0.00000000000000 0.00000000000000 -1.00000000000000
0.08025559105431 0.01584664536741 1.91182108626198 0.21609568770553 -0.86438275082211 -0.45403206256418
0.10447949526814 0.01564668769716 1.88769716088328 -0.00000000000000 0.00000000000000 1.00000000000000
-0.08000000000000 0.01354497354497 1.58306878306878 0.00000000000000 -0.00000000000000 -1.00000000000000
-0.06619047619048 0.01523809523810 1.78095238095238 0.92405058508738 -0.14216162847498 0.35485290979363
-0.03679586563307 0.01322997416021 1.54625322997416 -0.00000000000000 0.00000000000000 1.00000000000000
-0.01956112852665 0.01605015673981 1.87586206896552 0.00000000000000 0.00000000000000 1.00000000000000
0.00522255192878 0.01519287833828 1.77566765578635 0.29814786079363 -0.95407315453961 0.02919364470271
0.02845481049563 0.01492711370262 1.74460641399417 0.00000000000000 0.00000000000000 -1.00000000000000
0.05192982456140 0.01497076023392 1.74970760233918 -0.24253547765215 0.97014191060862 -0.00110243398933
0.07402298850575 0.01471264367816 1.71954022988506 0.68194864099421 -0.72206326693504 -0.11649330276562
0.10649842271293 0.01615141955836 1.88769716088328 0.00000000000000 0.00000000000000 1.00000000000000
-0.07830687830688 0.01396825396825 1.58306878306878 -0.00000000000000 0.00000000000000 1.00000000000000
-0.06390532544379 0.01562130177515 1.77041420118343 -0.91407097912776 -0.15234516318796 -0.37585262586506
-0.03514211886305 0.01364341085271 1.54625322997416 0.00000000000000 -0.00000000000000 -1.00000000000000
-0.01755485893417 0.01655172413793 1.87586206896552 0.00000000000000 -0.00000000000000 1.00000000000000
0.00710059171598 0.01562130177515 1.77041420118343 0.24252864421712 -0.97011457686849 0.00758712603567
0.03032069970845 0.01539358600583 1.74460641399417 0.00000000000000 -0.00000000000000 -1.00000000000000
0.05395894428152 0.01548387096774 1.75483870967742 0.00000000000000 0.00000000000000 1.00000000000000
0.06984126984127 0.01396825396825 1.58306878306878 -0.00000000000000 0.00000000000000 -1.00000000000000
0.10817610062893 0.01660377358491 1.88176100628931 0.24253211185824 -0.97012844743295 -0.00538239713482
-0.07661375661376 0.01439153439153 1.58306878306878 0.00000000000000 0.00000000000000 1.00000000000000
-0.06182890855457 0.01604719764012 1.76519174041298 0.24249927722182 -0.96999710888727 0.01731211417600
-0.03348837209302 0.01405684754522 1.54625322997416 0.00000000000000 0.00000000000000 1.00000000000000
-0.01554858934169 0.01705329153605 1.87586206896552 0.00000000000000 0.00000000000000 -1.00000000000000
0.00899408284024 0.01609467455621 1.77041420118343 0.24252864421712 -0.97011457686849 0.00758712603567
0.03218658892128 0.01586005830904 1.74460641399417 -0.00000000000000 0.00000000000000 -1.00000000000000
0.05583577712610 0.01595307917889 1.75483870967742 0.00000000000000 -0.00000000000000 1.00000000000000
0.08476489028213 0.01705329153605 1.87586206896552 -0.16839920665294 0.67359682661172 0.71965896254912
0.11018867924528 0.01710691823899 1.88176100628931 -0.24253211185824 0.97012844743295 0.00538239713482
-0.07511936339523 0.01485411140584 1.58726790450928 -0.36502184886976 0.93060515316248 0.02707579648210
-0.05994100294985 0.01651917404130 1.76519174041298 0.24249927722182 -0.96999710888727 0.01731211417600
-0.03250659630607 0.01477572559367 1.57889182058047 -0.84903061668254 0.46843068506623 -0.24437615518713
-0.01350000000000 0.01750000000000 1.87000000000000 0.09596265003990 -0.99452200950439 -0.04143841706268
0.01085545722714 0.01651917404130 1.76519174041298 -0.41987057279481 0.90433661832729 -0.07670712387598
0.03405247813411 0.01632653061224 1.74460641399417 0.00000000000000 -0.00000000000000 -1.00000000000000
0.05771260997067 0.01642228739003 1.75483870967742 0.00000000000000 0.00000000000000 -1.00000000000000
0.08787301587302 0.01777777777778 1.89968253968254 0.00000000000000 -0.00000000000000 1.00000000000000
-0.10682634730539 0.01724550898204 1.79161676646707 -0.66718042344656 -0.66718042344656 -0.33127113538510
-0.07361702127660 0.01531914893617 1.59148936170213 0.93718395104913 -0.14418214631525 -0.31764406271779
-0.05788235294118 0.01694117647059 1.76000000000000 0.00000000000000 0.00000000000000 -1.00000000000000
-0.03182561307902 0.01569482288828 1.63051771117166 -0.93222040402523 0.14341852369619 0.33225930442931
-0.01146417445483 0.01794392523364 1.86417445482866 -0.67710011847515 -0.67710011847515 -0.28822015738300
0.01270588235294 0.01694117647059 1.76000000000000 0.73806282088700 0.59842931423271 0.31168193449620
0.03591836734694 0.01679300291545 1.74460641399417 0.00000000000000 0.00000000000000 1.00000000000000
0.05976470588235 0.01694117647059 1.76000000000000 -0.24253547765216 0.97014191060862 -0.00110243398933
0.08990476190476 0.01828571428571 1.89968253968254 -0.00000000000000 0.00000000000000 1.00000000000000
-0.10459701492537 0.01767164179104 1.78626865671642 0.81394950611629 0.44397245788160 0.37466606216151
-0.07408219178082 0.01621917808219 1.63945205479452 0.94954502691818 -0.31361120155096 0.00350087370715
-0.05600000000000 0.01741176470588 1.76000000000000 0.00000000000000 -0.00000000000000 -1.00000000000000
-0.03024657534247 0.01621917808219 1.63945205479452 -0.93251705766402 0.14346416271754 0.33140605181771
-0.00935384615385 0.01821538461538 1.84123076923077 -0.28450069506625 -0.89414504163677 -0.34578027564220
0.01454545454545 0.01736070381232 1.75483870967742 0.24252864421712 -0.97011457686849 0.00758712603567
0.03767441860465 0.01720930232558 1.73953488372093 0.00000000000000 0.00000000000000 -1.00000000000000
0.06164705882353 0.01741176470588 1.76000000000000 0.24253547765216 -0.97014191060862 0.00110243398933
0.08722891566265 0.01783132530120 1.80240963855422 0.38850653613893 -0.70944671816675 0.58800342300004
-0.10147492625369 0.01793510324484 1.76519174041298 -0.74612661521319 -0.65513556457743 -0.11871169317436
-0.07521367521368 0.01732193732194 1.70484330484330 -0.63903405807479 -0.63903405807479 0.42810155949369
-0.05411764705882 0.01788235294118 1.76000000000000 -0.00000000000000 0.00000000000000 -1.00000000000000
-0.02865013774105 0.01674931129477 1.64848484848485 -0.94779985658557 0.28082958713646 0.15103037722636
-0.00697674418605 0.01767441860465 1.73953488372093 0.50938337360243 -0.21830716011533 -0.83238846852884
0.01642228739003 0.01782991202346 1.75483870967742 0.00000000000000 0.00000000000000 1.00000000000000
0.03953488372093 0.01767441860465 1.73953488372093 0.00000000000000 -0.00000000000000 -1.00000000000000
0.06585365853659 0.01853658536585 1.82439024390244 -0.00000000000000 0.00000000000000 1.00000000000000
0.08731563421829 0.01793510324484 1.76519174041298 -0.87221300771738 0.15130225644077 0.46513664268098
