ply
            format ascii 1.0
            element vertex 27796
            property float x
            property float y
            property float z
            property float nx
            property float ny
            property float nz
end_header
-0.07085043988270 0.16563049853372 1.75483870967742 0.00000000000000 -0.00000000000000 -1.00000000000000
-0.04684057971014 0.16371014492754 1.73449275362319 0.00000000000000 0.00000000000000 -1.00000000000000
-0.02351585014409 0.16276657060519 1.72449567723343 0.00000000000000 -0.00000000000000 -1.00000000000000
-0.00045845272206 0.16183381088825 1.71461318051576 0.00000000000000 -0.00000000000000 -1.00000000000000
0.02240000000000 0.16137142857143 1.70971428571429 0.00000000000000 -0.00000000000000 -1.00000000000000
0.04512820512821 0.16091168091168 1.70484330484330 0.00000000000000 -0.00000000000000 -1.00000000000000
0.06772727272727 0.16045454545455 1.70000000000000 0.00000000000000 -0.00000000000000 -1.00000000000000
0.09045454545455 0.16045454545455 1.70000000000000 0.00000000000000 -0.00000000000000 -1.00000000000000
0.11350427350427 0.16091168091168 1.70484330484330 0.00000000000000 -0.00000000000000 -1.00000000000000
0.13668571428571 0.16137142857143 1.70971428571429 0.00000000000000 -0.00000000000000 -1.00000000000000
0.16045977011494 0.16229885057471 1.71954022988506 0.00000000000000 -0.00000000000000 -1.00000000000000
0.18504347826087 0.16371014492754 1.73449275362319 0.00000000000000 -0.00000000000000 -1.00000000000000
0.21067448680352 0.16563049853372 1.75483870967742 0.00000000000000 0.00000000000000 -1.00000000000000
0.26263157894737 0.18578947368421 1.96842105263158 0.24762593419831 0.83755830684722 0.48700870561381
0.25913544668588 0.16276657060519 1.72449567723343 0.00000000000000 -0.00000000000000 -1.00000000000000
0.28300578034682 0.16323699421965 1.72947976878613 0.00000000000000 -0.00000000000000 -1.00000000000000
-0.30400000000000 0.16658823529412 1.76000000000000 0.00000000000000 -0.00000000000000 -1.00000000000000
-0.28129793510324 0.16707964601770 1.76519174041298 0.00000000000000 -0.00000000000000 -1.00000000000000
-0.25846153846154 0.16757396449704 1.77041420118343 0.00000000000000 -0.00000000000000 -1.00000000000000
-0.27085324232082 0.19331058020478 2.04232081911263 -0.70050248110269 -0.70050248110270 -0.13635449364779
-0.24108108108108 0.19135135135135 2.02162162162162 0.00000000000000 -0.00000000000000 -1.00000000000000
-0.21405405405405 0.19135135135135 2.02162162162162 0.00000000000000 -0.00000000000000 -1.00000000000000
-0.21243697478992 0.23798319327731 2.51428571428571 0.38999971850182 -0.92065507318462 0.01715971409802
-0.14378378378378 0.19135135135135 2.02162162162162 0.00000000000000 0.00000000000000 -1.00000000000000
-0.10409638554217 0.17060240963855 1.80240963855422 -0.96311272669278 0.17511140485323 -0.20432785314960
-0.07834808259587 0.16707964601770 1.76519174041298 0.00000000000000 0.00000000000000 1.00000000000000
-0.05395348837209 0.16465116279070 1.73953488372093 -0.00000000000000 0.00000000000000 1.00000000000000
-0.03052023121387 0.16369942196532 1.72947976878613 0.00000000000000 0.00000000000000 1.00000000000000
-0.00733524355301 0.16229226361032 1.71461318051576 0.00000000000000 0.00000000000000 -1.00000000000000
0.01554285714286 0.16182857142857 1.70971428571429 0.00000000000000 0.00000000000000 -1.00000000000000
0.03829059829060 0.16136752136752 1.70484330484330 0.00000000000000 0.00000000000000 -1.00000000000000
0.06090909090909 0.16090909090909 1.70000000000000 0.00000000000000 0.00000000000000 -1.00000000000000
0.08363636363636 0.16090909090909 1.70000000000000 0.00000000000000 0.00000000000000 -1.00000000000000
0.10666666666667 0.16136752136752 1.70484330484330 0.00000000000000 0.00000000000000 -1.00000000000000
0.12982857142857 0.16182857142857 1.70971428571429 0.00000000000000 0.00000000000000 -1.00000000000000
0.15312320916905 0.16229226361032 1.71461318051576 0.00000000000000 0.00000000000000 -1.00000000000000
0.17757225433526 0.16369942196532 1.72947976878613 0.00000000000000 0.00000000000000 -1.00000000000000
0.20244897959184 0.16513119533528 1.74460641399417 0.00000000000000 0.00000000000000 -1.00000000000000
0.22979228486647 0.16807121661721 1.77566765578635 0.00000000000000 0.00000000000000 -1.00000000000000
0.26797546012270 0.17374233128834 1.83558282208589 -0.33412418497888 0.89099782661033 -0.30738233844492
0.27481268011527 0.16322766570605 1.72449567723343 0.00000000000000 0.00000000000000 1.00000000000000
0.29872832369942 0.16369942196532 1.72947976878613 0.00000000000000 0.00000000000000 -1.00000000000000
-0.28800000000000 0.16705882352941 1.76000000000000 0.00000000000000 -0.00000000000000 -1.00000000000000
-0.26603550295858 0.16804733727811 1.77041420118343 0.00000000000000 0.00000000000000 -1.00000000000000
-0.26859016393443 0.18622950819672 1.96196721311475 0.66024919284621 0.75028317368888 0.03385502363415
-0.24972972972973 0.19189189189189 2.02162162162162 0.00000000000000 0.00000000000000 -1.00000000000000
-0.22270270270270 0.19189189189189 2.02162162162162 0.00000000000000 0.00000000000000 -1.00000000000000
-0.21138686131387 0.20729927007299 2.18394160583942 0.33245703248517 0.93838678524041 0.09435339335353
-0.15243243243243 0.19189189189189 2.02162162162162 0.00000000000000 0.00000000000000 -1.00000000000000
-0.11351681957187 0.17370030581040 1.82996941896024 -0.00000000000000 -0.00000000000000 1.00000000000000
-0.08615384615385 0.16804733727811 1.77041420118343 0.00000000000000 0.00000000000000 -1.00000000000000
-0.06175438596491 0.16608187134503 1.74970760233918 0.00000000000000 0.00000000000000 1.00000000000000
-0.03791907514451 0.16416184971098 1.72947976878613 0.00000000000000 0.00000000000000 -1.00000000000000
-0.01471264367816 0.16321839080460 1.71954022988506 0.00000000000000 0.00000000000000 -1.00000000000000
0.00822857142857 0.16228571428571 1.70971428571429 0.00000000000000 0.00000000000000 -1.00000000000000
0.03099715099715 0.16182336182336 1.70484330484330 0.00000000000000 0.00000000000000 -1.00000000000000
0.05378917378917 0.16182336182336 1.70484330484330 0.00000000000000 0.00000000000000 -1.00000000000000
0.07636363636364 0.16136363636364 1.70000000000000 0.00000000000000 0.00000000000000 -1.00000000000000
0.09909090909091 0.16136363636364 1.70000000000000 0.00000000000000 0.00000000000000 -1.00000000000000
0.12216524216524 0.16182336182336 1.70484330484330 0.00000000000000 0.00000000000000 -1.00000000000000
0.14578796561605 0.16275071633238 1.71461318051576 0.00000000000000 0.00000000000000 -1.00000000000000
0.16968299711816 0.16368876080692 1.72449567723343 0.00000000000000 0.00000000000000 -1.00000000000000
0.19441860465116 0.16511627906977 1.73953488372093 0.00000000000000 0.00000000000000 -1.00000000000000
0.22088495575221 0.16755162241888 1.76519174041298 0.00000000000000 0.00000000000000 -1.00000000000000
0.26172839506173 0.17530864197531 1.84691358024691 -0.69220467439843 -0.66074082556214 -0.29030027588073
0.26743515850144 0.16368876080692 1.72449567723343 0.00000000000000 -0.00000000000000 1.00000000000000
0.29132947976879 0.16416184971098 1.72947976878613 0.00000000000000 -0.00000000000000 1.00000000000000
-0.29552941176471 0.16752941176471 1.76000000000000 0.00000000000000 -0.00000000000000 1.00000000000000
-0.27280235988201 0.16802359882006 1.76519174041298 0.00000000000000 -0.00000000000000 1.00000000000000
-0.25068249258160 0.16902077151335 1.77566765578635 0.00000000000000 0.00000000000000 -1.00000000000000
-0.25837837837838 0.19243243243243 2.02162162162162 0.00000000000000 -0.00000000000000 1.00000000000000
-0.23135135135135 0.19243243243243 2.02162162162162 0.00000000000000 -0.00000000000000 1.00000000000000
-0.20432432432432 0.19243243243243 2.02162162162162 0.00000000000000 -0.00000000000000 1.00000000000000
-0.16162162162162 0.19243243243243 2.02162162162162 -0.00000000000000 0.00000000000000 -1.00000000000000
-0.13459459459459 0.19243243243243 2.02162162162162 -0.00000000000000 0.00000000000000 -1.00000000000000
-0.09504477611940 0.17002985074627 1.78626865671642 -0.00000000000000 0.00000000000000 -1.00000000000000
-0.06991202346041 0.16703812316716 1.75483870967742 -0.00000000000000 0.00000000000000 -1.00000000000000
-0.04591304347826 0.16510144927536 1.73449275362319 -0.00000000000000 0.00000000000000 -1.00000000000000
-0.02259365994236 0.16414985590778 1.72449567723343 -0.00000000000000 0.00000000000000 -1.00000000000000
0.00045845272206 0.16320916905444 1.71461318051576 -0.00000000000000 0.00000000000000 -1.00000000000000
0.02331428571429 0.16274285714286 1.70971428571429 -0.00000000000000 0.00000000000000 -1.00000000000000
0.04603988603989 0.16227920227920 1.70484330484330 -0.00000000000000 0.00000000000000 -1.00000000000000
0.06863636363636 0.16181818181818 1.70000000000000 -0.00000000000000 0.00000000000000 -1.00000000000000
0.09136363636364 0.16181818181818 1.70000000000000 -0.00000000000000 0.00000000000000 -1.00000000000000
0.11441595441595 0.16227920227920 1.70484330484330 -0.00000000000000 0.00000000000000 -1.00000000000000
0.13760000000000 0.16274285714286 1.70971428571429 -0.00000000000000 0.00000000000000 -1.00000000000000
0.16137931034483 0.16367816091954 1.71954022988506 -0.00000000000000 0.00000000000000 -1.00000000000000
0.18597101449275 0.16510144927536 1.73449275362319 -0.00000000000000 0.00000000000000 -1.00000000000000
0.21161290322581 0.16703812316716 1.75483870967742 -0.00000000000000 0.00000000000000 -1.00000000000000
0.30479087452471 0.21657794676806 2.27528517110266 0.76658805380265 0.63337767068284 -0.10571415254092
0.25959654178674 0.16414985590778 1.72449567723343 -0.00000000000000 0.00000000000000 -1.00000000000000
0.28346820809249 0.16462427745665 1.72947976878613 -0.00000000000000 0.00000000000000 -1.00000000000000
-0.30352941176471 0.16800000000000 1.76000000000000 -0.00000000000000 0.00000000000000 -1.00000000000000
-0.28082595870206 0.16849557522124 1.76519174041298 -0.00000000000000 0.00000000000000 -1.00000000000000
-0.25798816568047 0.16899408284024 1.77041420118343 -0.00000000000000 0.00000000000000 -1.00000000000000
-0.26756756756757 0.19297297297297 2.02162162162162 0.00000000000000 0.00000000000000 -1.00000000000000
-0.24054054054054 0.19297297297297 2.02162162162162 -0.00000000000000 0.00000000000000 -1.00000000000000
-0.21351351351351 0.19297297297297 2.02162162162162 -0.00000000000000 0.00000000000000 -1.00000000000000
-0.19658914728682 0.22139534883721 2.31937984496124 -0.26542716896602 -0.87590965758787 0.40290282912754
-0.14432432432432 0.19297297297297 2.02162162162162 0.00000000000000 0.00000000000000 1.00000000000000
-0.10489425981873 0.17256797583082 1.80785498489426 -0.75351696565953 -0.64587168485102 0.12272713298595
-0.07882005899705 0.16849557522124 1.76519174041298 -0.00000000000000 -0.00000000000000 -1.00000000000000
-0.05457725947522 0.16653061224490 1.74460641399417 0.00000000000000 0.00000000000000 1.00000000000000
-0.03098265895954 0.16508670520231 1.72947976878613 -0.00000000000000 -0.00000000000000 -1.00000000000000
-0.00779369627507 0.16366762177650 1.71461318051576 0.00000000000000 0.00000000000000 1.00000000000000
0.01508571428571 0.16320000000000 1.70971428571429 0.00000000000000 0.00000000000000 1.00000000000000
0.03783475783476 0.16273504273504 1.70484330484330 0.00000000000000 0.00000000000000 1.00000000000000
0.06045454545455 0.16227272727273 1.70000000000000 -0.00000000000000 0.00000000000000 1.00000000000000
0.08318181818182 0.16227272727273 1.70000000000000 0.00000000000000 0.00000000000000 1.00000000000000
0.10621082621083 0.16273504273504 1.70484330484330 0.00000000000000 0.00000000000000 1.00000000000000
0.12937142857143 0.16320000000000 1.70971428571429 0.00000000000000 0.00000000000000 1.00000000000000
0.15266475644699 0.16366762177650 1.71461318051576 0.00000000000000 0.00000000000000 1.00000000000000
0.17710982658960 0.16508670520231 1.72947976878613 0.00000000000000 0.00000000000000 1.00000000000000
0.20198250728863 0.16653061224490 1.74460641399417 0.00000000000000 0.00000000000000 1.00000000000000
0.22931750741840 0.16949554896142 1.77566765578635 0.00000000000000 0.00000000000000 1.00000000000000
0.28496732026144 0.18666666666667 1.95555555555556 -0.24762593419831 -0.83755830684722 -0.48700870561381
0.27435158501441 0.16461095100865 1.72449567723343 0.00000000000000 -0.00000000000000 -1.00000000000000
0.29826589595376 0.16508670520231 1.72947976878613 0.00000000000000 0.00000000000000 1.00000000000000
-0.28932153392330 0.16896755162242 1.76519174041298 0.00000000000000 -0.00000000000000 1.00000000000000
-0.26650887573964 0.16946745562130 1.77041420118343 -0.00000000000000 0.00000000000000 1.00000000000000
-0.29209964412811 0.20384341637011 2.12953736654804 0.54950262629141 0.83372812264903 -0.05426123112282
-0.25027027027027 0.19351351351351 2.02162162162162 0.00000000000000 0.00000000000000 1.00000000000000
-0.22324324324324 0.19351351351351 2.02162162162162 0.00000000000000 0.00000000000000 1.00000000000000
-0.20522968197880 0.20240282685512 2.11448763250883 0.46417845203977 -0.77363075339962 0.43131638278217
-0.15459459459459 0.19351351351351 2.02162162162162 0.00000000000000 -0.00000000000000 -1.00000000000000
-0.12887372013652 0.19549488054608 2.04232081911263 -0.95138021450084 0.19027604290017 -0.24222038509297
-0.08830860534125 0.16997032640950 1.77566765578635 -0.00000000000000 0.00000000000000 -1.00000000000000
-0.06362573099415 0.16748538011696 1.74970760233918 0.00000000000000 -0.00000000000000 -1.00000000000000
-0.03988405797101 0.16602898550725 1.73449275362319 -0.00000000000000 0.00000000000000 -1.00000000000000
-0.01655172413793 0.16459770114943 1.71954022988506 0.00000000000000 -0.00000000000000 -1.00000000000000
0.00640000000000 0.16365714285714 1.70971428571429 -0.00000000000000 0.00000000000000 1.00000000000000
0.02917378917379 0.16319088319088 1.70484330484330 0.00000000000000 -0.00000000000000 -1.00000000000000
0.05196581196581 0.16319088319088 1.70484330484330 0.00000000000000 -0.00000000000000 -1.00000000000000
0.07454545454545 0.16272727272727 1.70000000000000 0.00000000000000 -0.00000000000000 -1.00000000000000
0.09727272727273 0.16272727272727 1.70000000000000 0.00000000000000 -0.00000000000000 -1.00000000000000
0.12034188034188 0.16319088319088 1.70484330484330 0.00000000000000 -0.00000000000000 -1.00000000000000
0.14395415472779 0.16412607449857 1.71461318051576 0.00000000000000 -0.00000000000000 -1.00000000000000
0.16783861671470 0.16507204610951 1.72449567723343 0.00000000000000 -0.00000000000000 -1.00000000000000
0.19255813953488 0.16651162790698 1.73953488372093 -0.00000000000000 0.00000000000000 1.00000000000000
0.21835294117647 0.16847058823529 1.76000000000000 -0.00000000000000 0.00000000000000 -1.00000000000000
0.30215827338129 0.20604316546763 2.15251798561151 0.97177858948077 0.19812961533103 -0.12802745235122
0.26512968299712 0.16507204610951 1.72449567723343 0.00000000000000 0.00000000000000 -1.00000000000000
0.28901734104046 0.16554913294798 1.72947976878613 0.00000000000000 0.00000000000000 -1.00000000000000
-0.29788235294118 0.16894117647059 1.76000000000000 0.00000000000000 0.00000000000000 -1.00000000000000
-0.27516224188791 0.16943952802360 1.76519174041298 0.00000000000000 0.00000000000000 -1.00000000000000
-0.25305637982196 0.17044510385757 1.77566765578635 0.46516707883294 0.77527846472156 -0.42727378916687
-0.26108108108108 0.19405405405405 2.02162162162162 0.00000000000000 0.00000000000000 -1.00000000000000
-0.23405405405405 0.19405405405405 2.02162162162162 0.00000000000000 0.00000000000000 -1.00000000000000
-0.20702702702703 0.19405405405405 2.02162162162162 0.00000000000000 0.00000000000000 -1.00000000000000
-0.16594594594595 0.19405405405405 2.02162162162162 0.00000000000000 -0.00000000000000 1.00000000000000
-0.13891891891892 0.19405405405405 2.02162162162162 0.00000000000000 -0.00000000000000 1.00000000000000
-0.09916167664671 0.17197604790419 1.79161676646707 0.00000000000000 0.00000000000000 -1.00000000000000
-0.07388235294118 0.16894117647059 1.76000000000000 0.00000000000000 0.00000000000000 1.00000000000000
-0.04976744186047 0.16697674418605 1.73953488372093 0.00000000000000 -0.00000000000000 1.00000000000000
-0.02628242074928 0.16553314121037 1.72449567723343 0.00000000000000 -0.00000000000000 1.00000000000000
-0.00320916905444 0.16458452722063 1.71461318051576 0.00000000000000 -0.00000000000000 1.00000000000000
0.01965714285714 0.16411428571429 1.70971428571429 0.00000000000000 -0.00000000000000 1.00000000000000
0.04239316239316 0.16364672364672 1.70484330484330 0.00000000000000 -0.00000000000000 1.00000000000000
0.06500000000000 0.16318181818182 1.70000000000000 0.00000000000000 -0.00000000000000 1.00000000000000
0.08772727272727 0.16318181818182 1.70000000000000 0.00000000000000 -0.00000000000000 1.00000000000000
0.11076923076923 0.16364672364672 1.70484330484330 0.00000000000000 -0.00000000000000 1.00000000000000
0.13394285714286 0.16411428571429 1.70971428571429 0.00000000000000 -0.00000000000000 1.00000000000000
0.15770114942529 0.16505747126437 1.71954022988506 0.00000000000000 -0.00000000000000 1.00000000000000
0.18173410404624 0.16601156069364 1.72947976878613 0.00000000000000 -0.00000000000000 1.00000000000000
0.20725146198830 0.16795321637427 1.74970760233918 0.00000000000000 -0.00000000000000 1.00000000000000
0.23546268656716 0.17146268656716 1.78626865671642 -0.93463497949029 0.16993363263460 0.31237800116653
0.25618497109827 0.16601156069364 1.72947976878613 0.00000000000000 0.00000000000000 -1.00000000000000
0.27850144092219 0.16553314121037 1.72449567723343 0.00000000000000 0.00000000000000 -1.00000000000000
-0.33864077669903 0.18640776699029 1.93656957928803 0.98505282007780 0.00000000000000 0.17225255196013
-0.28507374631268 0.16991150442478 1.76519174041298 0.00000000000000 -0.00000000000000 1.00000000000000
-0.26224852071006 0.17041420118343 1.77041420118343 0.00000000000000 -0.00000000000000 1.00000000000000
-0.27616438356164 0.19726027397260 2.04931506849315 0.60963857281235 0.79253014465605 0.01538766878970
-0.24540540540541 0.19459459459459 2.02162162162162 0.00000000000000 -0.00000000000000 1.00000000000000
-0.21837837837838 0.19459459459459 2.02162162162162 0.00000000000000 -0.00000000000000 1.00000000000000
-0.26189054726368 0.28656716417910 2.97711442786070 0.00000000000000 0.00000000000000 1.00000000000000
-0.15081081081081 0.19459459459459 2.02162162162162 0.00000000000000 -0.00000000000000 -1.00000000000000
-0.11136778115502 0.17507598784195 1.81884498480243 -0.91761069804642 0.15293511634107 -0.36688071224922
-0.08473372781065 0.17041420118343 1.77041420118343 0.00000000000000 -0.00000000000000 -1.00000000000000
-0.06017492711370 0.16793002915452 1.74460641399417 0.00000000000000 0.00000000000000 1.00000000000000
-0.03653179190751 0.16647398843931 1.72947976878613 0.00000000000000 -0.00000000000000 -1.00000000000000
-0.01333333333333 0.16551724137931 1.71954022988506 0.00000000000000 -0.00000000000000 -1.00000000000000
0.00960000000000 0.16457142857143 1.70971428571429 0.00000000000000 -0.00000000000000 -1.00000000000000
0.03236467236467 0.16410256410256 1.70484330484330 0.00000000000000 -0.00000000000000 -1.00000000000000
0.05515669515670 0.16410256410256 1.70484330484330 0.00000000000000 -0.00000000000000 -1.00000000000000
0.07772727272727 0.16363636363636 1.70000000000000 0.00000000000000 -0.00000000000000 -1.00000000000000
0.10045454545455 0.16363636363636 1.70000000000000 -0.00000000000000 0.00000000000000 -1.00000000000000
0.12353276353276 0.16410256410256 1.70484330484330 0.00000000000000 -0.00000000000000 -1.00000000000000
0.14716332378223 0.16504297994269 1.71461318051576 0.00000000000000 -0.00000000000000 -1.00000000000000
0.17106628242075 0.16599423631124 1.72449567723343 0.00000000000000 -0.00000000000000 -1.00000000000000
0.19581395348837 0.16744186046512 1.73953488372093 0.00000000000000 -0.00000000000000 -1.00000000000000
0.22230088495575 0.16991150442478 1.76519174041298 0.00000000000000 -0.00000000000000 -1.00000000000000
0.25872340425532 0.17507598784195 1.81884498480243 -0.92810768141433 -0.37124307256573 -0.02819065043012
0.26835734870317 0.16599423631124 1.72449567723343 0.00000000000000 -0.00000000000000 -1.00000000000000
0.29225433526012 0.16647398843931 1.72947976878613 0.00000000000000 0.00000000000000 -1.00000000000000
-0.29458823529412 0.16988235294118 1.76000000000000 0.00000000000000 0.00000000000000 -1.00000000000000
-0.27185840707965 0.17038348082596 1.76519174041298 0.00000000000000 0.00000000000000 -1.00000000000000
-0.25122388059701 0.17241791044776 1.78626865671642 0.64426258993280 0.76140124264785 -0.07206845986559
-0.25729729729730 0.19513513513514 2.02162162162162 0.00000000000000 -0.00000000000000 -1.00000000000000
-0.23027027027027 0.19513513513514 2.02162162162162 0.00000000000000 -0.00000000000000 -1.00000000000000
-0.20324324324324 0.19513513513514 2.02162162162162 0.00000000000000 -0.00000000000000 -1.00000000000000
-0.16324324324324 0.19513513513514 2.02162162162162 0.00000000000000 0.00000000000000 1.00000000000000
-0.13621621621622 0.19513513513514 2.02162162162162 0.00000000000000 0.00000000000000 1.00000000000000
-0.09647761194030 0.17241791044776 1.78626865671642 0.00000000000000 0.00000000000000 1.00000000000000
-0.07131964809384 0.16938416422287 1.75483870967742 0.00000000000000 0.00000000000000 1.00000000000000
-0.04744186046512 0.16790697674419 1.73953488372093 -0.00000000000000 0.00000000000000 -1.00000000000000
-0.02397694524496 0.16645533141210 1.72449567723343 0.00000000000000 0.00000000000000 1.00000000000000
-0.00091690544413 0.16550143266476 1.71461318051576 0.00000000000000 0.00000000000000 1.00000000000000
0.02194285714286 0.16502857142857 1.70971428571429 0.00000000000000 -0.00000000000000 1.00000000000000
0.04467236467236 0.16455840455840 1.70484330484330 0.00000000000000 0.00000000000000 1.00000000000000
0.06727272727273 0.16409090909091 1.70000000000000 0.00000000000000 0.00000000000000 1.00000000000000
0.09000000000000 0.16409090909091 1.70000000000000 0.00000000000000 0.00000000000000 1.00000000000000
0.11304843304843 0.16455840455840 1.70484330484330 0.00000000000000 0.00000000000000 1.00000000000000
0.13622857142857 0.16502857142857 1.70971428571429 0.00000000000000 0.00000000000000 1.00000000000000
0.16000000000000 0.16597701149425 1.71954022988506 0.00000000000000 0.00000000000000 1.00000000000000
0.18404624277457 0.16693641618497 1.72947976878613 -0.00000000000000 0.00000000000000 -1.00000000000000
0.20959064327485 0.16888888888889 1.74970760233918 -0.00000000000000 0.00000000000000 -1.00000000000000
0.24900000000000 0.18050000000000 1.87000000000000 0.99125103311125 0.00000000000000 -0.13199011082605
0.25775216138329 0.16645533141210 1.72449567723343 0.00000000000000 0.00000000000000 1.00000000000000
0.28161849710983 0.16693641618497 1.72947976878613 0.00000000000000 0.00000000000000 -1.00000000000000
-0.30541176470588 0.17035294117647 1.76000000000000 0.00000000000000 0.00000000000000 1.00000000000000
-0.28271386430678 0.17085545722714 1.76519174041298 0.00000000000000 0.00000000000000 1.00000000000000
-0.25988165680473 0.17136094674556 1.77041420118343 0.00000000000000 0.00000000000000 1.00000000000000
-0.26972972972973 0.19567567567568 2.02162162162162 0.00000000000000 0.00000000000000 1.00000000000000
-0.24270270270270 0.19567567567568 2.02162162162162 0.00000000000000 0.00000000000000 1.00000000000000
-0.21567567567568 0.19567567567568 2.02162162162162 0.00000000000000 0.00000000000000 1.00000000000000
-0.23008849557522 0.25628318584071 2.64778761061947 0.74013204371361 0.55509903278521 0.37956504273869
-0.14864864864865 0.19567567567568 2.02162162162162 0.00000000000000 -0.00000000000000 1.00000000000000
-0.10909090909091 0.17551515151515 1.81333333333333 0.00000000000000 0.00000000000000 1.00000000000000
-0.08284023668639 0.17136094674556 1.77041420118343 -0.00000000000000 0.00000000000000 -1.00000000000000
-0.05830903790087 0.16886297376093 1.74460641399417 0.00000000000000 -0.00000000000000 1.00000000000000
-0.03468208092486 0.16739884393064 1.72947976878613 0.00000000000000 -0.00000000000000 1.00000000000000
-0.01149425287356 0.16643678160920 1.71954022988506 0.00000000000000 -0.00000000000000 1.00000000000000
0.01142857142857 0.16548571428571 1.70971428571429 0.00000000000000 -0.00000000000000 1.00000000000000
0.03418803418803 0.16501424501424 1.70484330484330 0.00000000000000 -0.00000000000000 1.00000000000000
0.05698005698006 0.16501424501424 1.70484330484330 0.00000000000000 -0.00000000000000 1.00000000000000
0.07954545454545 0.16454545454545 1.70000000000000 0.00000000000000 -0.00000000000000 1.00000000000000
0.10256410256410 0.16501424501424 1.70484330484330 0.00000000000000 0.00000000000000 1.00000000000000
0.12535612535613 0.16501424501424 1.70484330484330 0.00000000000000 -0.00000000000000 1.00000000000000
0.14899713467049 0.16595988538682 1.71461318051576 0.00000000000000 -0.00000000000000 1.00000000000000
0.17291066282421 0.16691642651297 1.72449567723343 0.00000000000000 -0.00000000000000 1.00000000000000
0.19767441860465 0.16837209302326 1.73953488372093 -0.00000000000000 0.00000000000000 -1.00000000000000
0.22418879056047 0.17085545722714 1.76519174041298 -0.00000000000000 0.00000000000000 -1.00000000000000
0.25831325301205 0.17445783132530 1.80240963855422 -0.95632878136861 -0.28689863441059 -0.05589665016234
0.27020172910663 0.16691642651297 1.72449567723343 0.00000000000000 -0.00000000000000 1.00000000000000
0.29325648414986 0.16691642651297 1.72449567723343 0.00000000000000 -0.00000000000000 1.00000000000000
-0.29356932153392 0.17132743362832 1.76519174041298 0.00000000000000 -0.00000000000000 1.00000000000000
-0.27076923076923 0.17183431952663 1.77041420118343 0.00000000000000 -0.00000000000000 1.00000000000000
-0.26855305466238 0.18675241157556 1.92411575562701 0.68689995989303 0.68689995989305 -0.23735393444787
-0.25513513513514 0.19621621621622 2.02162162162162 0.00000000000000 -0.00000000000000 1.00000000000000
-0.22810810810811 0.19621621621622 2.02162162162162 0.00000000000000 -0.00000000000000 1.00000000000000
-0.20108108108108 0.19621621621622 2.02162162162162 0.00000000000000 -0.00000000000000 1.00000000000000
-0.16162162162162 0.19621621621622 2.02162162162162 0.00000000000000 -0.00000000000000 1.00000000000000
-0.13459459459459 0.19621621621622 2.02162162162162 0.00000000000000 -0.00000000000000 1.00000000000000
-0.09504477611940 0.17337313432836 1.78626865671642 0.00000000000000 -0.00000000000000 1.00000000000000
-0.06991202346041 0.17032258064516 1.75483870967742 0.00000000000000 -0.00000000000000 1.00000000000000
-0.04591304347826 0.16834782608696 1.73449275362319 nan nan nan
-0.02259365994236 0.16737752161383 1.72449567723343 0.00000000000000 -0.00000000000000 1.00000000000000
0.00045845272206 0.16641833810888 1.71461318051576 0.00000000000000 -0.00000000000000 1.00000000000000
0.02331428571429 0.16594285714286 1.70971428571429 0.00000000000000 0.00000000000000 1.00000000000000
0.04603988603989 0.16547008547009 1.70484330484330 0.00000000000000 -0.00000000000000 1.00000000000000
0.06863636363636 0.16500000000000 1.70000000000000 0.00000000000000 -0.00000000000000 1.00000000000000
0.09136363636364 0.16500000000000 1.70000000000000 0.00000000000000 -0.00000000000000 1.00000000000000
0.11441595441595 0.16547008547009 1.70484330484330 0.00000000000000 -0.00000000000000 1.00000000000000
0.13760000000000 0.16594285714286 1.70971428571429 0.00000000000000 -0.00000000000000 1.00000000000000
0.16137931034483 0.16689655172414 1.71954022988506 0.00000000000000 -0.00000000000000 1.00000000000000
0.18597101449275 0.16834782608696 1.73449275362319 nan nan nan
0.21161290322581 0.17032258064516 1.75483870967742 nan nan nan
0.29255474452555 0.21197080291971 2.18394160583942 0.88413616456604 -0.46380913551005 -0.05642985312635
0.25913544668588 0.16737752161383 1.72449567723343 0.00000000000000 0.00000000000000 1.00000000000000
0.28300578034682 0.16786127167630 1.72947976878613 0.00000000000000 0.00000000000000 1.00000000000000
-0.30400000000000 0.17129411764706 1.76000000000000 0.00000000000000 0.00000000000000 1.00000000000000
-0.28129793510324 0.17179941002950 1.76519174041298 0.00000000000000 0.00000000000000 1.00000000000000
-0.25846153846154 0.17230769230769 1.77041420118343 0.00000000000000 0.00000000000000 1.00000000000000
-0.26810810810811 0.19675675675676 2.02162162162162 0.00000000000000 0.00000000000000 1.00000000000000
-0.24108108108108 0.19675675675676 2.02162162162162 0.00000000000000 0.00000000000000 1.00000000000000
-0.21405405405405 0.19675675675676 2.02162162162162 0.00000000000000 0.00000000000000 1.00000000000000
-0.19211895910781 0.21650557620818 2.22453531598513 -0.16801077471654 0.32762101069726 -0.92975096285449
-0.14756756756757 0.19675675675676 2.02162162162162 -0.00000000000000 0.00000000000000 -1.00000000000000
-0.10779456193353 0.17595166163142 1.80785498489426 0.00000000000000 0.00000000000000 -1.00000000000000
-0.08165191740413 0.17179941002950 1.76519174041298 0.00000000000000 0.00000000000000 -1.00000000000000
-0.05737609329446 0.16979591836735 1.74460641399417 -0.00000000000000 0.00000000000000 -1.00000000000000
-0.03375722543353 0.16832369942197 1.72947976878613 -0.00000000000000 0.00000000000000 -1.00000000000000
-0.01057471264368 0.16735632183908 1.71954022988506 -0.00000000000000 0.00000000000000 -1.00000000000000
0.01234285714286 0.16640000000000 1.70971428571429 -0.00000000000000 0.00000000000000 -1.00000000000000
0.03509971509972 0.16592592592593 1.70484330484330 -0.00000000000000 0.00000000000000 -1.00000000000000
0.05789173789174 0.16592592592593 1.70484330484330 -0.00000000000000 0.00000000000000 -1.00000000000000
0.08045454545455 0.16545454545455 1.70000000000000 -0.00000000000000 0.00000000000000 -1.00000000000000
0.10347578347578 0.16592592592593 1.70484330484330 -0.00000000000000 0.00000000000000 -1.00000000000000
0.12626780626781 0.16592592592593 1.70484330484330 -0.00000000000000 0.00000000000000 -1.00000000000000
0.14991404011461 0.16687679083095 1.71461318051576 -0.00000000000000 0.00000000000000 -1.00000000000000
0.17383285302594 0.16783861671470 1.72449567723343 -0.00000000000000 0.00000000000000 -1.00000000000000
0.19918367346939 0.16979591836735 1.74460641399417 0.00000000000000 0.00000000000000 -1.00000000000000
0.22579881656805 0.17230769230769 1.77041420118343 -0.91331544906433 0.36532617962574 0.17997686790385
0.25849849849850 0.17489489489489 1.79699699699700 -0.82982594664603 -0.55321729776404 -0.07307201740519
0.27112391930836 0.16783861671470 1.72449567723343 -0.00000000000000 0.00000000000000 -1.00000000000000
0.29417867435159 0.16783861671470 1.72449567723343 -0.00000000000000 0.00000000000000 -1.00000000000000
-0.29262536873156 0.17227138643068 1.76519174041298 -0.00000000000000 0.00000000000000 -1.00000000000000
-0.26982248520710 0.17278106508876 1.77041420118343 -0.00000000000000 0.00000000000000 -1.00000000000000
-0.29928057553957 0.21007194244604 2.15251798561151 0.56405501978118 0.82438810583403 -0.04718247152304
-0.25405405405405 0.19729729729730 2.02162162162162 -0.00000000000000 0.00000000000000 -1.00000000000000
-0.22702702702703 0.19729729729730 2.02162162162162 -0.00000000000000 0.00000000000000 -1.00000000000000
-0.20000000000000 0.19729729729730 2.02162162162162 -0.00000000000000 0.00000000000000 -1.00000000000000
-0.16162162162162 0.19729729729730 2.02162162162162 0.00000000000000 -0.00000000000000 -1.00000000000000
-0.13459459459459 0.19729729729730 2.02162162162162 0.00000000000000 -0.00000000000000 -1.00000000000000
-0.09504477611940 0.17432835820896 1.78626865671642 0.00000000000000 -0.00000000000000 -1.00000000000000
-0.06991202346041 0.17126099706745 1.75483870967742 0.00000000000000 -0.00000000000000 -1.00000000000000
-0.04591304347826 0.16927536231884 1.73449275362319 nan nan nan
-0.02259365994236 0.16829971181556 1.72449567723343 0.00000000000000 -0.00000000000000 -1.00000000000000
0.00045845272206 0.16733524355301 1.71461318051576 0.00000000000000 -0.00000000000000 -1.00000000000000
0.02324786324786 0.16638176638177 1.70484330484330 -0.55282035991078 0.82923053986617 0.08225789579956
0.04603988603989 0.16638176638177 1.70484330484330 0.00000000000000 -0.00000000000000 -1.00000000000000
0.06863636363636 0.16590909090909 1.70000000000000 0.00000000000000 -0.00000000000000 -1.00000000000000
0.09136363636364 0.16590909090909 1.70000000000000 0.00000000000000 -0.00000000000000 -1.00000000000000
0.11441595441595 0.16638176638177 1.70484330484330 0.00000000000000 -0.00000000000000 -1.00000000000000
0.13760000000000 0.16685714285714 1.70971428571429 0.00000000000000 -0.00000000000000 -1.00000000000000
0.16137931034483 0.16781609195402 1.71954022988506 0.00000000000000 -0.00000000000000 -1.00000000000000
0.18597101449275 0.16927536231884 1.73449275362319 nan nan nan
0.21161290322581 0.17126099706745 1.75483870967742 nan nan nan
0.29688888888889 0.21629629629630 2.21629629629630 -0.88413616456604 0.46380913551005 0.05642985312635
0.25867435158501 0.16829971181556 1.72449567723343 0.00000000000000 -0.00000000000000 -1.00000000000000
0.28172910662824 0.16829971181556 1.72449567723343 0.00000000000000 0.00000000000000 1.00000000000000
-0.30447058823529 0.17223529411765 1.76000000000000 0.00000000000000 -0.00000000000000 -1.00000000000000
-0.28176991150442 0.17274336283186 1.76519174041298 0.00000000000000 -0.00000000000000 -1.00000000000000
-0.25893491124260 0.17325443786982 1.77041420118343 0.00000000000000 -0.00000000000000 -1.00000000000000
-0.26864864864865 0.19783783783784 2.02162162162162 0.00000000000000 -0.00000000000000 -1.00000000000000
-0.24162162162162 0.19783783783784 2.02162162162162 0.00000000000000 -0.00000000000000 -1.00000000000000
-0.21459459459459 0.19783783783784 2.02162162162162 0.00000000000000 -0.00000000000000 -1.00000000000000
-0.23221238938053 0.25911504424779 2.64778761061947 -0.74013204371361 -0.55509903278521 -0.37956504273869
-0.15027027027027 0.19783783783784 2.02162162162162 0.00000000000000 0.00000000000000 1.00000000000000
-0.11088145896657 0.17799392097264 1.81884498480243 0.97354681906812 -0.16225780317802 0.16086950111874
-0.08426035502959 0.17325443786982 1.77041420118343 0.00000000000000 -0.00000000000000 -1.00000000000000
-0.05970845481050 0.17072886297376 1.74460641399417 0.00000000000000 0.00000000000000 1.00000000000000
-0.03606936416185 0.16924855491329 1.72947976878613 0.00000000000000 0.00000000000000 1.00000000000000
-0.01287356321839 0.16827586206897 1.71954022988506 0.00000000000000 0.00000000000000 1.00000000000000
0.01005714285714 0.16731428571429 1.70971428571429 0.00000000000000 0.00000000000000 1.00000000000000
0.03282051282051 0.16683760683761 1.70484330484330 0.00000000000000 0.00000000000000 1.00000000000000
0.05561253561254 0.16683760683761 1.70484330484330 0.00000000000000 0.00000000000000 1.00000000000000
0.07818181818182 0.16636363636364 1.70000000000000 0.00000000000000 0.00000000000000 1.00000000000000
0.10090909090909 0.16636363636364 1.70000000000000 -0.00000000000000 0.00000000000000 -1.00000000000000
0.12398860398860 0.16683760683761 1.70484330484330 0.00000000000000 0.00000000000000 1.00000000000000
0.14762177650430 0.16779369627507 1.71461318051576 0.00000000000000 0.00000000000000 1.00000000000000
0.17152737752161 0.16876080691643 1.72449567723343 0.00000000000000 0.00000000000000 1.00000000000000
0.19627906976744 0.17023255813953 1.73953488372093 0.00000000000000 -0.00000000000000 -1.00000000000000
0.22277286135693 0.17274336283186 1.76519174041298 0.00000000000000 -0.00000000000000 -1.00000000000000
0.25793939393939 0.17745454545455 1.81333333333333 0.92810768141433 0.37124307256573 0.02819065043012
0.26758620689655 0.16827586206897 1.71954022988506 0.00000000000000 -0.00000000000000 1.00000000000000
0.29141210374640 0.16876080691643 1.72449567723343 -0.00000000000000 0.00000000000000 1.00000000000000
-0.29545722713864 0.17321533923304 1.76519174041298 -0.00000000000000 0.00000000000000 1.00000000000000
-0.27266272189349 0.17372781065089 1.77041420118343 -0.00000000000000 0.00000000000000 1.00000000000000
-0.29222222222222 0.20388888888889 2.07777777777778 0.39523053077848 -0.79046106155696 0.46793604018370
-0.25729729729730 0.19837837837838 2.02162162162162 0.00000000000000 0.00000000000000 -1.00000000000000
-0.23027027027027 0.19837837837838 2.02162162162162 0.00000000000000 0.00000000000000 -1.00000000000000
-0.20324324324324 0.19837837837838 2.02162162162162 0.00000000000000 0.00000000000000 -1.00000000000000
-0.16648648648649 0.19837837837838 2.02162162162162 0.00000000000000 -0.00000000000000 1.00000000000000
-0.13945945945946 0.19837837837838 2.02162162162162 0.00000000000000 -0.00000000000000 1.00000000000000
-0.09964071856287 0.17580838323353 1.79161676646707 0.00000000000000 0.00000000000000 -1.00000000000000
-0.07435294117647 0.17270588235294 1.76000000000000 0.00000000000000 0.00000000000000 1.00000000000000
-0.05023255813953 0.17069767441860 1.73953488372093 0.00000000000000 -0.00000000000000 1.00000000000000
-0.02674351585014 0.16922190201729 1.72449567723343 0.00000000000000 -0.00000000000000 1.00000000000000
-0.00366762177650 0.16825214899713 1.71461318051576 0.00000000000000 0.00000000000000 -1.00000000000000
0.01920000000000 0.16777142857143 1.70971428571429 0.00000000000000 -0.00000000000000 1.00000000000000
0.04193732193732 0.16729344729345 1.70484330484330 0.00000000000000 -0.00000000000000 1.00000000000000
0.06454545454545 0.16681818181818 1.70000000000000 0.00000000000000 0.00000000000000 -1.00000000000000
0.08727272727273 0.16681818181818 1.70000000000000 0.00000000000000 -0.00000000000000 1.00000000000000
0.11031339031339 0.16729344729345 1.70484330484330 0.00000000000000 -0.00000000000000 1.00000000000000
0.13348571428571 0.16777142857143 1.70971428571429 0.00000000000000 -0.00000000000000 1.00000000000000
0.15724137931034 0.16873563218391 1.71954022988506 0.00000000000000 0.00000000000000 -1.00000000000000
0.18127167630058 0.16971098265896 1.72947976878613 0.00000000000000 -0.00000000000000 1.00000000000000
0.20678362573099 0.17169590643275 1.74970760233918 0.00000000000000 0.00000000000000 -1.00000000000000
0.23428571428571 0.17476190476190 1.78095238095238 0.93463497949029 -0.16993363263460 -0.31237800116653
0.25526011560694 0.16971098265896 1.72947976878613 0.00000000000000 0.00000000000000 -1.00000000000000
0.27757925072046 0.16922190201729 1.72449567723343 0.00000000000000 0.00000000000000 1.00000000000000
0.30063400576369 0.16922190201729 1.72449567723343 0.00000000000000 0.00000000000000 1.00000000000000
-0.28601769911504 0.17368731563422 1.76519174041298 0.00000000000000 0.00000000000000 1.00000000000000
-0.26319526627219 0.17420118343195 1.77041420118343 0.00000000000000 0.00000000000000 -1.00000000000000
-0.27351351351351 0.19891891891892 2.02162162162162 0.00000000000000 0.00000000000000 1.00000000000000
-0.24648648648649 0.19891891891892 2.02162162162162 0.00000000000000 0.00000000000000 1.00000000000000
-0.21945945945946 0.19891891891892 2.02162162162162 0.00000000000000 0.00000000000000 1.00000000000000
-0.27921568627451 0.28862745098039 2.93333333333333 0.00000000000000 0.00000000000000 1.00000000000000
-0.15567567567568 0.19891891891892 2.02162162162162 0.00000000000000 0.00000000000000 -1.00000000000000
-0.12166134185304 0.18811501597444 1.91182108626198 0.91981232017083 -0.38503771542034 -0.07544039611400
-0.08925816023739 0.17471810089021 1.77566765578635 0.00000000000000 0.00000000000000 -1.00000000000000
-0.06456140350877 0.17216374269006 1.74970760233918 0.00000000000000 0.00000000000000 -1.00000000000000
-0.04081159420290 0.17066666666667 1.73449275362319 0.00000000000000 0.00000000000000 -1.00000000000000
-0.01747126436782 0.16919540229885 1.71954022988506 0.00000000000000 0.00000000000000 -1.00000000000000
0.00550143266476 0.16871060171920 1.71461318051576 0.00000000000000 0.00000000000000 -1.00000000000000
0.02826210826211 0.16774928774929 1.70484330484330 0.00000000000000 0.00000000000000 -1.00000000000000
0.05105413105413 0.16774928774929 1.70484330484330 0.00000000000000 0.00000000000000 -1.00000000000000
0.07363636363636 0.16727272727273 1.70000000000000 0.00000000000000 0.00000000000000 -1.00000000000000
0.09636363636364 0.16727272727273 1.70000000000000 0.00000000000000 0.00000000000000 -1.00000000000000
0.11943019943020 0.16774928774929 1.70484330484330 0.00000000000000 0.00000000000000 -1.00000000000000
0.14262857142857 0.16822857142857 1.70971428571429 0.00000000000000 0.00000000000000 -1.00000000000000
0.16691642651297 0.16968299711816 1.72449567723343 0.00000000000000 0.00000000000000 -1.00000000000000
0.19107246376812 0.17066666666667 1.73449275362319 0.00000000000000 0.00000000000000 -1.00000000000000
0.21741176470588 0.17317647058824 1.76000000000000 0.00000000000000 0.00000000000000 -1.00000000000000
0.34163934426230 0.24131147540984 2.45245901639344 -0.80663118860452 0.01260361232195 0.59092070070941
0.26328530259366 0.16968299711816 1.72449567723343 0.00000000000000 0.00000000000000 -1.00000000000000
0.28634005763689 0.16968299711816 1.72449567723343 0.00000000000000 0.00000000000000 -1.00000000000000
-0.30064896755162 0.17415929203540 1.76519174041298 0.00000000000000 0.00000000000000 -1.00000000000000
-0.27705014749263 0.17415929203540 1.76519174041298 0.00000000000000 0.00000000000000 1.00000000000000
-0.25571428571429 0.17571428571429 1.78095238095238 0.64426258993280 0.76140124264785 -0.07206845986559
-0.26324324324324 0.19945945945946 2.02162162162162 0.00000000000000 0.00000000000000 -1.00000000000000
-0.23621621621622 0.19945945945946 2.02162162162162 0.00000000000000 0.00000000000000 -1.00000000000000
-0.20918918918919 0.19945945945946 2.02162162162162 0.00000000000000 0.00000000000000 -1.00000000000000
-0.17351351351351 0.19945945945946 2.02162162162162 0.00000000000000 0.00000000000000 1.00000000000000
-0.14648648648649 0.19945945945946 2.02162162162162 -0.00000000000000 0.00000000000000 -1.00000000000000
-0.10682779456193 0.17836858006042 1.80785498489426 -0.00000000000000 0.00000000000000 -1.00000000000000
-0.08070796460177 0.17415929203540 1.76519174041298 -0.00000000000000 0.00000000000000 -1.00000000000000
-0.05644314868805 0.17212827988338 1.74460641399417 -0.00000000000000 0.00000000000000 -1.00000000000000
-0.03283236994220 0.17063583815029 1.72947976878613 -0.00000000000000 0.00000000000000 -1.00000000000000
-0.00965517241379 0.16965517241379 1.71954022988506 -0.00000000000000 0.00000000000000 -1.00000000000000
0.01325714285714 0.16868571428571 1.70971428571429 -0.00000000000000 0.00000000000000 -1.00000000000000
0.03601139601140 0.16820512820513 1.70484330484330 -0.00000000000000 0.00000000000000 -1.00000000000000
0.05880341880342 0.16820512820513 1.70484330484330 -0.00000000000000 0.00000000000000 -1.00000000000000
0.08136363636364 0.16772727272727 1.70000000000000 -0.00000000000000 0.00000000000000 -1.00000000000000
0.10438746438746 0.16820512820513 1.70484330484330 -0.00000000000000 0.00000000000000 -1.00000000000000
0.12754285714286 0.16868571428571 1.70971428571429 0.00000000000000 0.00000000000000 1.00000000000000
0.15083094555874 0.16916905444126 1.71461318051576 -0.00000000000000 0.00000000000000 -1.00000000000000
0.17475504322767 0.17014409221902 1.72449567723343 -0.00000000000000 0.00000000000000 -1.00000000000000
0.20011661807580 0.17212827988338 1.74460641399417 -0.00000000000000 0.00000000000000 1.00000000000000
0.22674556213018 0.17467455621302 1.77041420118343 -0.00000000000000 0.00000000000000 -1.00000000000000
0.25772455089820 0.17676646706587 1.79161676646707 -0.89410364865508 -0.44705182432750 -0.02689482900364
0.27112391930836 0.17014409221902 1.72449567723343 0.00000000000000 -0.00000000000000 -1.00000000000000
0.29417867435159 0.17014409221902 1.72449567723343 -0.00000000000000 -0.00000000000000 -1.00000000000000
-0.29262536873156 0.17463126843658 1.76519174041298 -0.00000000000000 -0.00000000000000 -1.00000000000000
-0.26982248520710 0.17514792899408 1.77041420118343 -0.00000000000000 -0.00000000000000 -1.00000000000000
-0.28888888888889 0.20555555555556 2.07777777777778 -0.39523053077848 0.79046106155696 -0.46793604018370
-0.25405405405405 0.20000000000000 2.02162162162162 -0.00000000000000 -0.00000000000000 -1.00000000000000
-0.22702702702703 0.20000000000000 2.02162162162162 -0.00000000000000 -0.00000000000000 -1.00000000000000
-0.20000000000000 0.20000000000000 2.02162162162162 -0.00000000000000 -0.00000000000000 -1.00000000000000
-0.16486486486486 0.20000000000000 2.02162162162162 -0.00000000000000 0.00000000000000 -1.00000000000000
-0.13783783783784 0.20000000000000 2.02162162162162 -0.00000000000000 0.00000000000000 -1.00000000000000
-0.09820359281437 0.17724550898204 1.79161676646707 0.00000000000000 0.00000000000000 1.00000000000000
-0.07272727272727 0.17360703812317 1.75483870967742 0.00000000000000 0.00000000000000 -1.00000000000000
-0.04883720930233 0.17209302325581 1.73953488372093 -0.00000000000000 0.00000000000000 -1.00000000000000
-0.02536023054755 0.17060518731988 1.72449567723343 -0.00000000000000 0.00000000000000 -1.00000000000000
-0.00229226361032 0.16962750716332 1.71461318051576 -0.00000000000000 0.00000000000000 -1.00000000000000
0.02057142857143 0.16914285714286 1.70971428571429 -0.00000000000000 0.00000000000000 -1.00000000000000
0.04330484330484 0.16866096866097 1.70484330484330 -0.00000000000000 0.00000000000000 -1.00000000000000
0.06590909090909 0.16818181818182 1.70000000000000 -0.00000000000000 0.00000000000000 -1.00000000000000
0.08863636363636 0.16818181818182 1.70000000000000 -0.00000000000000 0.00000000000000 -1.00000000000000
0.11168091168091 0.16866096866097 1.70484330484330 -0.00000000000000 0.00000000000000 -1.00000000000000
0.13485714285714 0.16914285714286 1.70971428571429 -0.00000000000000 0.00000000000000 -1.00000000000000
0.15862068965517 0.17011494252874 1.71954022988506 -0.00000000000000 0.00000000000000 -1.00000000000000
0.18265895953757 0.17109826589595 1.72947976878613 -0.00000000000000 0.00000000000000 -1.00000000000000
0.20818713450292 0.17309941520468 1.74970760233918 -0.00000000000000 0.00000000000000 -1.00000000000000
0.23641791044776 0.17671641791045 1.78626865671642 0.93463497949029 -0.16993363263460 -0.31237800116653
0.25618497109827 0.17109826589595 1.72947976878613 0.00000000000000 0.00000000000000 1.00000000000000
0.27850144092219 0.17060518731988 1.72449567723343 -0.00000000000000 0.00000000000000 -1.00000000000000
-0.34084690553746 0.19335504885993 1.94918566775244 -0.98505282007780 -0.00000000000000 -0.17225255196013
-0.28507374631268 0.17510324483776 1.76519174041298 -0.00000000000000 0.00000000000000 -1.00000000000000
-0.26224852071006 0.17562130177515 1.77041420118343 0.00000000000000 0.00000000000000 1.00000000000000
-0.27243243243243 0.20054054054054 2.02162162162162 -0.00000000000000 0.00000000000000 -1.00000000000000
-0.24540540540541 0.20054054054054 2.02162162162162 -0.00000000000000 0.00000000000000 -1.00000000000000
-0.21837837837838 0.20054054054054 2.02162162162162 -0.00000000000000 0.00000000000000 -1.00000000000000
-0.27064676616915 0.29532338308458 2.97711442786070 0.00000000000000 -0.00000000000000 -1.00000000000000
-0.15675675675676 0.20054054054054 2.02162162162162 -0.00000000000000 -0.00000000000000 1.00000000000000
-0.12800000000000 0.19786666666667 1.99466666666667 0.94881150128718 -0.26814238079855 0.16690236261017
-0.09020771513353 0.17614243323442 1.77566765578635 -0.00000000000000 -0.00000000000000 1.00000000000000
-0.06549707602339 0.17356725146199 1.74970760233918 -0.00000000000000 -0.00000000000000 1.00000000000000
-0.04173913043478 0.17205797101449 1.73449275362319 -0.00000000000000 -0.00000000000000 1.00000000000000
-0.01839080459770 0.17057471264368 1.71954022988506 -0.00000000000000 0.00000000000000 1.00000000000000
