0.000000000000000000e+00 -0.000000000000000000e+00 -1.482307657695025593e-20
-0.000000000000000000e+00 0.000000000000000000e+00 1.931235119739804773e-19
0.000000000000000000e+00 0.000000000000000000e+00 -1.075404326822101939e-05
-0.000000000000000000e+00 0.000000000000000000e+00 1.197055990423551797e-05
-0.000000000000000000e+00 0.000000000000000000e+00 2.244637310223895899e-20
0.000000000000000000e+00 0.000000000000000000e+00 1.431751322692141943e-05
0.000000000000000000e+00 -0.000000000000000000e+00 1.441376514571415301e-05
3.895016263552894358e-05 1.198466542631663738e-05 1.279298945139394837e-05
0.000000000000000000e+00 0.000000000000000000e+00 -1.234520273137612989e-05
-0.000000000000000000e+00 0.000000000000000000e+00 -1.397604362969595559e-20
0.000000000000000000e+00 -0.000000000000000000e+00 0.000000000000000000e+00
0.000000000000000000e+00 -0.000000000000000000e+00 8.936197593532868577e-20
-0.000000000000000000e+00 0.000000000000000000e+00 8.936197593532868577e-20
-0.000000000000000000e+00 0.000000000000000000e+00 8.936197593532868577e-20
-0.000000000000000000e+00 0.000000000000000000e+00 -1.441376514571415979e-05
-0.000000000000000000e+00 0.000000000000000000e+00 -8.851494298807438543e-20
0.000000000000000000e+00 -0.000000000000000000e+00 0.000000000000000000e+00
-0.000000000000000000e+00 0.000000000000000000e+00 1.795709848179116719e-19
0.000000000000000000e+00 -0.000000000000000000e+00 0.000000000000000000e+00
-0.000000000000000000e+00 0.000000000000000000e+00 1.791474683442845217e-19
-0.000000000000000000e+00 0.000000000000000000e+00 -1.312901068244165526e-20
-0.000000000000000000e+00 0.000000000000000000e+00 1.431485680859767573e-19
-0.000000000000000000e+00 0.000000000000000000e+00 -1.312901068244165526e-20
0.000000000000000000e+00 -0.000000000000000000e+00 -1.270549420881450509e-20
0.000000000000000000e+00 -0.000000000000000000e+00 -1.312901068244165526e-20
0.000000000000000000e+00 -0.000000000000000000e+00 -9.275010772434588713e-20
0.000000000000000000e+00 -0.000000000000000000e+00 -1.041850525122789417e-19
0.000000000000000000e+00 -0.000000000000000000e+00 -1.482307657695025593e-20
-0.000000000000000000e+00 0.000000000000000000e+00 0.000000000000000000e+00
-2.483455951707212142e-04 -5.353943999784413358e-04 -1.663522246476405869e-04
0.000000000000000000e+00 0.000000000000000000e+00 1.439956010332310576e-20
0.000000000000000000e+00 0.000000000000000000e+00 1.431751322692142112e-05
0.000000000000000000e+00 0.000000000000000000e+00 1.441376514571409372e-05
1.832123003913255498e-05 -6.107076679710883565e-06 -3.853663359389933114e-07
-0.000000000000000000e+00 0.000000000000000000e+00 -1.397604362969595559e-20
0.000000000000000000e+00 -0.000000000000000000e+00 4.150461441546071661e-20
-0.000000000000000000e+00 0.000000000000000000e+00 -5.548065804515667221e-20
-0.000000000000000000e+00 0.000000000000000000e+00 -1.482307657695025593e-20
-0.000000000000000000e+00 0.000000000000000000e+00 7.453889935837842984e-20
-0.000000000000000000e+00 0.000000000000000000e+00 -1.041850525122789417e-19
-0.000000000000000000e+00 0.000000000000000000e+00 -1.482307657695025593e-20
0.000000000000000000e+00 -0.000000000000000000e+00 6.310395457044537526e-20
1.292139597224361365e-04 -7.383654841282160004e-05 2.418936656224788637e-05
-0.000000000000000000e+00 0.000000000000000000e+00 -1.524659305057740610e-20
-0.000000000000000000e+00 0.000000000000000000e+00 1.643243917673342658e-19
0.000000000000000000e+00 -0.000000000000000000e+00 1.943940613948619278e-19
0.000000000000000000e+00 -0.000000000000000000e+00 1.694065894508600678e-19
0.000000000000000000e+00 -0.000000000000000000e+00 1.694065894508600678e-19
-0.000000000000000000e+00 0.000000000000000000e+00 -1.829591166069288732e-19
-0.000000000000000000e+00 0.000000000000000000e+00 -1.829591166069288732e-19
0.000000000000000000e+00 -0.000000000000000000e+00 -1.312901068244165526e-20
0.000000000000000000e+00 -0.000000000000000000e+00 7.919758056827708170e-20
-0.000000000000000000e+00 0.000000000000000000e+00 -1.185846126156020475e-19
-0.000000000000000000e+00 0.000000000000000000e+00 -1.190081290892291976e-19
1.465903175429449933e-05 -4.886343918098189314e-06 7.042083881964857097e-07
-1.505440996851518065e-05 5.018136656171776012e-06 -5.219398821526587058e-07
-1.185389468756333842e-04 1.629910519539958999e-04 -2.685747061730983233e-05
0.000000000000000000e+00 -0.000000000000000000e+00 1.441376514571409372e-05
-0.000000000000000000e+00 0.000000000000000000e+00 5.082197683525802034e-21
-2.035348372704782972e-04 -1.515684958397178186e-04 3.211642637323670847e-04
0.000000000000000000e+00 -0.000000000000000000e+00 -3.472835083742631390e-20
0.000000000000000000e+00 -0.000000000000000000e+00 -1.397604362969595559e-20
0.000000000000000000e+00 -0.000000000000000000e+00 2.752857078576476102e-20
5.031364953530587580e-05 4.312598531597654629e-05 -1.568025464318417581e-05
0.000000000000000000e+00 -0.000000000000000000e+00 7.453889935837842984e-20
-0.000000000000000000e+00 0.000000000000000000e+00 -1.441376514571415979e-05
0.000000000000000000e+00 -0.000000000000000000e+00 -1.041850525122789417e-19
0.000000000000000000e+00 0.000000000000000000e+00 -1.038952605904172737e-05
-8.010483745966491152e-04 -3.667958346837272253e-03 6.248876238251585991e-04
0.000000000000000000e+00 -0.000000000000000000e+00 3.438953765852459377e-19
0.000000000000000000e+00 -0.000000000000000000e+00 1.643243917673342658e-19
-0.000000000000000000e+00 0.000000000000000000e+00 1.943940613948619278e-19
-0.000000000000000000e+00 0.000000000000000000e+00 1.694065894508600678e-19
0.000000000000000000e+00 -0.000000000000000000e+00 2.994261468543951699e-19
-0.000000000000000000e+00 0.000000000000000000e+00 0.000000000000000000e+00
0.000000000000000000e+00 -0.000000000000000000e+00 7.835054762102278136e-20
-0.000000000000000000e+00 0.000000000000000000e+00 1.702536223981143682e-19
0.000000000000000000e+00 -0.000000000000000000e+00 -2.625802136488331051e-20
-5.245837355212338866e-04 1.522985038610031162e-04 -2.583856177606085644e-05
0.000000000000000000e+00 -0.000000000000000000e+00 1.486542822431297095e-19
-0.000000000000000000e+00 0.000000000000000000e+00 -1.431751322692148380e-05
-1.427737845834338322e-05 4.759126152781127740e-06 -5.268123602276705200e-07
-1.750322461390955834e-04 5.834408204636512671e-05 -4.118405791508224608e-06
-0.000000000000000000e+00 0.000000000000000000e+00 -1.482307657695025593e-20
0.000000000000000000e+00 -0.000000000000000000e+00 1.441376514571416826e-05
0.000000000000000000e+00 0.000000000000000000e+00 -2.882753029142832296e-05
-0.000000000000000000e+00 0.000000000000000000e+00 -1.249999999999995486e-05
-0.000000000000000000e+00 0.000000000000000000e+00 -1.397604362969595559e-20
-0.000000000000000000e+00 0.000000000000000000e+00 2.752857078576476102e-20
-1.843792577186591892e-05 6.145975257288612535e-06 1.291640789366017436e-06
-0.000000000000000000e+00 0.000000000000000000e+00 -1.041850525122789417e-19
-0.000000000000000000e+00 0.000000000000000000e+00 7.453889935837842984e-20
-0.000000000000000000e+00 0.000000000000000000e+00 7.453889935837842984e-20
0.000000000000000000e+00 -0.000000000000000000e+00 -1.012204371968888905e-19
-2.179487179487184961e-04 1.525641025641023482e-03 -2.207459207459210233e-04
0.000000000000000000e+00 -0.000000000000000000e+00 1.943940613948619278e-19
-0.000000000000000000e+00 0.000000000000000000e+00 1.643243917673342658e-19
-0.000000000000000000e+00 0.000000000000000000e+00 -1.524659305057740610e-20
0.000000000000000000e+00 -0.000000000000000000e+00 -1.312901068244165526e-20
-0.000000000000000000e+00 0.000000000000000000e+00 1.694065894508600678e-19
0.000000000000000000e+00 -0.000000000000000000e+00 -1.312901068244165526e-20
0.000000000000000000e+00 -0.000000000000000000e+00 -1.312901068244165526e-20
0.000000000000000000e+00 -0.000000000000000000e+00 6.564505341220827628e-20
-0.000000000000000000e+00 0.000000000000000000e+00 -1.120408949266488403e-05
-3.966436776553071436e-05 4.327021938057872333e-05 -7.379751341460837890e-05
-0.000000000000000000e+00 0.000000000000000000e+00 7.453889935837842984e-20
0.000000000000000000e+00 0.000000000000000000e+00 1.431751322692136522e-05
0.000000000000000000e+00 -0.000000000000000000e+00 -1.270549420881450509e-20
-2.419761019408754208e-04 1.814820764556563488e-04 -2.777225715457716428e-05
0.000000000000000000e+00 0.000000000000000000e+00 -1.441376514571414623e-05
0.000000000000000000e+00 -0.000000000000000000e+00 1.441376514571414115e-05
0.000000000000000000e+00 0.000000000000000000e+00 6.013933925505532407e-20
0.000000000000000000e+00 0.000000000000000000e+00 -1.249999999999995317e-05
0.000000000000000000e+00 -0.000000000000000000e+00 6.776263578034402713e-21
0.000000000000000000e+00 -0.000000000000000000e+00 -9.656175598699023865e-20
0.000000000000000000e+00 0.000000000000000000e+00 -5.590417451878382238e-20
-0.000000000000000000e+00 0.000000000000000000e+00 8.936197593532868577e-20
-0.000000000000000000e+00 0.000000000000000000e+00 8.936197593532868577e-20
0.000000000000000000e+00 -0.000000000000000000e+00 8.936197593532868577e-20
5.916017563177084832e-05 -1.972005854392380923e-05 -7.176203122534788756e-06
-0.000000000000000000e+00 0.000000000000000000e+00 1.355252715606880543e-20
0.000000000000000000e+00 -0.000000000000000000e+00 1.791474683442845217e-19
0.000000000000000000e+00 -0.000000000000000000e+00 0.000000000000000000e+00
0.000000000000000000e+00 -0.000000000000000000e+00 0.000000000000000000e+00
3.499002525624782495e-04 1.084202172485504434e-19 6.109220987253995085e-05
0.000000000000000000e+00 -0.000000000000000000e+00 -1.312901068244165526e-20
0.000000000000000000e+00 0.000000000000000000e+00 -1.107266435986156621e-05
-0.000000000000000000e+00 0.000000000000000000e+00 7.835054762102278136e-20
-0.000000000000000000e+00 0.000000000000000000e+00 6.564505341220827628e-20
0.000000000000000000e+00 -0.000000000000000000e+00 -1.312901068244165526e-20
-4.116473559558513670e-05 -5.880676513655074222e-06 1.601305069921462633e-05
-0.000000000000000000e+00 0.000000000000000000e+00 -1.482307657695025593e-20
-0.000000000000000000e+00 0.000000000000000000e+00 -1.431751322692129068e-05
0.000000000000000000e+00 -0.000000000000000000e+00 -5.124549330888517051e-20
0.000000000000000000e+00 -0.000000000000000000e+00 1.197055990423558573e-05
-0.000000000000000000e+00 0.000000000000000000e+00 7.623296525288703052e-21
-0.000000000000000000e+00 0.000000000000000000e+00 -3.684593320556206475e-20
0.000000000000000000e+00 0.000000000000000000e+00 -1.441376514571420891e-05
0.000000000000000000e+00 0.000000000000000000e+00 -1.257849274279930356e-05
-0.000000000000000000e+00 0.000000000000000000e+00 -3.472835083742631390e-20
-0.000000000000000000e+00 0.000000000000000000e+00 -1.397604362969595559e-20
-0.000000000000000000e+00 0.000000000000000000e+00 -2.795208725939191119e-20
-0.000000000000000000e+00 0.000000000000000000e+00 -1.046085689859060919e-19
-0.000000000000000000e+00 0.000000000000000000e+00 7.411538288475127967e-20
0.000000000000000000e+00 0.000000000000000000e+00 1.441376514571415979e-05
-2.179487179487184961e-04 1.525641025641023482e-03 -2.207459207459210233e-04
-1.355291517056273825e-05 4.517638390187534242e-06 1.794976109042549658e-06
0.000000000000000000e+00 -0.000000000000000000e+00 -3.006966962752766204e-20
0.000000000000000000e+00 -0.000000000000000000e+00 1.495013151903840098e-19
0.000000000000000000e+00 -0.000000000000000000e+00 3.290723000082956817e-19
0.000000000000000000e+00 -0.000000000000000000e+00 -2.092171379718121837e-19
0.000000000000000000e+00 -0.000000000000000000e+00 1.431485680859767573e-19
-0.000000000000000000e+00 0.000000000000000000e+00 -1.100781727023325429e-05
0.000000000000000000e+00 -0.000000000000000000e+00 -9.147955830346443662e-20
0.000000000000000000e+00 -0.000000000000000000e+00 -1.270549420881450509e-20
0.000000000000000000e+00 -0.000000000000000000e+00 0.000000000000000000e+00
-0.000000000000000000e+00 0.000000000000000000e+00 7.962109704190423187e-20
-0.000000000000000000e+00 0.000000000000000000e+00 -1.482307657695025593e-20
0.000000000000000000e+00 0.000000000000000000e+00 1.431751322692130592e-05
0.000000000000000000e+00 -0.000000000000000000e+00 -1.270549420881450509e-20
-1.153913518905528906e-03 4.156276181839830717e-04 2.046217351738387354e-04
0.000000000000000000e+00 0.000000000000000000e+00 1.441376514571416826e-05
0.000000000000000000e+00 -0.000000000000000000e+00 1.441376514571415301e-05
-0.000000000000000000e+00 0.000000000000000000e+00 2.964615315390051187e-21
0.000000000000000000e+00 0.000000000000000000e+00 -1.265772714686918028e-05
0.000000000000000000e+00 -0.000000000000000000e+00 2.752857078576476102e-20
0.000000000000000000e+00 -0.000000000000000000e+00 -1.397604362969595559e-20
0.000000000000000000e+00 -0.000000000000000000e+00 0.000000000000000000e+00
-0.000000000000000000e+00 0.000000000000000000e+00 8.936197593532868577e-20
0.000000000000000000e+00 -0.000000000000000000e+00 8.936197593532868577e-20
0.000000000000000000e+00 -0.000000000000000000e+00 8.936197593532868577e-20
2.541093410874026079e-05 2.178080066463464429e-05 -1.621815500469610336e-05
-0.000000000000000000e+00 0.000000000000000000e+00 7.580944877925988035e-20
-0.000000000000000000e+00 0.000000000000000000e+00 -1.524659305057740610e-20
0.000000000000000000e+00 -0.000000000000000000e+00 3.735415297391464495e-19
-0.000000000000000000e+00 0.000000000000000000e+00 1.643243917673342658e-19
-0.000000000000000000e+00 0.000000000000000000e+00 -1.524659305057740610e-20
-0.000000000000000000e+00 0.000000000000000000e+00 1.694065894508600678e-19
0.000000000000000000e+00 -0.000000000000000000e+00 1.431485680859767573e-19
-0.000000000000000000e+00 0.000000000000000000e+00 1.567010952420455627e-19
0.000000000000000000e+00 -0.000000000000000000e+00 1.575481281892998631e-19
-0.000000000000000000e+00 0.000000000000000000e+00 -1.312901068244165526e-20
-0.000000000000000000e+00 0.000000000000000000e+00 -1.312901068244165526e-20
-0.000000000000000000e+00 0.000000000000000000e+00 -1.482307657695025593e-20
0.000000000000000000e+00 0.000000000000000000e+00 1.431751322692138046e-05
0.000000000000000000e+00 0.000000000000000000e+00 0.000000000000000000e+00
1.569246690970744216e-04 -2.540685118714543830e-04 1.607808520784492095e-05
-0.000000000000000000e+00 0.000000000000000000e+00 -1.482307657695025593e-20
0.000000000000000000e+00 -0.000000000000000000e+00 1.441376514571421230e-05
0.000000000000000000e+00 0.000000000000000000e+00 4.295253968076418035e-05
-3.932072278718555449e-05 -1.209868393451865886e-05 -1.291469811165300970e-05
-0.000000000000000000e+00 0.000000000000000000e+00 -1.242223969099682143e-05
-0.000000000000000000e+00 0.000000000000000000e+00 -1.397604362969595559e-20
0.000000000000000000e+00 -0.000000000000000000e+00 -1.355252715606880543e-20
-0.000000000000000000e+00 0.000000000000000000e+00 -1.482307657695025593e-20
-0.000000000000000000e+00 0.000000000000000000e+00 -1.046085689859060919e-19
-0.000000000000000000e+00 0.000000000000000000e+00 7.411538288475127967e-20
-0.000000000000000000e+00 0.000000000000000000e+00 7.411538288475127967e-20
-0.000000000000000000e+00 0.000000000000000000e+00 1.456896669277396583e-19
2.340897411884431821e-04 -7.106295714649187099e-05 -2.963788038146459959e-05
-0.000000000000000000e+00 0.000000000000000000e+00 1.791474683442845217e-19
-0.000000000000000000e+00 0.000000000000000000e+00 0.000000000000000000e+00
-0.000000000000000000e+00 0.000000000000000000e+00 0.000000000000000000e+00
0.000000000000000000e+00 -0.000000000000000000e+00 0.000000000000000000e+00
-0.000000000000000000e+00 0.000000000000000000e+00 1.562775787684184126e-19
0.000000000000000000e+00 -0.000000000000000000e+00 -2.625802136488331051e-20
0.000000000000000000e+00 -0.000000000000000000e+00 -2.625802136488331051e-20
-0.000000000000000000e+00 0.000000000000000000e+00 6.564505341220827628e-20
0.000000000000000000e+00 -0.000000000000000000e+00 0.000000000000000000e+00
0.000000000000000000e+00 0.000000000000000000e+00 1.431751322692142451e-05
-0.000000000000000000e+00 0.000000000000000000e+00 -1.431751322692138046e-05
1.465903175429449764e-05 -4.886343918098190161e-06 7.042083881964852862e-07
8.470329472543003391e-21 -6.945670167485262780e-20 3.366955965335843848e-20
4.687607099562701013e-05 1.442340646019296933e-05 1.650496625615258784e-05
-0.000000000000000000e+00 0.000000000000000000e+00 -2.964615315390051187e-20
0.000000000000000000e+00 -0.000000000000000000e+00 1.441376514571422586e-05
-1.690862054464324768e-04 5.636206848214365522e-05 -1.102225050477015524e-04
-0.000000000000000000e+00 0.000000000000000000e+00 0.000000000000000000e+00
-0.000000000000000000e+00 0.000000000000000000e+00 6.776263578034402713e-21
-0.000000000000000000e+00 0.000000000000000000e+00 0.000000000000000000e+00
0.000000000000000000e+00 0.000000000000000000e+00 -1.441376514571421230e-05
0.000000000000000000e+00 0.000000000000000000e+00 1.441376514571408694e-05
4.356160132926909206e-05 -1.452053377642303351e-05 -4.313452680643315332e-06
-0.000000000000000000e+00 0.000000000000000000e+00 -1.194316455628563478e-19
0.000000000000000000e+00 -0.000000000000000000e+00 6.310395457044537526e-20
-1.700560411953940193e-04 -5.895276094773652109e-03 -4.765055150750439287e-04
-0.000000000000000000e+00 0.000000000000000000e+00 1.643243917673342658e-19
-0.000000000000000000e+00 0.000000000000000000e+00 -1.524659305057740610e-20
0.000000000000000000e+00 -0.000000000000000000e+00 1.943940613948619278e-19
0.000000000000000000e+00 -0.000000000000000000e+00 1.694065894508600678e-19
-0.000000000000000000e+00 0.000000000000000000e+00 -1.312901068244165526e-20
0.000000000000000000e+00 -0.000000000000000000e+00 0.000000000000000000e+00
0.000000000000000000e+00 -0.000000000000000000e+00 0.000000000000000000e+00
-0.000000000000000000e+00 0.000000000000000000e+00 -9.147955830346443662e-20
-0.000000000000000000e+00 0.000000000000000000e+00 6.606856988583542645e-20
-2.782608695652176922e-04 9.275362318840605551e-05 -2.142757498256250159e-05
0.000000000000000000e+00 0.000000000000000000e+00 1.431751322692126188e-05
-2.185463055028272775e-05 7.284876850093926640e-06 -1.098575011618408632e-06
-1.427737845834338322e-05 4.759126152781126893e-06 -5.268123602276707317e-07
-2.300061430331473851e-04 -8.762138782215147517e-05 -1.820955178737093672e-05
-0.000000000000000000e+00 0.000000000000000000e+00 7.623296525288703052e-21
-0.000000000000000000e+00 0.000000000000000000e+00 -1.482307657695025593e-20
-6.890312216343780563e-04 -3.704468933518153986e-05 3.281723655222530510e-05
0.000000000000000000e+00 0.000000000000000000e+00 -1.242223969099676553e-05
0.000000000000000000e+00 -0.000000000000000000e+00 -3.472835083742631390e-20
0.000000000000000000e+00 -0.000000000000000000e+00 2.752857078576476102e-20
-3.758841191472215296e-05 1.252947063824066118e-05 2.633198909534012988e-06
-0.000000000000000000e+00 0.000000000000000000e+00 7.411538288475127967e-20
-0.000000000000000000e+00 0.000000000000000000e+00 -1.046085689859060919e-19
-0.000000000000000000e+00 0.000000000000000000e+00 -1.046085689859060919e-19
1.336040467469077467e-05 -4.453468224897015241e-06 -1.650402930403101017e-06
8.724247400109496611e-04 -3.900602079912443066e-04 -1.537471264367818650e-04
0.000000000000000000e+00 -0.000000000000000000e+00 -1.524659305057740610e-20
0.000000000000000000e+00 -0.000000000000000000e+00 1.643243917673342658e-19
0.000000000000000000e+00 -0.000000000000000000e+00 -1.524659305057740610e-20
-0.000000000000000000e+00 0.000000000000000000e+00 1.562775787684184126e-19
0.000000000000000000e+00 -0.000000000000000000e+00 1.562775787684184126e-19
-0.000000000000000000e+00 0.000000000000000000e+00 1.439956010332310576e-19
-0.000000000000000000e+00 0.000000000000000000e+00 -9.147955830346443662e-20
-0.000000000000000000e+00 0.000000000000000000e+00 6.564505341220827628e-20
0.000000000000000000e+00 0.000000000000000000e+00 -1.127068125985080079e-05
1.518055638640235347e-04 -5.060185462134070842e-05 6.496385159475096948e-05
-0.000000000000000000e+00 0.000000000000000000e+00 -1.431751322692134997e-05
3.892293588797609205e-04 1.128765140751315441e-03 3.548595739145102746e-04
-0.000000000000000000e+00 0.000000000000000000e+00 -4.531626267810506814e-20
1.421275043322312807e-04 -2.842550086644588751e-04 9.207886176390124111e-05
0.000000000000000000e+00 -0.000000000000000000e+00 2.244637310223895899e-20
-0.000000000000000000e+00 0.000000000000000000e+00 1.101142831430590441e-20
0.000000000000000000e+00 0.000000000000000000e+00 2.863502645384279820e-05
-0.000000000000000000e+00 0.000000000000000000e+00 -1.736417541871315695e-20
-0.000000000000000000e+00 0.000000000000000000e+00 -1.397604362969595559e-20
-0.000000000000000000e+00 0.000000000000000000e+00 -9.656175598699023865e-20
-1.814802590177798914e-05 6.049341967259412441e-06 1.230895517936922288e-06
-0.000000000000000000e+00 0.000000000000000000e+00 -1.441376514571417503e-05
-0.000000000000000000e+00 0.000000000000000000e+00 0.000000000000000000e+00
-0.000000000000000000e+00 0.000000000000000000e+00 1.791474683442845217e-19
-7.475646285543940126e-05 4.530694718511400917e-05 -2.010041500451923509e-05
-2.940454747174127940e-05 9.801515823913638958e-06 3.959917221907266820e-06
0.000000000000000000e+00 -0.000000000000000000e+00 -3.006966962752766204e-20
0.000000000000000000e+00 -0.000000000000000000e+00 -2.092171379718121837e-19
0.000000000000000000e+00 -0.000000000000000000e+00 -3.006966962752766204e-20
0.000000000000000000e+00 0.000000000000000000e+00 -1.100781727023319161e-05
-0.000000000000000000e+00 0.000000000000000000e+00 1.431485680859767573e-19
-0.000000000000000000e+00 0.000000000000000000e+00 1.439956010332310576e-19
-0.000000000000000000e+00 0.000000000000000000e+00 -9.147955830346443662e-20
0.000000000000000000e+00 -0.000000000000000000e+00 -1.270549420881450509e-20
-0.000000000000000000e+00 0.000000000000000000e+00 -1.312901068244165526e-20
1.532592644961764097e-05 -5.108642149872399041e-06 -1.015718262739379971e-05
0.000000000000000000e+00 0.000000000000000000e+00 1.431751322692134997e-05
9.190072259301040848e-05 6.541169078678985309e-04 -8.528063279314185719e-06
-0.000000000000000000e+00 0.000000000000000000e+00 1.905824131322175763e-20
0.000000000000000000e+00 0.000000000000000000e+00 -1.197055990423558403e-05
0.000000000000000000e+00 0.000000000000000000e+00 1.441376514571424957e-05
0.000000000000000000e+00 -0.000000000000000000e+00 -2.583450489125616034e-20
0.000000000000000000e+00 -0.000000000000000000e+00 -1.397604362969595559e-20
-0.000000000000000000e+00 0.000000000000000000e+00 -5.031397097119717698e-06
0.000000000000000000e+00 -0.000000000000000000e+00 -1.397604362969595559e-20
0.000000000000000000e+00 -0.000000000000000000e+00 -1.397604362969595559e-20
0.000000000000000000e+00 -0.000000000000000000e+00 0.000000000000000000e+00
-0.000000000000000000e+00 0.000000000000000000e+00 -1.441376514571420553e-05
-0.000000000000000000e+00 0.000000000000000000e+00 -4.612404846628590865e-06
0.000000000000000000e+00 0.000000000000000000e+00 1.741318913036003194e-06
-1.831542087696658226e-04 3.285328619805917214e-03 1.405999321856544462e-03
-1.355291517056273825e-05 4.517638390187534242e-06 1.794976109042549235e-06
-0.000000000000000000e+00 0.000000000000000000e+00 -3.006966962752766204e-20
-0.000000000000000000e+00 0.000000000000000000e+00 -3.006966962752766204e-20
-0.000000000000000000e+00 0.000000000000000000e+00 1.495013151903840098e-19
-0.000000000000000000e+00 0.000000000000000000e+00 -2.092171379718121837e-19
-0.000000000000000000e+00 0.000000000000000000e+00 -6.776263578034402713e-21
0.000000000000000000e+00 -0.000000000000000000e+00 4.429065743944587013e-06
-0.000000000000000000e+00 0.000000000000000000e+00 -9.147955830346443662e-20
0.000000000000000000e+00 -0.000000000000000000e+00 1.575481281892998631e-19
0.000000000000000000e+00 -0.000000000000000000e+00 -1.312901068244165526e-20
0.000000000000000000e+00 -0.000000000000000000e+00 1.723712047662501190e-19
-0.000000000000000000e+00 0.000000000000000000e+00 -1.431751322692143976e-05
-2.104700773910141997e-05 -1.683760619128117934e-04 -7.670339986202019114e-06
-0.000000000000000000e+00 0.000000000000000000e+00 -1.075404326822091605e-05
-1.569246690970744487e-04 2.540685118714543830e-04 -1.607808520784492095e-05
0.000000000000000000e+00 0.000000000000000000e+00 -1.574926454961349598e-05
0.000000000000000000e+00 0.000000000000000000e+00 1.441376514571414115e-05
0.000000000000000000e+00 0.000000000000000000e+00 1.441376514571414962e-05
0.000000000000000000e+00 0.000000000000000000e+00 1.265772714686918197e-05
0.000000000000000000e+00 0.000000000000000000e+00 1.234520273137604688e-05
-0.000000000000000000e+00 0.000000000000000000e+00 -1.234520273137605366e-05
0.000000000000000000e+00 0.000000000000000000e+00 0.000000000000000000e+00
0.000000000000000000e+00 0.000000000000000000e+00 1.441376514571415979e-05
0.000000000000000000e+00 0.000000000000000000e+00 1.441376514571414454e-05
-0.000000000000000000e+00 0.000000000000000000e+00 -1.441376514571407000e-05
1.269059681414401366e-04 -1.499797805307930562e-04 -7.992546510803409557e-06
0.000000000000000000e+00 0.000000000000000000e+00 7.623296525288703052e-20
0.000000000000000000e+00 0.000000000000000000e+00 1.451099094196743415e-05
-0.000000000000000000e+00 0.000000000000000000e+00 -1.451099094196722748e-05
0.000000000000000000e+00 0.000000000000000000e+00 1.451099094196728677e-05
-0.000000000000000000e+00 0.000000000000000000e+00 -1.451099094196725628e-05
0.000000000000000000e+00 0.000000000000000000e+00 1.100781727023323058e-05
-0.000000000000000000e+00 0.000000000000000000e+00 -1.100781727023320347e-05
0.000000000000000000e+00 0.000000000000000000e+00 1.107266435986157976e-05
0.000000000000000000e+00 0.000000000000000000e+00 1.113808616353849529e-05
0.000000000000000000e+00 0.000000000000000000e+00 1.120408949266480610e-05
-0.000000000000000000e+00 0.000000000000000000e+00 6.802721088435372764e-06
0.000000000000000000e+00 0.000000000000000000e+00 1.431751322692143976e-05
-1.598940393222030704e-04 8.749757151798369598e-04 -1.138758127644542867e-05
0.000000000000000000e+00 0.000000000000000000e+00 -1.075404326822091605e-05
1.046553050338697654e-05 1.569829575507796776e-05 -2.961549253545015583e-05
0.000000000000000000e+00 0.000000000000000000e+00 1.431751322692141773e-05
-0.000000000000000000e+00 0.000000000000000000e+00 -1.441376514571421230e-05
0.000000000000000000e+00 0.000000000000000000e+00 6.013933925505532407e-20
0.000000000000000000e+00 0.000000000000000000e+00 -1.019017006836554270e-06
-0.000000000000000000e+00 -0.000000000000000000e+00 1.728328382392655711e-05
0.000000000000000000e+00 0.000000000000000000e+00 1.234520273137610956e-05
-0.000000000000000000e+00 0.000000000000000000e+00 -7.499999999999999343e-06
-0.000000000000000000e+00 0.000000000000000000e+00 -1.441376514571421230e-05
0.000000000000000000e+00 0.000000000000000000e+00 1.441376514571421908e-05
0.000000000000000000e+00 0.000000000000000000e+00 1.441376514571414454e-05
-0.000000000000000000e+00 0.000000000000000000e+00 -1.441376514571421908e-05
-0.000000000000000000e+00 0.000000000000000000e+00 -1.038952605904179514e-05
-2.340897411884431821e-04 7.106295714649185744e-05 2.963788038146460298e-05
0.000000000000000000e+00 0.000000000000000000e+00 1.451099094196728677e-05
-0.000000000000000000e+00 0.000000000000000000e+00 -1.451099094196724103e-05
0.000000000000000000e+00 0.000000000000000000e+00 1.451099094196725628e-05
-0.000000000000000000e+00 0.000000000000000000e+00 -1.100781727023325429e-05
0.000000000000000000e+00 0.000000000000000000e+00 1.100781727023328140e-05
-0.000000000000000000e+00 0.000000000000000000e+00 -1.107266435986157807e-05
-0.000000000000000000e+00 0.000000000000000000e+00 -1.107266435986157807e-05
0.000000000000000000e+00 0.000000000000000000e+00 1.120408949266481965e-05
-0.000000000000000000e+00 0.000000000000000000e+00 -1.127068125985080079e-05
-3.605851615048288919e-06 -2.884681292038593866e-05 1.300324083747464347e-05
4.860535763601205896e-05 3.888428610880985316e-04 1.771366375879261060e-05
-1.465903175429449764e-05 4.886343918098190161e-06 -7.042083881964848627e-07
5.093437857760559157e-06 -1.018687571552014253e-05 4.430201430827025028e-06
0.000000000000000000e+00 0.000000000000000000e+00 -1.431751322692144145e-05
-0.000000000000000000e+00 0.000000000000000000e+00 -1.441376514571420553e-05
-0.000000000000000000e+00 0.000000000000000000e+00 -1.441376514571422077e-05
-1.843792577186583760e-05 6.145975257288644722e-06 -1.255323662845650738e-05
-0.000000000000000000e+00 0.000000000000000000e+00 -1.242223969099676553e-05
0.000000000000000000e+00 0.000000000000000000e+00 1.234520273137611973e-05
-0.000000000000000000e+00 0.000000000000000000e+00 -1.242223969099672148e-05
0.000000000000000000e+00 0.000000000000000000e+00 1.441376514571421230e-05
0.000000000000000000e+00 0.000000000000000000e+00 3.482637826072167324e-06
-0.000000000000000000e+00 -0.000000000000000000e+00 5.971582278142817390e-20
0.000000000000000000e+00 0.000000000000000000e+00 1.441376514571420553e-05
0.000000000000000000e+00 0.000000000000000000e+00 1.038952605904174601e-05
8.010483745966492236e-04 3.667958346837272253e-03 -6.248876238251585991e-04
-0.000000000000000000e+00 0.000000000000000000e+00 -1.451099094196724103e-05
0.000000000000000000e+00 0.000000000000000000e+00 1.451099094196724103e-05
-0.000000000000000000e+00 0.000000000000000000e+00 -1.451099094196741891e-05
0.000000000000000000e+00 0.000000000000000000e+00 1.100781727023325429e-05
-0.000000000000000000e+00 0.000000000000000000e+00 -1.100781727023339998e-05
-0.000000000000000000e+00 0.000000000000000000e+00 -1.107266435986146118e-05
-0.000000000000000000e+00 0.000000000000000000e+00 -1.107266435986153911e-05
-0.000000000000000000e+00 0.000000000000000000e+00 -1.113808616353841736e-05
0.000000000000000000e+00 0.000000000000000000e+00 1.127068125985081435e-05
3.605851615048288919e-06 2.884681292038593866e-05 -1.300324083747464347e-05
1.452135578811835986e-05 1.161708463049468789e-04 -9.025372066706124902e-06
2.185463055028272775e-05 -7.284876850093926640e-06 1.098575011618408632e-06
-2.906088751289980087e-05 -4.843481252150049821e-06 2.366053542159944727e-06
1.750322461390955563e-04 -5.834408204636512671e-05 4.118405791508227996e-06
0.000000000000000000e+00 0.000000000000000000e+00 1.441376514571420891e-05
0.000000000000000000e+00 0.000000000000000000e+00 5.188955452457089866e-06
6.516189406700336959e-05 6.516189406700233959e-05 4.996906742892155901e-05
0.000000000000000000e+00 0.000000000000000000e+00 4.472006288758840368e-06
0.000000000000000000e+00 0.000000000000000000e+00 4.444272983295395004e-06
0.000000000000000000e+00 0.000000000000000000e+00 4.472006288758860697e-06
3.758841191472215296e-05 -1.252947063824066118e-05 -7.336775587632983760e-06
0.000000000000000000e+00 0.000000000000000000e+00 1.441376514571423433e-05
0.000000000000000000e+00 0.000000000000000000e+00 5.188955452457067843e-06
-0.000000000000000000e+00 0.000000000000000000e+00 -1.441376514571411405e-05
0.000000000000000000e+00 0.000000000000000000e+00 -9.766154495499285667e-06
-1.232439119870797359e-05 1.725414767819130160e-05 1.263151239114664581e-05
0.000000000000000000e+00 0.000000000000000000e+00 5.223956739108291643e-06
0.000000000000000000e+00 0.000000000000000000e+00 5.223956739108291643e-06
0.000000000000000000e+00 0.000000000000000000e+00 5.223956739108112919e-06
0.000000000000000000e+00 0.000000000000000000e+00 3.962814217284142917e-06
0.000000000000000000e+00 0.000000000000000000e+00 3.962814217283986216e-06
0.000000000000000000e+00 0.000000000000000000e+00 3.986159169550278829e-06
0.000000000000000000e+00 0.000000000000000000e+00 3.986159169550121281e-06
0.000000000000000000e+00 0.000000000000000000e+00 4.009711018873943889e-06
0.000000000000000000e+00 0.000000000000000000e+00 1.127068125985088041e-05
-3.704468933518164828e-04 1.629966330747992579e-04 -3.725467527472878628e-05
-3.195352214960047745e-05 -2.676107480029038597e-04 -1.392626767482558461e-05
-1.107078753427867242e-03 2.087115682691875534e-04 -5.420871725494243090e-05
-0.000000000000000000e+00 0.000000000000000000e+00 -8.220659816116781963e-06
-4.261877435709941558e-05 6.179722281779289695e-04 5.669588467504926680e-05
0.000000000000000000e+00 0.000000000000000000e+00 1.441376514571417165e-05
-0.000000000000000000e+00 0.000000000000000000e+00 -1.095446151074277953e-05
0.000000000000000000e+00 0.000000000000000000e+00 -5.477230755371360966e-06
-0.000000000000000000e+00 0.000000000000000000e+00 -9.500000000000037792e-06
-0.000000000000000000e+00 0.000000000000000000e+00 -9.382354075845824768e-06
-0.000000000000000000e+00 0.000000000000000000e+00 -9.382354075845867120e-06
1.814802590177798914e-05 -6.049341967259412441e-06 -1.094219208783679297e-05
6.759454247654041181e-04 3.943014977798287002e-04 -2.755893356140246562e-04
-0.000000000000000000e+00 0.000000000000000000e+00 -1.095446151074281511e-05
0.000000000000000000e+00 0.000000000000000000e+00 1.441376514571408525e-05
-1.807962889513710174e-04 3.420470331512442822e-05 6.740338594450711842e-06
0.000000000000000000e+00 0.000000000000000000e+00 1.269741822643381514e-05
-0.000000000000000000e+00 0.000000000000000000e+00 -1.102835311589512283e-05
-0.000000000000000000e+00 0.000000000000000000e+00 -1.102835311589542268e-05
-0.000000000000000000e+00 0.000000000000000000e+00 -1.102835311589512283e-05
-1.444534617216587000e-05 -2.407557695361060496e-06 7.755039453479614769e-06
-0.000000000000000000e+00 0.000000000000000000e+00 -8.365941125377487664e-06
-0.000000000000000000e+00 0.000000000000000000e+00 -8.415224913494981886e-06
-0.000000000000000000e+00 0.000000000000000000e+00 -8.415224913494800621e-06
-0.000000000000000000e+00 0.000000000000000000e+00 -8.464945484289224776e-06
-0.000000000000000000e+00 0.000000000000000000e+00 -8.515108014425212726e-06
1.736497039268387248e-04 -1.356638311928370574e-05 7.455489272831461673e-05
-2.104700773910141997e-05 -1.683760619128117934e-04 -7.670339986202024196e-06
-1.045467681831785921e-04 -4.414196878845303394e-04 -7.600295357820275059e-06
0.000000000000000000e+00 0.000000000000000000e+00 8.603234614576778668e-07
1.466574646296733202e-04 -3.167801236000890525e-04 9.975687799981189103e-05
0.000000000000000000e+00 0.000000000000000000e+00 1.145401058153726421e-06
0.000000000000000000e+00 0.000000000000000000e+00 1.153101211657136493e-06
0.000000000000000000e+00 0.000000000000000000e+00 1.153101211657139881e-06
0.000000000000000000e+00 0.000000000000000000e+00 -2.999999999999967042e-06
0.000000000000000000e+00 0.000000000000000000e+00 9.876162185100830729e-07
0.000000000000000000e+00 0.000000000000000000e+00 9.876162185100830729e-07
0.000000000000000000e+00 0.000000000000000000e+00 1.012618171749519345e-06
1.162858399582339099e-04 -2.549343414468971869e-04 -1.855981320600280283e-06
-3.642356115634787880e-06 -1.092706834690408327e-05 -1.252425124253000423e-06
0.000000000000000000e+00 0.000000000000000000e+00 1.153101211657125482e-06
-5.458193979933078114e-04 -3.411371237458194015e-04 1.538035877166308055e-04
1.196759729035129559e-05 -2.393519458070503741e-06 -4.154740192992539980e-06
0.000000000000000000e+00 0.000000000000000000e+00 1.160879275357402237e-06
0.000000000000000000e+00 0.000000000000000000e+00 1.160879275357402237e-06
0.000000000000000000e+00 0.000000000000000000e+00 1.160879275357402237e-06
0.000000000000000000e+00 0.000000000000000000e+00 1.160879275357402237e-06
0.000000000000000000e+00 0.000000000000000000e+00 8.806253816186716387e-07
0.000000000000000000e+00 0.000000000000000000e+00 8.858131487889075346e-07
0.000000000000000000e+00 0.000000000000000000e+00 8.858131487889335809e-07
0.000000000000000000e+00 0.000000000000000000e+00 8.910468930830797249e-07
0.000000000000000000e+00 0.000000000000000000e+00 8.963271594131703343e-07
0.000000000000000000e+00 0.000000000000000000e+00 -2.737357986188413263e-06
2.104700773910141997e-05 1.683760619128117934e-04 7.670339986202025890e-06
1.333744277686943957e-04 5.112686397799978038e-04 3.025590572890098545e-05
0.000000000000000000e+00 0.000000000000000000e+00 -8.603234614576778668e-07
4.828366654092791193e-05 -4.483483321657596304e-04 -4.453052439383890126e-05
0.000000000000000000e+00 0.000000000000000000e+00 -1.145401058153726209e-06
0.000000000000000000e+00 0.000000000000000000e+00 -1.153101211657136493e-06
0.000000000000000000e+00 0.000000000000000000e+00 -1.153101211657139881e-06
-0.000000000000000000e+00 -0.000000000000000000e+00 -3.018838258271824181e-06
0.000000000000000000e+00 0.000000000000000000e+00 -9.876162185100832847e-07
0.000000000000000000e+00 0.000000000000000000e+00 -9.876162185100832847e-07
0.000000000000000000e+00 0.000000000000000000e+00 -1.012618171749519345e-06
-1.162858399582338963e-04 2.549343414468971869e-04 1.855981320600280071e-06
3.642356115634787880e-06 1.092706834690408327e-05 1.252425124253000211e-06
0.000000000000000000e+00 0.000000000000000000e+00 -1.153101211657125270e-06
-4.791800128123031421e-04 -1.849466716117666219e-04 3.590590826842910468e-05
-1.613374430318557866e-05 -1.152410307370393345e-05 4.511039278048786617e-06
0.000000000000000000e+00 0.000000000000000000e+00 -1.160879275357402237e-06
0.000000000000000000e+00 0.000000000000000000e+00 -1.160879275357402237e-06
0.000000000000000000e+00 0.000000000000000000e+00 -1.160879275357402237e-06
0.000000000000000000e+00 0.000000000000000000e+00 -1.160879275357402237e-06
0.000000000000000000e+00 0.000000000000000000e+00 -8.806253816186717445e-07
0.000000000000000000e+00 0.000000000000000000e+00 -8.858131487889076405e-07
0.000000000000000000e+00 0.000000000000000000e+00 -8.858131487889336868e-07
0.000000000000000000e+00 0.000000000000000000e+00 -8.910468930830797249e-07
0.000000000000000000e+00 0.000000000000000000e+00 -8.963271594131704401e-07
0.000000000000000000e+00 0.000000000000000000e+00 1.519274376417226297e-05
2.553344373360888573e-05 8.528170207028284121e-04 -6.384849246434856195e-04
5.423679654856860080e-05 6.616889178925300071e-04 4.075590722462413843e-05
0.000000000000000000e+00 0.000000000000000000e+00 8.603234614576778668e-07
1.368309195804550261e-04 1.520343550893963784e-05 6.075683077984317290e-05
0.000000000000000000e+00 0.000000000000000000e+00 1.145401058153726209e-06
0.000000000000000000e+00 0.000000000000000000e+00 1.153101211657136493e-06
0.000000000000000000e+00 0.000000000000000000e+00 1.153101211657140093e-06
-0.000000000000000000e+00 0.000000000000000000e+00 2.999999999999967042e-06
0.000000000000000000e+00 0.000000000000000000e+00 9.876162185100832847e-07
0.000000000000000000e+00 0.000000000000000000e+00 9.876162185100832847e-07
0.000000000000000000e+00 0.000000000000000000e+00 1.012618171749519345e-06
-2.151768410852716623e-04 -2.604772286821717842e-04 -1.378209786821698701e-04
0.000000000000000000e+00 0.000000000000000000e+00 4.035854240799971584e-06
0.000000000000000000e+00 0.000000000000000000e+00 1.153101211657125270e-06
-7.391304347826106909e-04 -2.463768115942043045e-04 5.362318840579771565e-05
-1.196759729035129390e-05 2.393519458070503741e-06 4.154740192992539133e-06
0.000000000000000000e+00 0.000000000000000000e+00 1.160879275357402237e-06
0.000000000000000000e+00 0.000000000000000000e+00 1.160879275357402237e-06
0.000000000000000000e+00 0.000000000000000000e+00 1.160879275357402237e-06
0.000000000000000000e+00 0.000000000000000000e+00 1.160879275357402237e-06
0.000000000000000000e+00 0.000000000000000000e+00 8.806253816186717445e-07
0.000000000000000000e+00 0.000000000000000000e+00 8.858131487889075346e-07
0.000000000000000000e+00 0.000000000000000000e+00 8.858131487889337926e-07
0.000000000000000000e+00 0.000000000000000000e+00 8.910468930830797249e-07
0.000000000000000000e+00 0.000000000000000000e+00 8.963271594131704401e-07
-0.000000000000000000e+00 0.000000000000000000e+00 2.737357986188412839e-06
-3.662051607508562921e-04 -2.584977605300158108e-04 3.366864213855214012e-05
2.698335326961072531e-04 -3.050292108738604296e-04 2.022810434306967120e-04
0.000000000000000000e+00 0.000000000000000000e+00 -4.110329908058396063e-06
0.000000000000000000e+00 0.000000000000000000e+00 1.073531072079476792e-05
0.000000000000000000e+00 -0.000000000000000000e+00 1.718101587230580208e-06
0.000000000000000000e+00 -0.000000000000000000e+00 1.729651817485691822e-06
0.000000000000000000e+00 -0.000000000000000000e+00 1.729651817485690975e-06
0.000000000000000000e+00 -0.000000000000000000e+00 1.499999999999999191e-06
0.000000000000000000e+00 -0.000000000000000000e+00 1.481424327765155950e-06
0.000000000000000000e+00 -0.000000000000000000e+00 1.481424327765187078e-06
0.000000000000000000e+00 0.000000000000000000e+00 7.642627551274143261e-07
-2.215941835040053081e-03 1.832413440513889439e-03 1.777493450568932640e-06
0.000000000000000000e+00 -0.000000000000000000e+00 4.035854240799972431e-06
0.000000000000000000e+00 -0.000000000000000000e+00 9.287034202859195873e-06
-1.577063591431997148e-04 6.758843963280007140e-05 4.159821478469700345e-05
-4.743384504624081899e-20 -4.829277494812488791e-06 1.153086845686527457e-06
0.000000000000000000e+00 -0.000000000000000000e+00 1.741318913036084509e-06
0.000000000000000000e+00 -0.000000000000000000e+00 1.741318913036084509e-06
0.000000000000000000e+00 -0.000000000000000000e+00 1.741318913036084509e-06
-6.952793238507526744e-04 0.000000000000000000e+00 -1.297606866438032354e-04
0.000000000000000000e+00 -0.000000000000000000e+00 1.320938072427961877e-06
0.000000000000000000e+00 -0.000000000000000000e+00 1.328719723183444629e-06
0.000000000000000000e+00 -0.000000000000000000e+00 1.328719723183405665e-06
0.000000000000000000e+00 -0.000000000000000000e+00 1.336570339624707891e-06
0.000000000000000000e+00 -0.000000000000000000e+00 1.344490739119816594e-06
0.000000000000000000e+00 -0.000000000000000000e+00 1.368678993094199855e-06
1.272504031124723335e-04 3.485554520037299764e-04 -1.173390138907412074e-05
3.538066870104885579e-04 -7.820989923389773260e-04 -1.040881747157019994e-04
2.906088751289980087e-05 4.843481252150049821e-06 -2.366053542159944727e-06
2.479218469734202320e-04 -5.159454653230607576e-04 1.796886952030566395e-04
0.000000000000000000e+00 0.000000000000000000e+00 1.002225925884498987e-05
0.000000000000000000e+00 -0.000000000000000000e+00 -1.354893923697124484e-05
-3.809523809523797161e-04 4.678362573099401306e-05 5.628509777116591311e-05
0.000000000000000000e+00 0.000000000000000000e+00 1.167690530953702191e-05
0.000000000000000000e+00 -0.000000000000000000e+00 -1.160449056749352100e-05
0.000000000000000000e+00 0.000000000000000000e+00 1.167690530953697278e-05
0.000000000000000000e+00 -0.000000000000000000e+00 7.010426386465906702e-06
-2.151768410852716352e-04 -2.604772286821717842e-04 -1.378209786821698701e-04
0.000000000000000000e+00 0.000000000000000000e+00 -6.630331967028491106e-06
0.000000000000000000e+00 0.000000000000000000e+00 -3.627747735491819236e-05
0.000000000000000000e+00 0.000000000000000000e+00 -4.779181987159196354e-06
0.000000000000000000e+00 -0.000000000000000000e+00 7.351136867935279193e-06
0.000000000000000000e+00 0.000000000000000000e+00 -6.675055833305095368e-06
0.000000000000000000e+00 0.000000000000000000e+00 -6.675055833305095368e-06
0.000000000000000000e+00 0.000000000000000000e+00 -6.675055833304765872e-06
0.000000000000000000e+00 0.000000000000000000e+00 -5.063595944307523573e-06
0.000000000000000000e+00 0.000000000000000000e+00 -5.063595944307366872e-06
0.000000000000000000e+00 0.000000000000000000e+00 -5.093425605536265705e-06
0.000000000000000000e+00 0.000000000000000000e+00 -5.093425605536265705e-06
0.000000000000000000e+00 0.000000000000000000e+00 -5.123519635227832720e-06
0.000000000000000000e+00 -0.000000000000000000e+00 7.394699065158862728e-06
1.477850399419022116e-04 -3.994190268700084245e-06 5.956149344269294488e-04
-4.043106651802208648e-04 1.063975434685484212e-05 6.901160878277591212e-04
0.000000000000000000e+00 0.000000000000000000e+00 -8.603234614576811490e-07
0.000000000000000000e+00 0.000000000000000000e+00 -2.753773889347071161e-06
0.000000000000000000e+00 0.000000000000000000e+00 -3.436203174461182438e-06
0.000000000000000000e+00 0.000000000000000000e+00 -3.459303634971398467e-06
5.346327880264620637e-04 7.411954561275953778e-04 1.432575022915482396e-04
0.000000000000000000e+00 0.000000000000000000e+00 -2.038034013673110658e-06
0.000000000000000000e+00 0.000000000000000000e+00 -2.962848655530256842e-06
0.000000000000000000e+00 0.000000000000000000e+00 -2.962848655530249642e-06
0.000000000000000000e+00 0.000000000000000000e+00 -3.000000000000005158e-06
3.630133444105707979e-06 2.904106755284606702e-05 -1.940956643897949542e-05
0.000000000000000000e+00 -0.000000000000000000e+00 3.482637826072169441e-06
0.000000000000000000e+00 0.000000000000000000e+00 -1.153101211657147716e-06
0.000000000000000000e+00 -0.000000000000000000e+00 5.804396376786898953e-07
0.000000000000000000e+00 -0.000000000000000000e+00 4.132231404958478451e-07
7.598730158730123709e-05 8.443033509699423688e-06 -8.472380952381596727e-06
0.000000000000000000e+00 0.000000000000000000e+00 -1.160879275357439718e-06
0.000000000000000000e+00 0.000000000000000000e+00 -1.160879275357379791e-06
0.000000000000000000e+00 0.000000000000000000e+00 -1.160879275357379791e-06
0.000000000000000000e+00 0.000000000000000000e+00 -8.806253816186455924e-07
0.000000000000000000e+00 0.000000000000000000e+00 -8.806253816186976849e-07
0.000000000000000000e+00 0.000000000000000000e+00 -8.858131487889173814e-07
0.000000000000000000e+00 0.000000000000000000e+00 -8.858131487889173814e-07
0.000000000000000000e+00 -0.000000000000000000e+00 2.673140679249226046e-06
0.000000000000000000e+00 0.000000000000000000e+00 -9.016545007880664267e-07
0.000000000000000000e+00 0.000000000000000000e+00 7.406236563542933308e-04
-5.722739761660920656e-05 -2.289095904664295621e-05 7.450272700408263910e-05
0.000000000000000000e+00 0.000000000000000000e+00 4.110329908058396063e-06
-1.368309195804549990e-04 -1.520343550893963275e-05 -6.075683077984317290e-05
0.000000000000000000e+00 -0.000000000000000000e+00 8.590507936152863981e-07
0.000000000000000000e+00 -0.000000000000000000e+00 8.648259087428533226e-07
0.000000000000000000e+00 -0.000000000000000000e+00 8.648259087428533226e-07
0.000000000000000000e+00 -0.000000000000000000e+00 7.500000000000065835e-07
0.000000000000000000e+00 -0.000000000000000000e+00 7.407121638825624106e-07
0.000000000000000000e+00 -0.000000000000000000e+00 7.407121638825417641e-07
0.000000000000000000e+00 -0.000000000000000000e+00 7.642627551274143261e-07
-3.527999313952416343e-04 1.175999771317468229e-04 -4.101535031300921285e-04
0.000000000000000000e+00 0.000000000000000000e+00 -4.035854240799971584e-06
-0.000000000000000000e+00 0.000000000000000000e+00 -9.287034202859195873e-06
-4.349045305098072625e-04 -1.294753945792558687e-04 1.727226263350526201e-05
2.671726755218201385e-05 1.214421252371907795e-05 -8.578879542156554394e-06
0.000000000000000000e+00 0.000000000000000000e+00 -4.063077463750881360e-06
0.000000000000000000e+00 0.000000000000000000e+00 -4.063077463750881360e-06
0.000000000000000000e+00 0.000000000000000000e+00 -4.063077463750881360e-06
5.499893577910721558e-05 -3.379661459544658353e-19 9.602755364641702909e-06
0.000000000000000000e+00 0.000000000000000000e+00 -3.082188835665279320e-06
0.000000000000000000e+00 0.000000000000000000e+00 -1.328719723183444417e-06
0.000000000000000000e+00 0.000000000000000000e+00 -3.100346020761230052e-06
0.000000000000000000e+00 0.000000000000000000e+00 -3.118664125790768449e-06
0.000000000000000000e+00 0.000000000000000000e+00 -3.137145057946173356e-06
0.000000000000000000e+00 0.000000000000000000e+00 -3.193584317219821544e-06
7.894589290720520282e-05 8.120148984741080555e-04 -3.391537270921796333e-05
0.000000000000000000e+00 0.000000000000000000e+00 8.603234614576811490e-07
-0.000000000000000000e+00 0.000000000000000000e+00 2.753773889347071161e-06
-0.000000000000000000e+00 0.000000000000000000e+00 3.436203174461182438e-06
