0.000000000000000000e+00 -0.000000000000000000e+00 8.359183673469395493e-07
0.000000000000000000e+00 -0.000000000000000000e+00 8.407155934679591028e-07
0.000000000000000000e+00 -0.000000000000000000e+00 8.504347681651746643e-07
0.000000000000000000e+00 -0.000000000000000000e+00 8.653326122228540829e-07
0.000000000000000000e+00 -0.000000000000000000e+00 8.910468930831910039e-07
-1.515385432847402730e-04 -2.783360999107463898e-05 1.444519705686462551e-05
0.000000000000000000e+00 0.000000000000000000e+00 6.022264230203696998e-06
0.000000000000000000e+00 0.000000000000000000e+00 2.580970384373024071e-06
0.000000000000000000e+00 0.000000000000000000e+00 2.641876144856080032e-06
0.000000000000000000e+00 0.000000000000000000e+00 2.657439446366961255e-06
0.000000000000000000e+00 0.000000000000000000e+00 2.657439446366856647e-06
0.000000000000000000e+00 0.000000000000000000e+00 2.673140679249232398e-06
0.000000000000000000e+00 0.000000000000000000e+00 2.721088435374188408e-06
-3.185520361990939672e-03 -8.848667672197146200e-05 -1.958536657498567560e-04
0.000000000000000000e+00 0.000000000000000000e+00 2.721088435374162150e-06
0.000000000000000000e+00 0.000000000000000000e+00 2.641876144855975847e-06
0.000000000000000000e+00 0.000000000000000000e+00 8.173072883847951699e-06
0.000000000000000000e+00 0.000000000000000000e+00 2.551304304495504511e-06
0.000000000000000000e+00 0.000000000000000000e+00 2.522146780404119666e-06
-0.000000000000000000e+00 0.000000000000000000e+00 -7.523265306122449379e-06
0.000000000000000000e+00 0.000000000000000000e+00 2.493486254170008657e-06
0.000000000000000000e+00 0.000000000000000000e+00 2.479338842975200679e-06
0.000000000000000000e+00 0.000000000000000000e+00 2.493486254169995952e-06
0.000000000000000000e+00 0.000000000000000000e+00 2.493486254170021363e-06
0.000000000000000000e+00 0.000000000000000000e+00 2.522146780404119242e-06
0.000000000000000000e+00 0.000000000000000000e+00 2.551304304495555757e-06
0.000000000000000000e+00 0.000000000000000000e+00 2.580970384373133338e-06
0.000000000000000000e+00 0.000000000000000000e+00 2.657439446366856647e-06
4.551409670604573032e-05 -2.821873995774899519e-04 5.678990992635518783e-04
-0.000000000000000000e+00 0.000000000000000000e+00 -4.276788399211360369e-06
0.000000000000000000e+00 0.000000000000000000e+00 -2.258349086326428472e-05
-0.000000000000000000e+00 0.000000000000000000e+00 -4.403126908093365075e-06
0.000000000000000000e+00 0.000000000000000000e+00 -1.085121107266445828e-05
-0.000000000000000000e+00 0.000000000000000000e+00 -4.429065743944808935e-06
-0.000000000000000000e+00 0.000000000000000000e+00 -4.455234465415267334e-06
-0.000000000000000000e+00 0.000000000000000000e+00 -4.508272503940338274e-06
-0.000000000000000000e+00 0.000000000000000000e+00 -5.804396376787003985e-06
-2.068076600093714430e-05 -2.585095750117217576e-06 -5.604957603662932200e-06
-0.000000000000000000e+00 0.000000000000000000e+00 -4.429065743944625976e-06
-0.000000000000000000e+00 0.000000000000000000e+00 -4.326663061114122607e-06
-0.000000000000000000e+00 0.000000000000000000e+00 -4.252173840825847487e-06
-0.000000000000000000e+00 0.000000000000000000e+00 -4.203577967340169373e-06
-0.000000000000000000e+00 0.000000000000000000e+00 -4.179591836734716593e-06
-0.000000000000000000e+00 0.000000000000000000e+00 -4.155810423616695354e-06
-0.000000000000000000e+00 0.000000000000000000e+00 -4.132231404958636316e-06
0.000000000000000000e+00 0.000000000000000000e+00 -2.181800472398754515e-05
-0.000000000000000000e+00 0.000000000000000000e+00 -4.155810423616720765e-06
-0.000000000000000000e+00 0.000000000000000000e+00 -4.179591836734697111e-06
-0.000000000000000000e+00 0.000000000000000000e+00 -4.227771171885385882e-06
-0.000000000000000000e+00 0.000000000000000000e+00 -4.301617307288251056e-06
0.000000000000000000e+00 0.000000000000000000e+00 1.232875534266154080e-05
1.024787497130121478e-05 -5.123937485650495579e-06 -5.629481050411400228e-06
0.000000000000000000e+00 0.000000000000000000e+00 -9.622773898225655062e-06
-0.000000000000000000e+00 0.000000000000000000e+00 -5.987503758895977192e-06
-0.000000000000000000e+00 0.000000000000000000e+00 -6.164377671330793268e-06
-0.000000000000000000e+00 0.000000000000000000e+00 -6.164377671330689083e-06
-0.000000000000000000e+00 0.000000000000000000e+00 -6.200692041522598170e-06
-0.000000000000000000e+00 0.000000000000000000e+00 -6.237328251581486077e-06
-0.000000000000000000e+00 0.000000000000000000e+00 -6.274290115892262008e-06
0.000000000000000000e+00 0.000000000000000000e+00 -1.305989184777067617e-05
2.886689626046905053e-05 -2.624263296406366452e-06 6.030192184308866232e-06
-0.000000000000000000e+00 0.000000000000000000e+00 -4.009711018873772788e-06
-0.000000000000000000e+00 0.000000000000000000e+00 -6.092699470458727745e-06
-0.000000000000000000e+00 0.000000000000000000e+00 -5.987503758896080530e-06
-0.000000000000000000e+00 0.000000000000000000e+00 -5.918879640639477724e-06
-0.000000000000000000e+00 0.000000000000000000e+00 -5.851428571428570704e-06
-0.000000000000000000e+00 0.000000000000000000e+00 -5.818134593063388404e-06
-0.000000000000000000e+00 0.000000000000000000e+00 -5.818134593063388404e-06
-0.000000000000000000e+00 0.000000000000000000e+00 -5.785123966942160469e-06
-0.000000000000000000e+00 0.000000000000000000e+00 -5.818134593063388404e-06
-0.000000000000000000e+00 0.000000000000000000e+00 -5.851428571428641008e-06
-0.000000000000000000e+00 0.000000000000000000e+00 -5.918879640639442149e-06
-0.000000000000000000e+00 0.000000000000000000e+00 -5.987503758896028014e-06
-0.000000000000000000e+00 0.000000000000000000e+00 -6.092699470458702334e-06
-2.768189372682822917e-05 2.516535793348100994e-06 7.489049032075567818e-06
9.353516703057053201e-06 4.676758351528597751e-06 6.482437244471908285e-06
-0.000000000000000000e+00 0.000000000000000000e+00 6.201343178856492567e-06
-0.000000000000000000e+00 0.000000000000000000e+00 -5.283752289711977951e-06
-0.000000000000000000e+00 0.000000000000000000e+00 -5.283752289711873766e-06
-0.000000000000000000e+00 0.000000000000000000e+00 -5.314878892733681106e-06
-0.000000000000000000e+00 0.000000000000000000e+00 -5.346281358498530866e-06
-0.000000000000000000e+00 0.000000000000000000e+00 -5.377962956479069016e-06
6.640773764232937989e-04 3.964641053273388824e-04 5.834064715692420067e-05
-0.000000000000000000e+00 0.000000000000000000e+00 -2.617489589530127600e-06
-0.000000000000000000e+00 0.000000000000000000e+00 -5.409927004728392207e-06
-0.000000000000000000e+00 0.000000000000000000e+00 -5.252898327690562774e-06
-0.000000000000000000e+00 0.000000000000000000e+00 -5.161940768746067624e-06
-0.000000000000000000e+00 0.000000000000000000e+00 -5.073325406262398345e-06
-0.000000000000000000e+00 0.000000000000000000e+00 -5.044293560808226626e-06
-0.000000000000000000e+00 0.000000000000000000e+00 -4.986972508340035950e-06
-0.000000000000000000e+00 0.000000000000000000e+00 -4.986972508340030020e-06
-0.000000000000000000e+00 0.000000000000000000e+00 -4.958677685950446250e-06
-0.000000000000000000e+00 0.000000000000000000e+00 -4.986972508340030020e-06
-0.000000000000000000e+00 0.000000000000000000e+00 -5.015510204081694470e-06
-0.000000000000000000e+00 0.000000000000000000e+00 -5.044293560808320647e-06
-0.000000000000000000e+00 0.000000000000000000e+00 -5.102608608990989540e-06
-0.000000000000000000e+00 0.000000000000000000e+00 -5.191995673337015230e-06
-0.000000000000000000e+00 0.000000000000000000e+00 -5.346281358498425833e-06
-1.227067669172927011e-03 -2.715641562923681710e-04 1.456490705153345121e-04
-0.000000000000000000e+00 0.000000000000000000e+00 8.388153749212319231e-06
-0.000000000000000000e+00 -0.000000000000000000e+00 -2.580970384372933862e-06
-0.000000000000000000e+00 -0.000000000000000000e+00 -2.641876144855956365e-06
-0.000000000000000000e+00 -0.000000000000000000e+00 -2.657439446366654206e-06
-0.000000000000000000e+00 -0.000000000000000000e+00 -2.657439446366758391e-06
-0.000000000000000000e+00 -0.000000000000000000e+00 -2.673140679249219693e-06
-0.000000000000000000e+00 -0.000000000000000000e+00 -2.721088435374148598e-06
-1.545737158540355476e-03 -5.945142917462923607e-05 -1.689994302861141657e-04
0.000000000000000000e+00 -0.000000000000000000e+00 -2.721088435374162150e-06
-0.000000000000000000e+00 -0.000000000000000000e+00 -2.641876144855956365e-06
0.000000000000000000e+00 0.000000000000000000e+00 -2.541098841762901017e-20
-0.000000000000000000e+00 -0.000000000000000000e+00 -2.551304304495529922e-06
-0.000000000000000000e+00 -0.000000000000000000e+00 -2.522146780404145077e-06
0.000000000000000000e+00 0.000000000000000000e+00 -9.350573453137586146e-06
-0.000000000000000000e+00 -0.000000000000000000e+00 -2.493486254170040421e-06
-0.000000000000000000e+00 -0.000000000000000000e+00 -2.479338842975219737e-06
-0.000000000000000000e+00 -0.000000000000000000e+00 -2.493486254170039998e-06
-0.000000000000000000e+00 -0.000000000000000000e+00 -2.493486254170065409e-06
-0.000000000000000000e+00 -0.000000000000000000e+00 -2.522146780404144653e-06
-0.000000000000000000e+00 -0.000000000000000000e+00 -2.551304304495517640e-06
-0.000000000000000000e+00 -0.000000000000000000e+00 -2.580970384372985531e-06
0.000000000000000000e+00 -0.000000000000000000e+00 -2.657439446366856647e-06
2.871315039736095751e-04 -1.435657519868079317e-04 5.896944069575659354e-04
0.000000000000000000e+00 0.000000000000000000e+00 -8.343274530454858340e-20
0.000000000000000000e+00 0.000000000000000000e+00 4.276788399211469636e-06
-0.000000000000000000e+00 -0.000000000000000000e+00 1.948175778684890780e-20
0.000000000000000000e+00 0.000000000000000000e+00 -6.522153693858112611e-20
0.000000000000000000e+00 0.000000000000000000e+00 -6.522153693858112611e-20
-0.000000000000000000e+00 -0.000000000000000000e+00 -5.251604272976662102e-20
0.000000000000000000e+00 0.000000000000000000e+00 -3.303428494291771322e-20
-0.000000000000000000e+00 -0.000000000000000000e+00 2.244637310223895899e-20
0.000000000000000000e+00 0.000000000000000000e+00 4.617229842455036332e-06
0.000000000000000000e+00 0.000000000000000000e+00 3.896351557369781560e-20
0.000000000000000000e+00 0.000000000000000000e+00 2.583450489125616034e-20
-0.000000000000000000e+00 -0.000000000000000000e+00 1.948175778684890780e-20
0.000000000000000000e+00 0.000000000000000000e+00 -4.203577967340169373e-06
0.000000000000000000e+00 0.000000000000000000e+00 6.352747104407252543e-21
0.000000000000000000e+00 0.000000000000000000e+00 5.039846036163087017e-20
-0.000000000000000000e+00 -0.000000000000000000e+00 3.811648262644351526e-20
0.000000000000000000e+00 0.000000000000000000e+00 4.132231404958623611e-06
0.000000000000000000e+00 0.000000000000000000e+00 -1.270549420881450509e-20
0.000000000000000000e+00 0.000000000000000000e+00 -3.176373552203626272e-20
0.000000000000000000e+00 0.000000000000000000e+00 -5.124549330888517051e-20
0.000000000000000000e+00 0.000000000000000000e+00 -4.301617307288251056e-06
0.000000000000000000e+00 0.000000000000000000e+00 4.377415273075433826e-06
0.000000000000000000e+00 0.000000000000000000e+00 -5.702829137892558406e-06
0.000000000000000000e+00 0.000000000000000000e+00 8.603234614577327121e-07
0.000000000000000000e+00 0.000000000000000000e+00 -2.566073039526980291e-06
0.000000000000000000e+00 0.000000000000000000e+00 -2.641876144856046997e-06
0.000000000000000000e+00 0.000000000000000000e+00 -2.641876144855838627e-06
0.000000000000000000e+00 0.000000000000000000e+00 -2.657439446366856223e-06
0.000000000000000000e+00 0.000000000000000000e+00 -2.673140679249219693e-06
0.000000000000000000e+00 0.000000000000000000e+00 -2.688981478239488345e-06
0.000000000000000000e+00 0.000000000000000000e+00 1.153101211657163174e-06
0.000000000000000000e+00 0.000000000000000000e+00 -6.542474055548963798e-06
0.000000000000000000e+00 0.000000000000000000e+00 -2.240817898532963423e-06
0.000000000000000000e+00 0.000000000000000000e+00 -2.611156915910916354e-06
0.000000000000000000e+00 0.000000000000000000e+00 -2.566073039526864671e-06
0.000000000000000000e+00 0.000000000000000000e+00 -2.536662703131210184e-06
0.000000000000000000e+00 0.000000000000000000e+00 -2.507755102040783284e-06
0.000000000000000000e+00 0.000000000000000000e+00 -2.493486254170046774e-06
0.000000000000000000e+00 0.000000000000000000e+00 -2.493486254170046774e-06
0.000000000000000000e+00 0.000000000000000000e+00 -2.479338842975187550e-06
0.000000000000000000e+00 0.000000000000000000e+00 -2.493486254170059479e-06
0.000000000000000000e+00 0.000000000000000000e+00 -2.507755102040850200e-06
0.000000000000000000e+00 0.000000000000000000e+00 -2.536662703131194090e-06
0.000000000000000000e+00 0.000000000000000000e+00 -2.566073039526774886e-06
0.000000000000000000e+00 0.000000000000000000e+00 -2.611156915910941765e-06
0.000000000000000000e+00 0.000000000000000000e+00 -6.311581505516563031e-06
-1.066447997755366273e-04 -1.269580949708836385e-05 -6.896472346063598846e-06
0.000000000000000000e+00 0.000000000000000000e+00 8.388153749212319231e-06
-0.000000000000000000e+00 0.000000000000000000e+00 1.210859899725651298e-05
0.000000000000000000e+00 0.000000000000000000e+00 -1.761250763237291397e-06
0.000000000000000000e+00 0.000000000000000000e+00 -1.771626297577834551e-06
0.000000000000000000e+00 0.000000000000000000e+00 -1.782093786166152674e-06
0.000000000000000000e+00 0.000000000000000000e+00 -1.792654318826236060e-06
0.000000000000000000e+00 0.000000000000000000e+00 -4.840330782473976890e-06
3.275845905500647141e-05 5.459743175834450300e-06 1.415007770143359675e-05
-0.000000000000000000e+00 0.000000000000000000e+00 1.239774938583585614e-05
0.000000000000000000e+00 0.000000000000000000e+00 -1.750966109230231214e-06
0.000000000000000000e+00 0.000000000000000000e+00 -1.720646922915400626e-06
-0.000000000000000000e+00 0.000000000000000000e+00 1.162637072268466062e-05
0.000000000000000000e+00 0.000000000000000000e+00 -1.681431186936096294e-06
0.000000000000000000e+00 0.000000000000000000e+00 -1.662324169446718460e-06
0.000000000000000000e+00 0.000000000000000000e+00 -1.662324169446706178e-06
0.000000000000000000e+00 0.000000000000000000e+00 -1.652892561983436061e-06
0.000000000000000000e+00 0.000000000000000000e+00 -1.662324169446668062e-06
-0.000000000000000000e+00 0.000000000000000000e+00 1.149387755102040647e-05
0.000000000000000000e+00 0.000000000000000000e+00 -1.681431186936077660e-06
0.000000000000000000e+00 0.000000000000000000e+00 -1.700869536330240485e-06
0.000000000000000000e+00 0.000000000000000000e+00 -1.730665224445727648e-06
-0.000000000000000000e+00 0.000000000000000000e+00 1.225189477989222742e-05
-6.040326040326023712e-04 5.637637637637617650e-04 3.747586241703874596e-04
0.000000000000000000e+00 0.000000000000000000e+00 1.197500751779221866e-05
-0.000000000000000000e+00 -0.000000000000000000e+00 -5.124549330888517051e-20
0.000000000000000000e+00 0.000000000000000000e+00 -7.792703114739563119e-20
-0.000000000000000000e+00 -0.000000000000000000e+00 5.251604272976662102e-20
-0.000000000000000000e+00 -0.000000000000000000e+00 1.046085689859060919e-19
0.000000000000000000e+00 0.000000000000000000e+00 0.000000000000000000e+00
-0.000000000000000000e+00 -0.000000000000000000e+00 7.919758056827708170e-20
-4.346050059920265538e-05 0.000000000000000000e+00 -4.183363694040892480e-06
-1.015646713129466028e-05 -1.015646713129458744e-05 7.332208891573015284e-08
-0.000000000000000000e+00 0.000000000000000000e+00 8.806253816186682717e-06
-0.000000000000000000e+00 -0.000000000000000000e+00 2.583450489125616034e-20
-0.000000000000000000e+00 -0.000000000000000000e+00 3.176373552203626272e-20
-0.000000000000000000e+00 -0.000000000000000000e+00 0.000000000000000000e+00
0.000000000000000000e+00 0.000000000000000000e+00 -8.359183673469367117e-06
-0.000000000000000000e+00 -0.000000000000000000e+00 3.811648262644351526e-20
0.000000000000000000e+00 0.000000000000000000e+00 0.000000000000000000e+00
-0.000000000000000000e+00 0.000000000000000000e+00 8.311620847233339886e-06
-0.000000000000000000e+00 -0.000000000000000000e+00 2.541098841762901017e-20
-0.000000000000000000e+00 0.000000000000000000e+00 8.407155934680398039e-06
-0.000000000000000000e+00 0.000000000000000000e+00 8.504347681651701750e-06
0.000000000000000000e+00 0.000000000000000000e+00 -7.750351467376848102e-20
0.000000000000000000e+00 0.000000000000000000e+00 1.232875534266153910e-05
2.878020888431066522e-05 2.616382625846808510e-06 -1.330367604163684851e-05
-0.000000000000000000e+00 -0.000000000000000000e+00 -1.710715359684738796e-06
-0.000000000000000000e+00 -0.000000000000000000e+00 -1.710715359684533814e-06
-0.000000000000000000e+00 -0.000000000000000000e+00 -1.761250763237447251e-06
-0.000000000000000000e+00 0.000000000000000000e+00 4.650519031141806750e-06
-0.000000000000000000e+00 -0.000000000000000000e+00 -1.771626297577854456e-06
-0.000000000000000000e+00 -0.000000000000000000e+00 -1.782093786166081099e-06
-0.000000000000000000e+00 -0.000000000000000000e+00 -1.803309001576152759e-06
-0.000000000000000000e+00 -0.000000000000000000e+00 -2.321758550714782028e-06
-0.000000000000000000e+00 0.000000000000000000e+00 5.771537303068807909e-06
-0.000000000000000000e+00 0.000000000000000000e+00 5.536332179930763624e-06
-0.000000000000000000e+00 0.000000000000000000e+00 5.408328826392647753e-06
-0.000000000000000000e+00 0.000000000000000000e+00 9.567391141858187551e-06
0.000000000000000000e+00 0.000000000000000000e+00 1.247192495706165699e-05
-0.000000000000000000e+00 -0.000000000000000000e+00 -1.671836734693904933e-06
-0.000000000000000000e+00 -0.000000000000000000e+00 -1.662324169446604958e-06
-0.000000000000000000e+00 -0.000000000000000000e+00 -1.652892561983511447e-06
-0.000000000000000000e+00 -0.000000000000000000e+00 -1.652892561983511447e-06
-0.000000000000000000e+00 -0.000000000000000000e+00 -1.662324169446642651e-06
-0.000000000000000000e+00 -0.000000000000000000e+00 -1.671836734693923568e-06
-0.000000000000000000e+00 -0.000000000000000000e+00 -1.691108468754139699e-06
0.000000000000000000e+00 0.000000000000000000e+00 -8.339737378462391709e-06
-0.000000000000000000e+00 0.000000000000000000e+00 5.471769091344318541e-06
-0.000000000000000000e+00 0.000000000000000000e+00 5.702829137892558406e-06
-0.000000000000000000e+00 -0.000000000000000000e+00 -3.441293845830659798e-06
-0.000000000000000000e+00 -0.000000000000000000e+00 -3.421430719369273033e-06
-0.000000000000000000e+00 -0.000000000000000000e+00 -3.522501526474752200e-06
-0.000000000000000000e+00 -0.000000000000000000e+00 -3.522501526474648015e-06
-0.000000000000000000e+00 -0.000000000000000000e+00 -3.543252595155682655e-06
-0.000000000000000000e+00 -0.000000000000000000e+00 -3.564187572332292218e-06
-0.000000000000000000e+00 -0.000000000000000000e+00 -3.585308637652773664e-06
0.000000000000000000e+00 0.000000000000000000e+00 -1.153101211657162327e-06
0.000000000000000000e+00 0.000000000000000000e+00 -7.052341597796249750e-07
-0.000000000000000000e+00 -0.000000000000000000e+00 2.240817898532963846e-06
-0.000000000000000000e+00 0.000000000000000000e+00 8.268663567051169898e-06
-0.000000000000000000e+00 -0.000000000000000000e+00 2.138394199605767005e-06
-0.000000000000000000e+00 -0.000000000000000000e+00 2.113885585942651860e-06
-0.000000000000000000e+00 -0.000000000000000000e+00 2.089795918367361261e-06
-0.000000000000000000e+00 -0.000000000000000000e+00 -3.324648338893386522e-06
-0.000000000000000000e+00 -0.000000000000000000e+00 2.077905211808322266e-06
-0.000000000000000000e+00 -0.000000000000000000e+00 2.066115702479346534e-06
-0.000000000000000000e+00 -0.000000000000000000e+00 2.077905211808347677e-06
-0.000000000000000000e+00 -0.000000000000000000e+00 2.089795918367279099e-06
-0.000000000000000000e+00 0.000000000000000000e+00 8.032765226582116032e-06
-0.000000000000000000e+00 -0.000000000000000000e+00 2.138394199605833921e-06
-0.000000000000000000e+00 -0.000000000000000000e+00 2.175964096592422671e-06
0.000000000000000000e+00 0.000000000000000000e+00 -6.722453695598653099e-07
-3.255369666770473506e-04 -6.173976954219908783e-05 -7.134109908952687663e-04
0.000000000000000000e+00 -0.000000000000000000e+00 1.283036519763387867e-06
-1.685290386752678820e-05 1.203778847680473836e-05 5.360356398200617187e-06
-0.000000000000000000e+00 -0.000000000000000000e+00 1.981407108641986332e-06
-0.000000000000000000e+00 -0.000000000000000000e+00 1.993079584775237670e-06
-0.000000000000000000e+00 -0.000000000000000000e+00 2.004855509436929169e-06
-0.000000000000000000e+00 -0.000000000000000000e+00 2.016736108679839452e-06
-3.570161819509954878e-04 -2.175567358763877814e-04 -2.245371659045076562e-05
7.115946773247295242e-05 0.000000000000000000e+00 4.547356360444065448e-06
0.000000000000000000e+00 0.000000000000000000e+00 9.297052154195054930e-06
-0.000000000000000000e+00 0.000000000000000000e+00 8.973701309804741157e-06
-0.000000000000000000e+00 -0.000000000000000000e+00 2.796051249737434379e-06
0.000000000000000000e+00 0.000000000000000000e+00 8.716956373693034486e-06
-0.000000000000000000e+00 -0.000000000000000000e+00 2.732325678771095862e-06
-0.000000000000000000e+00 0.000000000000000000e+00 8.519411368414251480e-06
-0.000000000000000000e+00 -0.000000000000000000e+00 2.701276775350842324e-06
-0.000000000000000000e+00 -0.000000000000000000e+00 2.685950413223175185e-06
-0.000000000000000000e+00 -0.000000000000000000e+00 2.701276775350899075e-06
0.000000000000000000e+00 0.000000000000000000e+00 8.519411368414219293e-06
-0.000000000000000000e+00 -0.000000000000000000e+00 2.732325678771199624e-06
-0.000000000000000000e+00 -0.000000000000000000e+00 2.763912996536932961e-06
-0.000000000000000000e+00 -0.000000000000000000e+00 2.812330989724127433e-06
0.000000000000000000e+00 0.000000000000000000e+00 9.079584775086524206e-06
8.712655627335997091e-04 0.000000000000000000e+00 -1.190418990793770703e-04
-0.000000000000000000e+00 -0.000000000000000000e+00 2.566073039526852390e-06
-0.000000000000000000e+00 0.000000000000000000e+00 8.603234614576998473e-06
-0.000000000000000000e+00 0.000000000000000000e+00 8.806253816186501452e-06
-0.000000000000000000e+00 0.000000000000000000e+00 8.858131487889180802e-06
-0.000000000000000000e+00 0.000000000000000000e+00 8.858131487889233318e-06
-0.000000000000000000e+00 0.000000000000000000e+00 8.910468930830605820e-06
-0.000000000000000000e+00 -0.000000000000000000e+00 2.721088435374082952e-06
0.000000000000000000e+00 0.000000000000000000e+00 2.031538731875412389e-05
-0.000000000000000000e+00 0.000000000000000000e+00 1.277433726887940645e-05
0.000000000000000000e+00 0.000000000000000000e+00 7.972318339100320489e-06
-0.000000000000000000e+00 -0.000000000000000000e+00 1.730665224445620921e-06
-0.000000000000000000e+00 0.000000000000000000e+00 8.504347681651703444e-06
-0.000000000000000000e+00 0.000000000000000000e+00 8.407155934680321806e-06
-0.000000000000000000e+00 0.000000000000000000e+00 8.359183673469368811e-06
-0.000000000000000000e+00 0.000000000000000000e+00 8.311620847233383932e-06
-0.000000000000000000e+00 0.000000000000000000e+00 8.264462809917347172e-06
0.000000000000000000e+00 0.000000000000000000e+00 7.438016528925601612e-06
-0.000000000000000000e+00 0.000000000000000000e+00 8.311620847233404261e-06
0.000000000000000000e+00 0.000000000000000000e+00 7.523265306122493425e-06
0.000000000000000000e+00 0.000000000000000000e+00 7.609988109393556860e-06
-0.000000000000000000e+00 0.000000000000000000e+00 8.603234614576746057e-06
0.000000000000000000e+00 -0.000000000000000000e+00 -1.232875534266153910e-05
3.120802339297888906e-05 -5.201337232163135189e-06 -1.679447818599013223e-05
0.000000000000000000e+00 0.000000000000000000e+00 -7.484379698620271763e-06
0.000000000000000000e+00 0.000000000000000000e+00 -7.484379698620092192e-06
0.000000000000000000e+00 0.000000000000000000e+00 -7.705472089163381682e-06
0.000000000000000000e+00 0.000000000000000000e+00 8.365941125377260659e-06
0.000000000000000000e+00 0.000000000000000000e+00 -7.750865051903102447e-06
0.000000000000000000e+00 0.000000000000000000e+00 -7.796660314476939758e-06
0.000000000000000000e+00 0.000000000000000000e+00 -7.889476881895634755e-06
0.000000000000000000e+00 0.000000000000000000e+00 -1.015769365937712124e-05
2.869352150815305240e-05 -2.608501955286729642e-06 1.641403342666215680e-05
-0.000000000000000000e+00 0.000000000000000000e+00 -1.247465650316312801e-05
0.000000000000000000e+00 0.000000000000000000e+00 8.268663567051169898e-06
0.000000000000000000e+00 -0.000000000000000000e+00 1.283036519763453088e-06
0.000000000000000000e+00 -0.000000000000000000e+00 -9.935262253930444260e-06
-0.000000000000000000e+00 0.000000000000000000e+00 8.150204081632599990e-06
-0.000000000000000000e+00 0.000000000000000000e+00 8.103830326052541795e-06
-0.000000000000000000e+00 0.000000000000000000e+00 8.057851239669417982e-06
-0.000000000000000000e+00 0.000000000000000000e+00 8.057851239669443393e-06
-0.000000000000000000e+00 0.000000000000000000e+00 8.103830326052563818e-06
-0.000000000000000000e+00 0.000000000000000000e+00 8.150204081632572885e-06
-0.000000000000000000e+00 0.000000000000000000e+00 8.244153785176309220e-06
-0.000000000000000000e+00 0.000000000000000000e+00 8.339737378462391709e-06
0.000000000000000000e+00 0.000000000000000000e+00 8.268663567051220720e-06
-2.784715876400351676e-05 2.531559887636764118e-06 1.685856432125105496e-05
0.000000000000000000e+00 0.000000000000000000e+00 -7.312749422390290137e-06
0.000000000000000000e+00 0.000000000000000000e+00 -7.270540278659384540e-06
0.000000000000000000e+00 0.000000000000000000e+00 -7.485315743758841754e-06
0.000000000000000000e+00 0.000000000000000000e+00 -7.485315743758841754e-06
0.000000000000000000e+00 0.000000000000000000e+00 -7.529411764705791230e-06
0.000000000000000000e+00 0.000000000000000000e+00 -7.573898591206098464e-06
0.000000000000000000e+00 0.000000000000000000e+00 -7.618780855012163729e-06
0.000000000000000000e+00 0.000000000000000000e+00 8.706594565180837591e-07
0.000000000000000000e+00 0.000000000000000000e+00 -0.000000000000000000e+00
-0.000000000000000000e+00 0.000000000000000000e+00 -1.014361313386570648e-05
0.000000000000000000e+00 -0.000000000000000000e+00 1.969836872884003074e-06
0.000000000000000000e+00 0.000000000000000000e+00 8.818315479941240645e-06
0.000000000000000000e+00 0.000000000000000000e+00 -8.032765226582095703e-06
0.000000000000000000e+00 0.000000000000000000e+00 -7.941224489795939588e-06
-0.000000000000000000e+00 0.000000000000000000e+00 1.163626918612670904e-05
0.000000000000000000e+00 0.000000000000000000e+00 -7.896039804871701352e-06
0.000000000000000000e+00 0.000000000000000000e+00 -7.851239669421488792e-06
0.000000000000000000e+00 0.000000000000000000e+00 -7.896039804871704740e-06
0.000000000000000000e+00 0.000000000000000000e+00 -7.941224489795907401e-06
0.000000000000000000e+00 0.000000000000000000e+00 3.152683475505073667e-06
0.000000000000000000e+00 0.000000000000000000e+00 8.716956373693027709e-06
0.000000000000000000e+00 0.000000000000000000e+00 8.869659275283951430e-06
-0.000000000000000000e+00 0.000000000000000000e+00 -1.002427754718460053e-05
-3.092623332339673107e-06 -6.185246664683261201e-06 -6.430837341075955292e-06
0.000000000000000000e+00 0.000000000000000000e+00 2.580970384372914804e-06
0.000000000000000000e+00 0.000000000000000000e+00 -8.603234614576996779e-06
0.000000000000000000e+00 0.000000000000000000e+00 2.641876144856034715e-06
0.000000000000000000e+00 0.000000000000000000e+00 2.657439446366817260e-06
0.000000000000000000e+00 0.000000000000000000e+00 8.858131487889231624e-06
0.000000000000000000e+00 0.000000000000000000e+00 8.910468930830605820e-06
-1.012623955054683285e-05 -1.012623955054676170e-05 8.599180965918796184e-06
-1.536304960642451600e-04 -1.024203307094915150e-05 -1.518230784634908449e-05
0.000000000000000000e+00 0.000000000000000000e+00 5.442176870748258231e-06
0.000000000000000000e+00 0.000000000000000000e+00 5.283752289711990657e-06
0.000000000000000000e+00 0.000000000000000000e+00 5.161940768746093035e-06
0.000000000000000000e+00 0.000000000000000000e+00 5.102608608991026810e-06
0.000000000000000000e+00 0.000000000000000000e+00 5.044293560808200368e-06
0.000000000000000000e+00 0.000000000000000000e+00 5.015510204081634331e-06
0.000000000000000000e+00 0.000000000000000000e+00 4.986972508340030020e-06
0.000000000000000000e+00 0.000000000000000000e+00 4.958677685950458109e-06
0.000000000000000000e+00 0.000000000000000000e+00 4.986972508340048655e-06
0.000000000000000000e+00 0.000000000000000000e+00 4.986972508340029173e-06
0.000000000000000000e+00 0.000000000000000000e+00 5.044293560808111429e-06
0.000000000000000000e+00 0.000000000000000000e+00 5.102608608991040362e-06
0.000000000000000000e+00 -0.000000000000000000e+00 7.742911153119098048e-06
0.000000000000000000e+00 0.000000000000000000e+00 5.314878892733537111e-06
-6.864436598357203647e-05 7.920503767335022307e-06 2.207575702425188346e-05
0.000000000000000000e+00 -0.000000000000000000e+00 7.707999820014133086e-20
0.000000000000000000e+00 0.000000000000000000e+00 7.484379698620092192e-06
0.000000000000000000e+00 -0.000000000000000000e+00 1.109613160903133444e-19
0.000000000000000000e+00 0.000000000000000000e+00 4.650519031141949898e-06
-0.000000000000000000e+00 0.000000000000000000e+00 0.000000000000000000e+00
0.000000000000000000e+00 -0.000000000000000000e+00 -3.261076846929056305e-20
0.000000000000000000e+00 0.000000000000000000e+00 7.889476881895636449e-06
-0.000000000000000000e+00 0.000000000000000000e+00 -3.811648262644351526e-20
0.000000000000000000e+00 0.000000000000000000e+00 3.001199397595790684e-06
0.000000000000000000e+00 -0.000000000000000000e+00 4.650519031141871971e-06
0.000000000000000000e+00 -0.000000000000000000e+00 4.542996214169812729e-06
0.000000000000000000e+00 0.000000000000000000e+00 8.339737378462337499e-06
0.000000000000000000e+00 -0.000000000000000000e+00 4.413756865707201051e-06
0.000000000000000000e+00 -0.000000000000000000e+00 4.388571428571459156e-06
0.000000000000000000e+00 -0.000000000000000000e+00 4.363600944797523091e-06
0.000000000000000000e+00 -0.000000000000000000e+00 4.338842975206604470e-06
0.000000000000000000e+00 -0.000000000000000000e+00 4.338842975206585835e-06
0.000000000000000000e+00 -0.000000000000000000e+00 4.363600944797560361e-06
0.000000000000000000e+00 -0.000000000000000000e+00 4.388571428571464239e-06
0.000000000000000000e+00 -0.000000000000000000e+00 4.439159730479559589e-06
0.000000000000000000e+00 0.000000000000000000e+00 8.339737378462315476e-06
0.000000000000000000e+00 -0.000000000000000000e+00 4.596286036729287849e-06
0.000000000000000000e+00 0.000000000000000000e+00 2.965471151704085851e-06
-0.000000000000000000e+00 0.000000000000000000e+00 -5.161940768746137928e-06
0.000000000000000000e+00 -0.000000000000000000e+00 6.415182598815656078e-07
0.000000000000000000e+00 -0.000000000000000000e+00 6.604690362141258870e-07
0.000000000000000000e+00 -0.000000000000000000e+00 6.604690362141258870e-07
0.000000000000000000e+00 -0.000000000000000000e+00 6.643598615916651397e-07
0.000000000000000000e+00 -0.000000000000000000e+00 6.682851698122375841e-07
0.000000000000000000e+00 0.000000000000000000e+00 7.618780855012162882e-06
0.000000000000000000e+00 -0.000000000000000000e+00 8.706594565180837591e-07
0.000000000000000000e+00 0.000000000000000000e+00 -7.052341597796247632e-07
0.000000000000000000e+00 0.000000000000000000e+00 -6.722453695598852152e-07
-0.000000000000000000e+00 0.000000000000000000e+00 -9.849184364419825212e-06
0.000000000000000000e+00 0.000000000000000000e+00 -6.415182598817129915e-07
0.000000000000000000e+00 -0.000000000000000000e+00 3.170828378914004048e-06
0.000000000000000000e+00 -0.000000000000000000e+00 3.134693877551036809e-06
-1.332234084370877890e-05 1.110195070309068184e-05 2.682872472046244884e-06
0.000000000000000000e+00 -0.000000000000000000e+00 3.116857817712486787e-06
0.000000000000000000e+00 -0.000000000000000000e+00 3.099173553718997566e-06
0.000000000000000000e+00 -0.000000000000000000e+00 3.116857817712496528e-06
0.000000000000000000e+00 -0.000000000000000000e+00 3.134693877551010551e-06
0.000000000000000000e+00 -0.000000000000000000e+00 3.152683475505074090e-06
0.000000000000000000e+00 0.000000000000000000e+00 -6.415182598817129915e-07
0.000000000000000000e+00 0.000000000000000000e+00 -6.527892289776949953e-07
0.000000000000000000e+00 0.000000000000000000e+00 -6.722453695598655217e-07
-1.764133607177629644e-05 -1.470111339314711812e-05 -2.201236229987727041e-07
0.000000000000000000e+00 -0.000000000000000000e+00 2.580970384372914380e-06
0.000000000000000000e+00 0.000000000000000000e+00 -3.302345181069984420e-06
0.000000000000000000e+00 -0.000000000000000000e+00 2.641876144856034292e-06
0.000000000000000000e+00 -0.000000000000000000e+00 2.657439446366817260e-06
0.000000000000000000e+00 0.000000000000000000e+00 -2.004855509436929169e-06
0.000000000000000000e+00 0.000000000000000000e+00 -2.016736108679635740e-06
-1.413631296076688711e-04 -8.297401085667571545e-05 -5.624451419230815797e-06
-9.878260869565216526e-04 -2.318840579710113779e-05 -3.841004417577300722e-04
0.000000000000000000e+00 0.000000000000000000e+00 5.442176870748258231e-06
0.000000000000000000e+00 0.000000000000000000e+00 5.283752289711990657e-06
0.000000000000000000e+00 0.000000000000000000e+00 5.161940768746093035e-06
0.000000000000000000e+00 0.000000000000000000e+00 5.102608608991026810e-06
0.000000000000000000e+00 0.000000000000000000e+00 5.044293560808200368e-06
0.000000000000000000e+00 0.000000000000000000e+00 5.015510204081633484e-06
0.000000000000000000e+00 0.000000000000000000e+00 4.986972508340030020e-06
0.000000000000000000e+00 0.000000000000000000e+00 4.958677685950458109e-06
0.000000000000000000e+00 0.000000000000000000e+00 4.986972508340048655e-06
0.000000000000000000e+00 0.000000000000000000e+00 4.986972508340030020e-06
0.000000000000000000e+00 0.000000000000000000e+00 5.044293560808110582e-06
0.000000000000000000e+00 0.000000000000000000e+00 5.102608608991042056e-06
-0.000000000000000000e+00 -0.000000000000000000e+00 1.946998377501311890e-06
0.000000000000000000e+00 0.000000000000000000e+00 5.314878892733536264e-06
2.590850050512333476e-04 3.238562563140314523e-05 -3.069995670370912513e-05
0.000000000000000000e+00 0.000000000000000000e+00 4.490627819172112913e-06
0.000000000000000000e+00 0.000000000000000000e+00 4.301617307291496886e-07
0.000000000000000000e+00 0.000000000000000000e+00 4.623283253497930415e-06
0.000000000000000000e+00 0.000000000000000000e+00 4.650519031141949898e-06
0.000000000000000000e+00 0.000000000000000000e+00 4.650519031141871971e-06
0.000000000000000000e+00 0.000000000000000000e+00 4.677996188686135733e-06
0.000000000000000000e+00 0.000000000000000000e+00 4.535147392290006258e-07
0.000000000000000000e+00 0.000000000000000000e+00 6.094616195626239877e-06
-1.551057450070293276e-05 -2.585095750117143038e-06 -5.546896629596146599e-06
-0.000000000000000000e+00 0.000000000000000000e+00 -4.650519031141871971e-06
-0.000000000000000000e+00 0.000000000000000000e+00 -4.542996214169812729e-06
0.000000000000000000e+00 0.000000000000000000e+00 -1.573304321105567475e-05
-0.000000000000000000e+00 0.000000000000000000e+00 -4.413756865707201051e-06
-0.000000000000000000e+00 0.000000000000000000e+00 -4.388571428571459156e-06
-0.000000000000000000e+00 0.000000000000000000e+00 -4.363600944797522244e-06
-0.000000000000000000e+00 0.000000000000000000e+00 -4.338842975206604470e-06
-0.000000000000000000e+00 0.000000000000000000e+00 -4.338842975206585835e-06
-0.000000000000000000e+00 0.000000000000000000e+00 -4.363600944797561208e-06
-0.000000000000000000e+00 0.000000000000000000e+00 -4.388571428571464239e-06
-0.000000000000000000e+00 0.000000000000000000e+00 -4.439159730479559589e-06
-0.000000000000000000e+00 0.000000000000000000e+00 1.591598403696699215e-05
-0.000000000000000000e+00 0.000000000000000000e+00 -4.596286036729287849e-06
1.532592644961764435e-05 2.554321074936199520e-06 -6.968379125020150532e-06
0.000000000000000000e+00 0.000000000000000000e+00 -1.796251127668814333e-05
-0.000000000000000000e+00 0.000000000000000000e+00 -3.849109559290470225e-06
0.000000000000000000e+00 0.000000000000000000e+00 3.962814217283992993e-06
0.000000000000000000e+00 0.000000000000000000e+00 3.962814217283992993e-06
-0.000000000000000000e+00 0.000000000000000000e+00 -3.986159169550128057e-06
0.000000000000000000e+00 0.000000000000000000e+00 4.009711018873858339e-06
0.000000000000000000e+00 0.000000000000000000e+00 -8.114890507092572641e-06
0.000000000000000000e+00 0.000000000000000000e+00 5.223956739108321290e-06
0.000000000000000000e+00 0.000000000000000000e+00 7.052341597796247632e-07
0.000000000000000000e+00 0.000000000000000000e+00 6.722453695598852152e-07
0.000000000000000000e+00 0.000000000000000000e+00 -1.196780253125823914e-05
-0.000000000000000000e+00 0.000000000000000000e+00 3.207591299408574698e-06
-0.000000000000000000e+00 -0.000000000000000000e+00 -3.170828378914004048e-06
-0.000000000000000000e+00 -0.000000000000000000e+00 -3.134693877551036809e-06
0.000000000000000000e+00 0.000000000000000000e+00 -8.311620847233366991e-06
-0.000000000000000000e+00 -0.000000000000000000e+00 -3.116857817712486787e-06
-0.000000000000000000e+00 -0.000000000000000000e+00 -3.099173553718997566e-06
-0.000000000000000000e+00 -0.000000000000000000e+00 -3.116857817712496528e-06
-0.000000000000000000e+00 -0.000000000000000000e+00 -3.134693877551010551e-06
-0.000000000000000000e+00 -0.000000000000000000e+00 -3.152683475505074090e-06
-0.000000000000000000e+00 0.000000000000000000e+00 3.207591299408603497e-06
-0.000000000000000000e+00 0.000000000000000000e+00 3.263946144888591232e-06
0.000000000000000000e+00 0.000000000000000000e+00 6.722453695598655217e-07
-1.764133607177629983e-05 -1.470111339314711812e-05 -2.201236229987727041e-07
-0.000000000000000000e+00 -0.000000000000000000e+00 -3.226212980466220267e-06
-0.000000000000000000e+00 0.000000000000000000e+00 3.302345181069984420e-06
-0.000000000000000000e+00 -0.000000000000000000e+00 -3.302345181069984420e-06
-0.000000000000000000e+00 -0.000000000000000000e+00 -3.321799307958502305e-06
-0.000000000000000000e+00 -0.000000000000000000e+00 -3.341425849061522499e-06
-0.000000000000000000e+00 -0.000000000000000000e+00 -3.361226847799445558e-06
4.003553271018487790e-04 2.978253043074728179e-04 -4.472079183686099215e-05
8.484934420418383232e-04 2.118043780134509519e-03 6.505264224012714163e-04
-0.000000000000000000e+00 0.000000000000000000e+00 4.761904761904757293e-06
-0.000000000000000000e+00 0.000000000000000000e+00 4.623283253497969378e-06
-0.000000000000000000e+00 0.000000000000000000e+00 4.516698172652822724e-06
-0.000000000000000000e+00 0.000000000000000000e+00 4.464782532867137871e-06
-0.000000000000000000e+00 0.000000000000000000e+00 4.413756865707181569e-06
0.000000000000000000e+00 -0.000000000000000000e+00 -5.015510204081633484e-06
-0.000000000000000000e+00 0.000000000000000000e+00 4.363600944797519703e-06
-0.000000000000000000e+00 0.000000000000000000e+00 4.338842975206629881e-06
-0.000000000000000000e+00 0.000000000000000000e+00 4.363600944797554432e-06
-0.000000000000000000e+00 0.000000000000000000e+00 4.363600944797503610e-06
-0.000000000000000000e+00 0.000000000000000000e+00 4.413756865707104489e-06
-0.000000000000000000e+00 0.000000000000000000e+00 4.464782532867115001e-06
-0.000000000000000000e+00 0.000000000000000000e+00 -1.032388153749216574e-05
-0.000000000000000000e+00 0.000000000000000000e+00 4.650519031141799973e-06
-5.408415008415025154e-04 -1.215499455499453353e-03 6.539667942020874159e-04
-0.000000000000000000e+00 0.000000000000000000e+00 2.779912459487668885e-06
-0.000000000000000000e+00 0.000000000000000000e+00 2.796051249737669431e-06
-0.000000000000000000e+00 0.000000000000000000e+00 2.862032490260560668e-06
-0.000000000000000000e+00 0.000000000000000000e+00 2.878892733564115347e-06
-0.000000000000000000e+00 0.000000000000000000e+00 2.878892733564050126e-06
-0.000000000000000000e+00 0.000000000000000000e+00 2.895902402520002541e-06
-0.000000000000000000e+00 0.000000000000000000e+00 2.947845804988708626e-06
-0.000000000000000000e+00 0.000000000000000000e+00 3.772857644911465897e-06
-0.000000000000000000e+00 0.000000000000000000e+00 4.386368350332322166e-06
0.000000000000000000e+00 0.000000000000000000e+00 -4.650519031141871971e-06
-0.000000000000000000e+00 -0.000000000000000000e+00 3.028664142779857365e-06
0.000000000000000000e+00 0.000000000000000000e+00 1.496875939724013780e-06
-0.000000000000000000e+00 -0.000000000000000000e+00 2.942504577138100435e-06
-0.000000000000000000e+00 -0.000000000000000000e+00 2.925714285714269682e-06
-0.000000000000000000e+00 -0.000000000000000000e+00 2.909067296531687849e-06
-0.000000000000000000e+00 -0.000000000000000000e+00 2.892561983471067953e-06
-0.000000000000000000e+00 -0.000000000000000000e+00 2.892561983471086587e-06
-0.000000000000000000e+00 -0.000000000000000000e+00 2.909067296531720036e-06
-0.000000000000000000e+00 -0.000000000000000000e+00 2.925714285714288740e-06
-0.000000000000000000e+00 -0.000000000000000000e+00 2.959439820319715145e-06
0.000000000000000000e+00 0.000000000000000000e+00 1.496875939724069896e-06
-0.000000000000000000e+00 -0.000000000000000000e+00 3.064190691152819603e-06
-0.000000000000000000e+00 0.000000000000000000e+00 4.334150144798282318e-06
0.000000000000000000e+00 0.000000000000000000e+00 3.871455576559681161e-06
-0.000000000000000000e+00 -0.000000000000000000e+00 1.283036519763663576e-06
-0.000000000000000000e+00 -0.000000000000000000e+00 1.320938072427906185e-06
-0.000000000000000000e+00 -0.000000000000000000e+00 1.320938072427906185e-06
-0.000000000000000000e+00 -0.000000000000000000e+00 1.328719723183337056e-06
-0.000000000000000000e+00 -0.000000000000000000e+00 1.336570339624665751e-06
-0.000000000000000000e+00 -0.000000000000000000e+00 1.352481751181977561e-06
-0.000000000000000000e+00 -0.000000000000000000e+00 1.741318913036077733e-06
-2.449393927817178229e-05 -0.000000000000000000e+00 -7.957255674593066174e-06
0.000000000000000000e+00 0.000000000000000000e+00 6.086167880319443033e-06
0.000000000000000000e+00 0.000000000000000000e+00 -3.720802982114184313e-06
0.000000000000000000e+00 0.000000000000000000e+00 5.807183364839334547e-06
-0.000000000000000000e+00 -0.000000000000000000e+00 5.496102523450946505e-06
0.000000000000000000e+00 0.000000000000000000e+00 -3.134693877551036386e-06
-0.000000000000000000e+00 -0.000000000000000000e+00 5.402553550701719376e-06
-0.000000000000000000e+00 -0.000000000000000000e+00 5.402553550701696507e-06
-0.000000000000000000e+00 -0.000000000000000000e+00 5.371900826446242797e-06
-0.000000000000000000e+00 -0.000000000000000000e+00 5.402553550701709212e-06
-0.000000000000000000e+00 -0.000000000000000000e+00 5.433469387755055931e-06
-0.000000000000000000e+00 -0.000000000000000000e+00 5.464651357542048576e-06
0.000000000000000000e+00 0.000000000000000000e+00 5.740434685114845445e-06
0.000000000000000000e+00 0.000000000000000000e+00 5.840995132504066113e-06
0.000000000000000000e+00 0.000000000000000000e+00 6.014566528310689676e-06
1.764133607177629644e-05 1.470111339314711812e-05 2.201236229987731276e-07
0.000000000000000000e+00 0.000000000000000000e+00 -3.226212980466220267e-06
-4.676758351528526600e-06 7.015137527293037234e-06 6.167944002383848239e-06
-0.000000000000000000e+00 -0.000000000000000000e+00 5.724064980521211968e-06
-0.000000000000000000e+00 -0.000000000000000000e+00 5.757785467128119733e-06
-0.000000000000000000e+00 -0.000000000000000000e+00 5.791804805040017788e-06
-0.000000000000000000e+00 -0.000000000000000000e+00 5.826126536185730310e-06
0.000000000000000000e+00 0.000000000000000000e+00 -4.840330782473970114e-06
-1.154939846882976299e-03 -1.390205371248044936e-04 -9.977339824008340185e-05
3.046940139388390969e-05 -5.078233565647256448e-06 2.243520139176186676e-05
-0.000000000000000000e+00 0.000000000000000000e+00 9.026410161591293796e-06
-0.000000000000000000e+00 0.000000000000000000e+00 -1.730665224445643961e-05
0.000000000000000000e+00 -0.000000000000000000e+00 -1.190608675431232079e-05
0.000000000000000000e+00 -0.000000000000000000e+00 -1.177001830855244070e-05
0.000000000000000000e+00 -0.000000000000000000e+00 -1.170285714285719392e-05
0.000000000000000000e+00 -0.000000000000000000e+00 -1.163626918612675648e-05
0.000000000000000000e+00 -0.000000000000000000e+00 -1.157024793388428875e-05
-0.000000000000000000e+00 0.000000000000000000e+00 -1.652892561983468418e-05
0.000000000000000000e+00 -0.000000000000000000e+00 -1.163626918612674631e-05
-0.000000000000000000e+00 0.000000000000000000e+00 -1.671836734693885960e-05
-0.000000000000000000e+00 0.000000000000000000e+00 -1.691108468754131314e-05
0.000000000000000000e+00 -0.000000000000000000e+00 -1.204452846040746515e-05
-2.906063759341577412e-05 4.843439598902808309e-06 2.304777928921677982e-05
3.102114900140579099e-05 -5.170191500234286075e-06 -2.083697766925918438e-05
0.000000000000000000e+00 -0.000000000000000000e+00 -1.304420461759496155e-05
0.000000000000000000e+00 0.000000000000000000e+00 -7.698219118580762574e-06
0.000000000000000000e+00 -0.000000000000000000e+00 -1.342953706968459450e-05
-0.000000000000000000e+00 0.000000000000000000e+00 9.522491349481021277e-06
0.000000000000000000e+00 -0.000000000000000000e+00 -1.350865051903113070e-05
0.000000000000000000e+00 -0.000000000000000000e+00 -1.358846511951688555e-05
0.000000000000000000e+00 0.000000000000000000e+00 -8.114890507092572641e-06
0.000000000000000000e+00 -0.000000000000000000e+00 -1.770340894920023429e-05
7.920503767335413637e-06 5.280335844889809890e-06 5.966497133825100770e-06
0.000000000000000000e+00 0.000000000000000000e+00 -2.049407854091077862e-05
0.000000000000000000e+00 0.000000000000000000e+00 1.740771277273932038e-05
-0.000000000000000000e+00 0.000000000000000000e+00 5.345985499014290458e-06
0.000000000000000000e+00 0.000000000000000000e+00 3.170828378914004895e-06
-0.000000000000000000e+00 0.000000000000000000e+00 5.224489795918351484e-06
-0.000000000000000000e+00 0.000000000000000000e+00 5.194763029520870463e-06
0.000000000000000000e+00 0.000000000000000000e+00 3.116857817712504998e-06
-0.000000000000000000e+00 0.000000000000000000e+00 5.165289256198363582e-06
-0.000000000000000000e+00 0.000000000000000000e+00 5.194763029520870463e-06
-0.000000000000000000e+00 0.000000000000000000e+00 5.224489795918346401e-06
0.000000000000000000e+00 0.000000000000000000e+00 -8.244153785176387147e-06
-0.000000000000000000e+00 0.000000000000000000e+00 5.345985499014270976e-06
0.000000000000000000e+00 0.000000000000000000e+00 3.263946144888591655e-06
3.491910477904060299e-05 2.494221769931528998e-06 -2.149032147440429271e-05
-1.200269288357813793e-04 -2.880646292058741692e-05 1.787374271278088772e-05
0.000000000000000000e+00 0.000000000000000000e+00 -8.767416218383640994e-06
-0.000000000000000000e+00 0.000000000000000000e+00 5.503908635116686439e-06
-0.000000000000000000e+00 0.000000000000000000e+00 5.503908635116686439e-06
-0.000000000000000000e+00 0.000000000000000000e+00 5.536332179930789035e-06
-0.000000000000000000e+00 0.000000000000000000e+00 5.569043081769281527e-06
0.000000000000000000e+00 0.000000000000000000e+00 3.361226847799406594e-06
-1.230117460056179756e-04 -6.150587300280845927e-05 3.025957388373470554e-05
-1.839677515353204486e-05 0.000000000000000000e+00 -2.651299948597279090e-06
0.000000000000000000e+00 0.000000000000000000e+00 4.761904761904757293e-06
0.000000000000000000e+00 0.000000000000000000e+00 4.623283253497969378e-06
-0.000000000000000000e+00 0.000000000000000000e+00 4.516698172652793924e-06
0.000000000000000000e+00 0.000000000000000000e+00 4.464782532867137871e-06
0.000000000000000000e+00 -0.000000000000000000e+00 -4.413756865707195968e-06
0.000000000000000000e+00 0.000000000000000000e+00 8.311620847232995144e-07
0.000000000000000000e+00 -0.000000000000000000e+00 -4.363600944797535797e-06
0.000000000000000000e+00 -0.000000000000000000e+00 -4.338842975206629881e-06
0.000000000000000000e+00 -0.000000000000000000e+00 -4.363600944797491751e-06
