ply
            format ascii 1.0
            element vertex 27630
            property float x
            property float y
            property float z
            property float nx
            property float ny
            property float nz
end_header
0.11743589743590 -0.11794871794872 1.91794871794872 -0.10930440824184 -0.87443526593476 0.47266850120196
0.14929765886288 -0.12307692307692 2.00133779264214 0.00000000000000 -0.00000000000000 -1.00000000000000
0.17664429530201 -0.12348993288591 2.00805369127517 0.00000000000000 -0.00000000000000 -1.00000000000000
0.20348993288591 -0.12348993288591 2.00805369127517 0.00000000000000 -0.00000000000000 -1.00000000000000
0.23033557046980 -0.12348993288591 2.00805369127517 0.00000000000000 -0.00000000000000 -1.00000000000000
0.25718120805369 -0.12348993288591 2.00805369127517 0.00000000000000 -0.00000000000000 -1.00000000000000
0.28402684563758 -0.12348993288591 2.00805369127517 0.00000000000000 -0.00000000000000 -1.00000000000000
0.31087248322148 -0.12348993288591 2.00805369127517 0.00000000000000 -0.00000000000000 -1.00000000000000
0.33771812080537 -0.12348993288591 2.00805369127517 0.00000000000000 -0.00000000000000 -1.00000000000000
-0.29513196480938 -0.10744868035191 1.75483870967742 0.00000000000000 -0.00000000000000 -1.00000000000000
-0.27247058823529 -0.10776470588235 1.76000000000000 0.00000000000000 -0.00000000000000 -1.00000000000000
-0.24967551622419 -0.10808259587021 1.76519174041298 0.00000000000000 0.00000000000000 -1.00000000000000
-0.22607669616519 -0.10808259587021 1.76519174041298 0.00000000000000 -0.00000000000000 -1.00000000000000
-0.20367952522255 -0.10872403560831 1.77566765578635 0.00000000000000 -0.00000000000000 -1.00000000000000
-0.29725490196078 -0.17960784313725 2.93333333333333 0.74459281334792 0.65699365883639 0.11807148071994
-0.17546666666667 -0.12213333333333 1.99466666666667 0.00000000000000 -0.00000000000000 1.00000000000000
-0.14929765886288 -0.12254180602007 2.00133779264214 0.00000000000000 -0.00000000000000 1.00000000000000
-0.12254180602007 -0.12254180602007 2.00133779264214 0.00000000000000 -0.00000000000000 1.00000000000000
-0.09578595317726 -0.12254180602007 2.00133779264214 0.00000000000000 -0.00000000000000 1.00000000000000
-0.06903010033445 -0.12254180602007 2.00133779264214 0.00000000000000 -0.00000000000000 1.00000000000000
-0.04227424749164 -0.12254180602007 2.00133779264214 0.00000000000000 -0.00000000000000 1.00000000000000
-0.01551839464883 -0.12254180602007 2.00133779264214 0.00000000000000 -0.00000000000000 1.00000000000000
0.01073482428115 -0.11706070287540 1.91182108626198 0.00000000000000 -0.00000000000000 1.00000000000000
0.03561128526646 -0.11485893416928 1.87586206896552 0.00000000000000 -0.00000000000000 1.00000000000000
0.06068965517241 -0.11485893416928 1.87586206896552 0.00000000000000 -0.00000000000000 1.00000000000000
0.08576802507837 -0.11485893416928 1.87586206896552 0.00000000000000 -0.00000000000000 1.00000000000000
0.11333333333333 -0.11743589743590 1.91794871794872 0.11070321812414 0.88562574499312 -0.45101201458757
0.14501672240803 -0.12254180602007 2.00133779264214 0.00000000000000 0.00000000000000 1.00000000000000
0.17234899328859 -0.12295302013423 2.00805369127517 0.00000000000000 -0.00000000000000 1.00000000000000
0.19919463087248 -0.12295302013423 2.00805369127517 0.00000000000000 -0.00000000000000 1.00000000000000
0.22604026845638 -0.12295302013423 2.00805369127517 0.00000000000000 -0.00000000000000 1.00000000000000
0.25288590604027 -0.12295302013423 2.00805369127517 0.00000000000000 -0.00000000000000 1.00000000000000
0.27973154362416 -0.12295302013423 2.00805369127517 0.00000000000000 -0.00000000000000 1.00000000000000
0.30657718120805 -0.12295302013423 2.00805369127517 0.00000000000000 -0.00000000000000 1.00000000000000
0.33342281879195 -0.12295302013423 2.00805369127517 0.00000000000000 -0.00000000000000 1.00000000000000
-0.29888563049853 -0.10697947214076 1.75483870967742 0.00000000000000 -0.00000000000000 1.00000000000000
-0.27623529411765 -0.10729411764706 1.76000000000000 0.00000000000000 -0.00000000000000 1.00000000000000
-0.25345132743363 -0.10761061946903 1.76519174041298 0.11065886496854 0.88527091974830 -0.45171895493976
-0.22985250737463 -0.10761061946903 1.76519174041298 0.00000000000000 -0.00000000000000 1.00000000000000
-0.20686390532544 -0.10792899408284 1.77041420118343 0.00000000000000 -0.00000000000000 1.00000000000000
-0.18594594594595 -0.10954954954955 1.79699699699700 0.85637661643360 0.48935806653349 -0.16476581424660
-0.17973333333333 -0.12160000000000 1.99466666666667 0.00000000000000 -0.00000000000000 1.00000000000000
-0.15357859531773 -0.12200668896321 2.00133779264214 0.00000000000000 -0.00000000000000 1.00000000000000
-0.12682274247492 -0.12200668896321 2.00133779264214 0.00000000000000 -0.00000000000000 1.00000000000000
-0.10006688963211 -0.12200668896321 2.00133779264214 0.00000000000000 -0.00000000000000 1.00000000000000
-0.07331103678930 -0.12200668896321 2.00133779264214 0.00000000000000 -0.00000000000000 1.00000000000000
-0.04655518394649 -0.12200668896321 2.00133779264214 0.00000000000000 -0.00000000000000 1.00000000000000
-0.01979933110368 -0.12200668896321 2.00133779264214 0.00000000000000 -0.00000000000000 1.00000000000000
0.00666666666667 -0.11692307692308 1.91794871794872 0.00000000000000 0.00000000000000 1.00000000000000
0.03159874608150 -0.11435736677116 1.87586206896552 0.00000000000000 -0.00000000000000 1.00000000000000
0.05667711598746 -0.11435736677116 1.87586206896552 0.00000000000000 -0.00000000000000 1.00000000000000
0.08175548589342 -0.11435736677116 1.87586206896552 0.00000000000000 -0.00000000000000 1.00000000000000
0.10853503184713 -0.11617834394904 1.90573248407643 0.00000000000000 0.00000000000000 1.00000000000000
0.14073578595318 -0.12200668896321 2.00133779264214 0.00000000000000 -0.00000000000000 1.00000000000000
0.16805369127517 -0.12241610738255 2.00805369127517 0.00000000000000 0.00000000000000 -1.00000000000000
0.19489932885906 -0.12241610738255 2.00805369127517 0.00000000000000 -0.00000000000000 1.00000000000000
0.22174496644295 -0.12241610738255 2.00805369127517 0.00000000000000 -0.00000000000000 1.00000000000000
0.24859060402685 -0.12241610738255 2.00805369127517 0.00000000000000 -0.00000000000000 1.00000000000000
0.27543624161074 -0.12241610738255 2.00805369127517 0.00000000000000 -0.00000000000000 1.00000000000000
0.30228187919463 -0.12241610738255 2.00805369127517 0.00000000000000 -0.00000000000000 1.00000000000000
0.32912751677852 -0.12241610738255 2.00805369127517 0.00000000000000 -0.00000000000000 1.00000000000000
-0.30263929618768 -0.10651026392962 1.75483870967742 0.00000000000000 -0.00000000000000 1.00000000000000
-0.27917888563050 -0.10651026392962 1.75483870967742 0.00000000000000 -0.00000000000000 1.00000000000000
-0.25647058823529 -0.10682352941176 1.76000000000000 0.00000000000000 -0.00000000000000 1.00000000000000
-0.23362831858407 -0.10713864306785 1.76519174041298 0.00000000000000 -0.00000000000000 1.00000000000000
-0.21065088757396 -0.10745562130178 1.77041420118343 0.00000000000000 -0.00000000000000 1.00000000000000
-0.18865671641791 -0.10841791044776 1.78626865671642 -0.00000000000000 0.00000000000000 1.00000000000000
-0.18400000000000 -0.12106666666667 1.99466666666667 -0.00000000000000 0.00000000000000 -1.00000000000000
-0.15733333333333 -0.12106666666667 1.99466666666667 -0.00000000000000 0.00000000000000 -1.00000000000000
-0.13110367892977 -0.12147157190635 2.00133779264214 nan nan nan
-0.10434782608696 -0.12147157190635 2.00133779264214 -0.00000000000000 0.00000000000000 1.00000000000000
-0.07759197324415 -0.12147157190635 2.00133779264214 -0.00000000000000 0.00000000000000 1.00000000000000
-0.05083612040134 -0.12147157190635 2.00133779264214 nan nan nan
-0.02408026755853 -0.12147157190635 2.00133779264214 -0.00000000000000 0.00000000000000 1.00000000000000
0.00256410256410 -0.11641025641026 1.91794871794872 0.00000000000000 0.00000000000000 1.00000000000000
0.02758620689655 -0.11385579937304 1.87586206896552 nan nan nan
0.05266457680251 -0.11385579937304 1.87586206896552 nan nan nan
0.07774294670846 -0.11385579937304 1.87586206896552 nan nan nan
0.10379746835443 -0.11493670886076 1.89367088607595 -0.94628818984545 0.31542939661515 0.07101378394384
0.13645484949833 -0.12147157190635 2.00133779264214 nan nan nan
0.16375838926174 -0.12187919463087 2.00805369127517 0.00000000000000 -0.00000000000000 1.00000000000000
0.19060402684564 -0.12187919463087 2.00805369127517 0.00000000000000 -0.00000000000000 1.00000000000000
0.21744966442953 -0.12187919463087 2.00805369127517 0.00000000000000 -0.00000000000000 1.00000000000000
0.24429530201342 -0.12187919463087 2.00805369127517 -0.00000000000000 0.00000000000000 1.00000000000000
0.27114093959732 -0.12187919463087 2.00805369127517 -0.00000000000000 0.00000000000000 1.00000000000000
0.29798657718121 -0.12187919463087 2.00805369127517 -0.00000000000000 0.00000000000000 1.00000000000000
0.32483221476510 -0.12187919463087 2.00805369127517 nan nan nan
-0.30639296187683 -0.10604105571848 1.75483870967742 0.00000000000000 0.00000000000000 -1.00000000000000
-0.28293255131965 -0.10604105571848 1.75483870967742 -0.00000000000000 0.00000000000000 -1.00000000000000
-0.26023529411765 -0.10635294117647 1.76000000000000 0.00000000000000 -0.00000000000000 -1.00000000000000
-0.23740412979351 -0.10666666666667 1.76519174041298 -0.00000000000000 0.00000000000000 1.00000000000000
-0.21443786982249 -0.10698224852071 1.77041420118343 -0.00000000000000 0.00000000000000 -1.00000000000000
-0.19190476190476 -0.10761904761905 1.78095238095238 0.00000000000000 -0.00000000000000 -1.00000000000000
-0.18826666666667 -0.12053333333333 1.99466666666667 -0.00000000000000 0.00000000000000 -1.00000000000000
-0.16160000000000 -0.12053333333333 1.99466666666667 0.00000000000000 0.00000000000000 1.00000000000000
-0.13538461538462 -0.12093645484950 2.00133779264214 nan nan nan
-0.10862876254181 -0.12093645484950 2.00133779264214 -0.00000000000000 0.00000000000000 1.00000000000000
-0.08187290969900 -0.12093645484950 2.00133779264214 -0.00000000000000 0.00000000000000 1.00000000000000
-0.05511705685619 -0.12093645484950 2.00133779264214 -0.00000000000000 0.00000000000000 1.00000000000000
-0.02836120401338 -0.12093645484950 2.00133779264214 -0.00000000000000 0.00000000000000 1.00000000000000
-0.00155339805825 -0.11702265372168 1.93656957928803 -0.65240609216097 0.75277626018573 -0.08771654924838
0.02357366771160 -0.11335423197492 1.87586206896552 0.00000000000000 0.00000000000000 -1.00000000000000
0.04865203761755 -0.11335423197492 1.87586206896552 nan nan nan
0.07373040752351 -0.11335423197492 1.87586206896552 nan nan nan
0.09911949685535 -0.11371069182390 1.88176100628931 -0.00000000000000 0.00000000000000 -1.00000000000000
0.13217391304348 -0.12093645484950 2.00133779264214 0.00000000000000 0.00000000000000 -1.00000000000000
0.15946308724832 -0.12134228187919 2.00805369127517 0.00000000000000 -0.00000000000000 1.00000000000000
0.18630872483221 -0.12134228187919 2.00805369127517 -0.00000000000000 0.00000000000000 -1.00000000000000
0.21315436241611 -0.12134228187919 2.00805369127517 -0.00000000000000 0.00000000000000 1.00000000000000
0.24000000000000 -0.12134228187919 2.00805369127517 -0.00000000000000 0.00000000000000 1.00000000000000
0.26684563758389 -0.12134228187919 2.00805369127517 -0.00000000000000 0.00000000000000 1.00000000000000
0.29369127516779 -0.12134228187919 2.00805369127517 -0.00000000000000 0.00000000000000 1.00000000000000
0.32053691275168 -0.12134228187919 2.00805369127517 -0.00000000000000 0.00000000000000 1.00000000000000
0.34738255033557 -0.12134228187919 2.00805369127517 -0.00000000000000 0.00000000000000 1.00000000000000
-0.28668621700880 -0.10557184750733 1.75483870967742 0.00000000000000 -0.00000000000000 1.00000000000000
-0.26400000000000 -0.10588235294118 1.76000000000000 nan nan nan
-0.24117994100295 -0.10619469026549 1.76519174041298 0.00000000000000 -0.00000000000000 1.00000000000000
-0.21822485207101 -0.10650887573964 1.77041420118343 0.00000000000000 0.00000000000000 1.00000000000000
-0.19513353115727 -0.10682492581602 1.77566765578635 -0.00000000000000 0.00000000000000 -1.00000000000000
-0.19000000000000 -0.11842105263158 1.96842105263158 0.94619666048238 -0.31539888682746 0.07235621521336
-0.16586666666667 -0.12000000000000 1.99466666666667 -0.00000000000000 0.00000000000000 -1.00000000000000
-0.13966555183946 -0.12040133779264 2.00133779264214 0.00000000000000 -0.00000000000000 1.00000000000000
-0.11290969899666 -0.12040133779264 2.00133779264214 nan nan nan
-0.08615384615385 -0.12040133779264 2.00133779264214 -0.00000000000000 0.00000000000000 1.00000000000000
-0.05939799331104 -0.12040133779264 2.00133779264214 nan nan nan
-0.03264214046823 -0.12040133779264 2.00133779264214 -0.00000000000000 0.00000000000000 1.00000000000000
-0.00590604026846 -0.12080536912752 2.00805369127517 -0.41395505670990 0.82791011341981 0.37842575906181
0.01962264150943 -0.11320754716981 1.88176100628931 0.00000000000000 0.00000000000000 -1.00000000000000
0.04463949843260 -0.11285266457680 1.87586206896552 nan nan nan
0.06971786833856 -0.11285266457680 1.87586206896552 nan nan nan
0.09509433962264 -0.11320754716981 1.88176100628931 0.00000000000000 0.00000000000000 -1.00000000000000
0.12789297658863 -0.12040133779264 2.00133779264214 0.00000000000000 0.00000000000000 -1.00000000000000
0.15516778523490 -0.12080536912752 2.00805369127517 0.00000000000000 0.00000000000000 -1.00000000000000
0.18201342281879 -0.12080536912752 2.00805369127517 0.00000000000000 -0.00000000000000 1.00000000000000
0.20885906040268 -0.12080536912752 2.00805369127517 -0.00000000000000 0.00000000000000 1.00000000000000
0.23570469798658 -0.12080536912752 2.00805369127517 0.00000000000000 -0.00000000000000 1.00000000000000
0.26255033557047 -0.12080536912752 2.00805369127517 -0.00000000000000 0.00000000000000 1.00000000000000
0.28939597315436 -0.12080536912752 2.00805369127517 nan nan nan
0.31624161073826 -0.12080536912752 2.00805369127517 nan nan nan
0.34308724832215 -0.12080536912752 2.00805369127517 0.00000000000000 -0.00000000000000 1.00000000000000
-0.29043988269795 -0.10510263929619 1.75483870967742 -0.00000000000000 0.00000000000000 1.00000000000000
-0.26776470588235 -0.10541176470588 1.76000000000000 -0.00000000000000 0.00000000000000 1.00000000000000
-0.24495575221239 -0.10572271386431 1.76519174041298 0.00000000000000 0.00000000000000 1.00000000000000
-0.22135693215339 -0.10572271386431 1.76519174041298 0.00000000000000 -0.00000000000000 1.00000000000000
-0.19893175074184 -0.10635014836795 1.77566765578635 0.00000000000000 -0.00000000000000 -1.00000000000000
-0.23902834008097 -0.14510121457490 2.42267206477733 -0.93304004670959 0.27518231792356 -0.23175625803500
-0.17013333333333 -0.11946666666667 1.99466666666667 -0.00000000000000 0.00000000000000 -1.00000000000000
-0.14394648829431 -0.11986622073579 2.00133779264214 0.00000000000000 -0.00000000000000 1.00000000000000
-0.11719063545151 -0.11986622073579 2.00133779264214 -0.00000000000000 0.00000000000000 1.00000000000000
-0.09043478260870 -0.11986622073579 2.00133779264214 -0.00000000000000 0.00000000000000 1.00000000000000
-0.06367892976589 -0.11986622073579 2.00133779264214 nan nan nan
-0.03692307692308 -0.11986622073579 2.00133779264214 -0.00000000000000 0.00000000000000 1.00000000000000
-0.01016722408027 -0.11986622073579 2.00133779264214 nan nan nan
0.01574603174603 -0.11377777777778 1.89968253968254 0.00000000000000 0.00000000000000 1.00000000000000
0.04062695924765 -0.11235109717868 1.87586206896552 0.00000000000000 -0.00000000000000 1.00000000000000
0.06570532915361 -0.11235109717868 1.87586206896552 nan nan nan
0.09078369905956 -0.11235109717868 1.87586206896552 -0.00000000000000 0.00000000000000 -1.00000000000000
0.12157894736842 -0.11789473684211 1.96842105263158 0.49602581821475 0.86804518187582 0.02135298308358
0.15036789297659 -0.11986622073579 2.00133779264214 0.00000000000000 0.00000000000000 1.00000000000000
0.17771812080537 -0.12026845637584 2.00805369127517 -0.00000000000000 0.00000000000000 1.00000000000000
0.20456375838926 -0.12026845637584 2.00805369127517 -0.00000000000000 0.00000000000000 1.00000000000000
0.23140939597315 -0.12026845637584 2.00805369127517 -0.00000000000000 0.00000000000000 -1.00000000000000
0.25825503355705 -0.12026845637584 2.00805369127517 0.00000000000000 -0.00000000000000 1.00000000000000
0.28510067114094 -0.12026845637584 2.00805369127517 0.00000000000000 -0.00000000000000 1.00000000000000
0.31194630872483 -0.12026845637584 2.00805369127517 0.00000000000000 -0.00000000000000 1.00000000000000
0.33879194630872 -0.12026845637584 2.00805369127517 0.00000000000000 -0.00000000000000 1.00000000000000
-0.29419354838710 -0.10463343108504 1.75483870967742 0.00000000000000 -0.00000000000000 -1.00000000000000
-0.27152941176471 -0.10494117647059 1.76000000000000 0.00000000000000 -0.00000000000000 1.00000000000000
-0.24800000000000 -0.10494117647059 1.76000000000000 0.00000000000000 -0.00000000000000 1.00000000000000
-0.22513274336283 -0.10525073746313 1.76519174041298 -0.00000000000000 0.00000000000000 1.00000000000000
-0.20272997032641 -0.10587537091988 1.77566765578635 0.00000000000000 0.00000000000000 1.00000000000000
-0.27049327354260 -0.16000000000000 2.68340807174888 0.91340787419842 -0.39919307094598 0.07956725118438
-0.17440000000000 -0.11893333333333 1.99466666666667 0.00000000000000 -0.00000000000000 -1.00000000000000
-0.14822742474916 -0.11933110367893 2.00133779264214 -0.00000000000000 0.00000000000000 1.00000000000000
-0.12147157190635 -0.11933110367893 2.00133779264214 nan nan nan
-0.09471571906355 -0.11933110367893 2.00133779264214 nan nan nan
-0.06795986622074 -0.11933110367893 2.00133779264214 -0.00000000000000 0.00000000000000 1.00000000000000
-0.04120401337793 -0.11933110367893 2.00133779264214 -0.00000000000000 0.00000000000000 1.00000000000000
-0.01444816053512 -0.11933110367893 2.00133779264214 nan nan nan
0.01175718849840 -0.11399361022364 1.91182108626198 -0.00000000000000 0.00000000000000 -1.00000000000000
0.03661442006270 -0.11184952978056 1.87586206896552 nan nan nan
0.06169278996865 -0.11184952978056 1.87586206896552 0.00000000000000 -0.00000000000000 1.00000000000000
0.08677115987461 -0.11184952978056 1.87586206896552 0.00000000000000 0.00000000000000 1.00000000000000
0.12136054421769 -0.12136054421769 2.03537414965986 0.47158310209552 0.82527042866716 0.31070580520083
0.14657718120805 -0.11973154362416 2.00805369127517 0.00000000000000 -0.00000000000000 1.00000000000000
0.17342281879195 -0.11973154362416 2.00805369127517 -0.00000000000000 0.00000000000000 1.00000000000000
0.20026845637584 -0.11973154362416 2.00805369127517 -0.00000000000000 0.00000000000000 -1.00000000000000
0.22711409395973 -0.11973154362416 2.00805369127517 -0.00000000000000 0.00000000000000 -1.00000000000000
0.25395973154362 -0.11973154362416 2.00805369127517 0.00000000000000 -0.00000000000000 1.00000000000000
0.28080536912752 -0.11973154362416 2.00805369127517 -0.00000000000000 0.00000000000000 -1.00000000000000
0.30765100671141 -0.11973154362416 2.00805369127517 0.00000000000000 -0.00000000000000 1.00000000000000
0.33449664429530 -0.11973154362416 2.00805369127517 0.00000000000000 -0.00000000000000 1.00000000000000
-0.29794721407625 -0.10416422287390 1.75483870967742 0.00000000000000 -0.00000000000000 1.00000000000000
-0.27529411764706 -0.10447058823529 1.76000000000000 0.00000000000000 -0.00000000000000 1.00000000000000
-0.25176470588235 -0.10447058823529 1.76000000000000 0.00000000000000 -0.00000000000000 1.00000000000000
-0.22890855457227 -0.10477876106195 1.76519174041298 0.00000000000000 -0.00000000000000 -1.00000000000000
-0.20591715976331 -0.10508875739645 1.77041420118343 nan nan nan
-0.18388059701493 -0.10602985074627 1.78626865671642 0.00000000000000 -0.00000000000000 1.00000000000000
-0.17866666666667 -0.11840000000000 1.99466666666667 0.00000000000000 0.00000000000000 1.00000000000000
-0.15250836120401 -0.11879598662207 2.00133779264214 0.00000000000000 -0.00000000000000 -1.00000000000000
-0.12575250836120 -0.11879598662207 2.00133779264214 0.00000000000000 -0.00000000000000 -1.00000000000000
-0.09899665551839 -0.11879598662207 2.00133779264214 0.00000000000000 -0.00000000000000 -1.00000000000000
-0.07224080267559 -0.11879598662207 2.00133779264214 0.00000000000000 -0.00000000000000 -1.00000000000000
-0.04548494983278 -0.11879598662207 2.00133779264214 0.00000000000000 -0.00000000000000 1.00000000000000
-0.01872909698997 -0.11879598662207 2.00133779264214 0.00000000000000 -0.00000000000000 -1.00000000000000
0.00771704180064 -0.11421221864952 1.92411575562701 0.11279957398104 0.90239659184837 -0.41588056834882
0.03260188087774 -0.11134796238245 1.87586206896552 nan nan nan
0.05768025078370 -0.11134796238245 1.87586206896552 -0.00000000000000 0.00000000000000 -1.00000000000000
0.08275862068966 -0.11134796238245 1.87586206896552 nan nan nan
0.10990415335463 -0.11348242811502 1.91182108626198 0.90348117138814 0.27799420658097 -0.32625296022341
0.14180602006689 -0.11879598662207 2.00133779264214 -0.00000000000000 0.00000000000000 -1.00000000000000
0.16912751677852 -0.11919463087248 2.00805369127517 -0.00000000000000 0.00000000000000 -1.00000000000000
0.19597315436242 -0.11919463087248 2.00805369127517 -0.00000000000000 0.00000000000000 -1.00000000000000
0.22281879194631 -0.11919463087248 2.00805369127517 -0.00000000000000 0.00000000000000 1.00000000000000
0.24966442953020 -0.11919463087248 2.00805369127517 -0.00000000000000 0.00000000000000 -1.00000000000000
0.27651006711409 -0.11919463087248 2.00805369127517 -0.00000000000000 0.00000000000000 -1.00000000000000
0.30335570469799 -0.11919463087248 2.00805369127517 0.00000000000000 -0.00000000000000 1.00000000000000
0.33020134228188 -0.11919463087248 2.00805369127517 0.00000000000000 -0.00000000000000 1.00000000000000
-0.30170087976540 -0.10369501466276 1.75483870967742 -0.00000000000000 0.00000000000000 1.00000000000000
-0.27824046920821 -0.10369501466276 1.75483870967742 0.00000000000000 -0.00000000000000 1.00000000000000
-0.25552941176471 -0.10400000000000 1.76000000000000 -0.00000000000000 0.00000000000000 1.00000000000000
-0.23268436578171 -0.10430678466077 1.76519174041298 -0.00000000000000 0.00000000000000 1.00000000000000
-0.20970414201183 -0.10461538461538 1.77041420118343 nan nan nan
-0.18714285714286 -0.10523809523810 1.78095238095238 0.00000000000000 -0.00000000000000 1.00000000000000
-0.18293333333333 -0.11786666666667 1.99466666666667 -0.00000000000000 0.00000000000000 -1.00000000000000
-0.15678929765886 -0.11826086956522 2.00133779264214 0.00000000000000 -0.00000000000000 1.00000000000000
-0.13003344481605 -0.11826086956522 2.00133779264214 -0.00000000000000 0.00000000000000 -1.00000000000000
-0.10327759197324 -0.11826086956522 2.00133779264214 -0.00000000000000 0.00000000000000 -1.00000000000000
-0.07652173913043 -0.11826086956522 2.00133779264214 -0.00000000000000 0.00000000000000 -1.00000000000000
-0.04976588628763 -0.11826086956522 2.00133779264214 -0.00000000000000 0.00000000000000 -1.00000000000000
-0.02301003344482 -0.11826086956522 2.00133779264214 -0.00000000000000 0.00000000000000 -1.00000000000000
0.00378378378378 -0.11945945945946 2.02162162162162 -0.72544409746711 0.50465676345538 0.46803035430287
0.02858934169279 -0.11084639498433 1.87586206896552 nan nan nan
0.05366771159875 -0.11084639498433 1.87586206896552 0.00000000000000 0.00000000000000 1.00000000000000
0.07874608150470 -0.11084639498433 1.87586206896552 nan nan nan
0.10514285714286 -0.11225396825397 1.89968253968254 0.86033220836453 -0.50837812312450 0.03715070899756
0.13752508361204 -0.11826086956522 2.00133779264214 -0.00000000000000 0.00000000000000 -1.00000000000000
0.16483221476510 -0.11865771812081 2.00805369127517 nan nan nan
0.19167785234899 -0.11865771812081 2.00805369127517 -0.00000000000000 0.00000000000000 1.00000000000000
0.21852348993289 -0.11865771812081 2.00805369127517 -0.00000000000000 0.00000000000000 1.00000000000000
0.24536912751678 -0.11865771812081 2.00805369127517 0.00000000000000 -0.00000000000000 1.00000000000000
0.27221476510067 -0.11865771812081 2.00805369127517 nan nan nan
0.29906040268456 -0.11865771812081 2.00805369127517 0.00000000000000 -0.00000000000000 1.00000000000000
0.32590604026846 -0.11865771812081 2.00805369127517 0.00000000000000 -0.00000000000000 1.00000000000000
-0.30545454545455 -0.10322580645161 1.75483870967742 0.00000000000000 -0.00000000000000 -1.00000000000000
-0.28199413489736 -0.10322580645161 1.75483870967742 -0.00000000000000 0.00000000000000 1.00000000000000
-0.25929411764706 -0.10352941176471 1.76000000000000 -0.00000000000000 0.00000000000000 1.00000000000000
-0.23646017699115 -0.10383480825959 1.76519174041298 0.00000000000000 -0.00000000000000 1.00000000000000
-0.21349112426036 -0.10414201183432 1.77041420118343 0.00000000000000 -0.00000000000000 -1.00000000000000
-0.19095238095238 -0.10476190476190 1.78095238095238 -0.00000000000000 0.00000000000000 -1.00000000000000
-0.18720000000000 -0.11733333333333 1.99466666666667 0.00000000000000 0.00000000000000 1.00000000000000
-0.16107023411371 -0.11772575250836 2.00133779264214 0.00000000000000 0.00000000000000 -1.00000000000000
-0.13431438127090 -0.11772575250836 2.00133779264214 0.00000000000000 -0.00000000000000 -1.00000000000000
-0.10755852842809 -0.11772575250836 2.00133779264214 0.00000000000000 -0.00000000000000 1.00000000000000
-0.08080267558528 -0.11772575250836 2.00133779264214 0.00000000000000 -0.00000000000000 1.00000000000000
-0.05404682274247 -0.11772575250836 2.00133779264214 0.00000000000000 -0.00000000000000 1.00000000000000
-0.02729096989967 -0.11772575250836 2.00133779264214 0.00000000000000 -0.00000000000000 -1.00000000000000
-0.00053511705686 -0.11772575250836 2.00133779264214 0.00000000000000 -0.00000000000000 1.00000000000000
0.02457680250784 -0.11034482758621 1.87586206896552 0.00000000000000 0.00000000000000 1.00000000000000
0.04965517241379 -0.11034482758621 1.87586206896552 -0.00000000000000 0.00000000000000 -1.00000000000000
0.07473354231975 -0.11034482758621 1.87586206896552 nan nan nan
0.10044164037855 -0.11104100946372 1.88769716088328 -0.68930836432997 -0.59083574085426 0.41924587796892
0.13324414715719 -0.11772575250836 2.00133779264214 0.00000000000000 -0.00000000000000 -1.00000000000000
0.16053691275168 -0.11812080536913 2.00805369127517 -0.00000000000000 0.00000000000000 -1.00000000000000
0.18738255033557 -0.11812080536913 2.00805369127517 -0.00000000000000 0.00000000000000 1.00000000000000
0.21422818791946 -0.11812080536913 2.00805369127517 -0.00000000000000 0.00000000000000 -1.00000000000000
0.24107382550336 -0.11812080536913 2.00805369127517 -0.00000000000000 0.00000000000000 -1.00000000000000
0.26791946308725 -0.11812080536913 2.00805369127517 -0.00000000000000 0.00000000000000 -1.00000000000000
0.29476510067114 -0.11812080536913 2.00805369127517 -0.00000000000000 0.00000000000000 -1.00000000000000
0.32161073825503 -0.11812080536913 2.00805369127517 0.00000000000000 -0.00000000000000 1.00000000000000
0.34845637583893 -0.11812080536913 2.00805369127517 0.00000000000000 -0.00000000000000 1.00000000000000
-0.28574780058651 -0.10275659824047 1.75483870967742 0.00000000000000 -0.00000000000000 -1.00000000000000
-0.26305882352941 -0.10305882352941 1.76000000000000 0.00000000000000 -0.00000000000000 -1.00000000000000
-0.24023598820059 -0.10336283185841 1.76519174041298 0.00000000000000 0.00000000000000 1.00000000000000
-0.21663716814159 -0.10336283185841 1.76519174041298 0.00000000000000 -0.00000000000000 1.00000000000000
-0.19418397626113 -0.10397626112760 1.77566765578635 0.00000000000000 -0.00000000000000 -1.00000000000000
-0.18710097719870 -0.11413680781759 1.94918566775244 0.90092650424912 -0.42901262107101 -0.06541868925048
-0.16535117056856 -0.11719063545151 2.00133779264214 0.00000000000000 0.00000000000000 -1.00000000000000
-0.13859531772575 -0.11719063545151 2.00133779264214 -0.00000000000000 0.00000000000000 -1.00000000000000
-0.11183946488294 -0.11719063545151 2.00133779264214 -0.00000000000000 0.00000000000000 -1.00000000000000
-0.08508361204013 -0.11719063545151 2.00133779264214 -0.00000000000000 0.00000000000000 -1.00000000000000
-0.05832775919732 -0.11719063545151 2.00133779264214 -0.00000000000000 0.00000000000000 -1.00000000000000
-0.03157190635452 -0.11719063545151 2.00133779264214 -0.00000000000000 0.00000000000000 -1.00000000000000
-0.00481605351171 -0.11719063545151 2.00133779264214 0.00000000000000 0.00000000000000 -1.00000000000000
0.02062893081761 -0.11018867924528 1.88176100628931 -0.00000000000000 0.00000000000000 -1.00000000000000
0.04564263322884 -0.10984326018809 1.87586206896552 nan nan nan
0.07072100313480 -0.10984326018809 1.87586206896552 nan nan nan
0.09610062893082 -0.11018867924528 1.88176100628931 -0.00000000000000 0.00000000000000 -1.00000000000000
0.12896321070234 -0.11719063545151 2.00133779264214 -0.00000000000000 0.00000000000000 -1.00000000000000
0.15624161073826 -0.11758389261745 2.00805369127517 nan nan nan
0.18308724832215 -0.11758389261745 2.00805369127517 -0.00000000000000 0.00000000000000 1.00000000000000
0.20993288590604 -0.11758389261745 2.00805369127517 0.00000000000000 -0.00000000000000 1.00000000000000
0.23677852348993 -0.11758389261745 2.00805369127517 -0.00000000000000 0.00000000000000 1.00000000000000
0.26362416107383 -0.11758389261745 2.00805369127517 nan nan nan
0.29046979865772 -0.11758389261745 2.00805369127517 nan nan nan
0.31731543624161 -0.11758389261745 2.00805369127517 0.00000000000000 -0.00000000000000 1.00000000000000
0.34416107382550 -0.11758389261745 2.00805369127517 0.00000000000000 -0.00000000000000 1.00000000000000
-0.28950146627566 -0.10228739002933 1.75483870967742 0.00000000000000 -0.00000000000000 1.00000000000000
-0.26682352941176 -0.10258823529412 1.76000000000000 0.00000000000000 -0.00000000000000 1.00000000000000
-0.24329411764706 -0.10258823529412 1.76000000000000 0.00000000000000 -0.00000000000000 1.00000000000000
-0.22041297935103 -0.10289085545723 1.76519174041298 -0.00000000000000 0.00000000000000 1.00000000000000
-0.19798219584570 -0.10350148367953 1.77566765578635 -0.00000000000000 0.00000000000000 1.00000000000000
-0.22584615384615 -0.13415384615385 2.30153846153846 -0.84549355259152 -0.16190302070902 -0.50884974640011
-0.16963210702341 -0.11665551839465 2.00133779264214 0.00000000000000 0.00000000000000 -1.00000000000000
-0.14287625418060 -0.11665551839465 2.00133779264214 -0.00000000000000 0.00000000000000 1.00000000000000
-0.11612040133779 -0.11665551839465 2.00133779264214 0.00000000000000 -0.00000000000000 1.00000000000000
-0.08936454849498 -0.11665551839465 2.00133779264214 0.00000000000000 -0.00000000000000 1.00000000000000
-0.06260869565217 -0.11665551839465 2.00133779264214 0.00000000000000 -0.00000000000000 1.00000000000000
-0.03585284280936 -0.11665551839465 2.00133779264214 0.00000000000000 -0.00000000000000 1.00000000000000
-0.00909698996656 -0.11665551839465 2.00133779264214 0.00000000000000 -0.00000000000000 -1.00000000000000
0.01670886075949 -0.11037974683544 1.89367088607595 -0.94834270745385 0.31611423581795 0.02679363977387
0.04163009404389 -0.10934169278997 1.87586206896552 nan nan nan
0.06670846394984 -0.10934169278997 1.87586206896552 nan nan nan
0.09207547169811 -0.10968553459119 1.88176100628931 0.00000000000000 -0.00000000000000 1.00000000000000
0.12468227424749 -0.11665551839465 2.00133779264214 0.00000000000000 0.00000000000000 1.00000000000000
0.15194630872483 -0.11704697986577 2.00805369127517 0.00000000000000 0.00000000000000 -1.00000000000000
0.17879194630872 -0.11704697986577 2.00805369127517 -0.00000000000000 0.00000000000000 -1.00000000000000
0.20563758389262 -0.11704697986577 2.00805369127517 -0.00000000000000 0.00000000000000 -1.00000000000000
0.23248322147651 -0.11704697986577 2.00805369127517 -0.00000000000000 0.00000000000000 1.00000000000000
0.25932885906040 -0.11704697986577 2.00805369127517 -0.00000000000000 0.00000000000000 1.00000000000000
0.28617449664430 -0.11704697986577 2.00805369127517 -0.00000000000000 0.00000000000000 1.00000000000000
0.31302013422819 -0.11704697986577 2.00805369127517 -0.00000000000000 0.00000000000000 1.00000000000000
0.33986577181208 -0.11704697986577 2.00805369127517 -0.00000000000000 0.00000000000000 1.00000000000000
-0.29325513196481 -0.10181818181818 1.75483870967742 -0.00000000000000 0.00000000000000 1.00000000000000
-0.27058823529412 -0.10211764705882 1.76000000000000 nan nan nan
-0.24705882352941 -0.10211764705882 1.76000000000000 -0.00000000000000 0.00000000000000 1.00000000000000
-0.22418879056047 -0.10241887905605 1.76519174041298 0.00000000000000 -0.00000000000000 1.00000000000000
-0.20118343195266 -0.10272189349112 1.77041420118343 0.00000000000000 -0.00000000000000 1.00000000000000
-0.27272727272727 -0.15781818181818 2.72000000000000 -0.83859138469990 0.53835496301722 -0.08329719864331
-0.17333333333333 -0.11573333333333 1.99466666666667 0.00000000000000 0.00000000000000 1.00000000000000
-0.14715719063545 -0.11612040133779 2.00133779264214 0.00000000000000 -0.00000000000000 1.00000000000000
-0.12040133779264 -0.11612040133779 2.00133779264214 0.00000000000000 -0.00000000000000 -1.00000000000000
-0.09364548494983 -0.11612040133779 2.00133779264214 0.00000000000000 -0.00000000000000 -1.00000000000000
-0.06688963210702 -0.11612040133779 2.00133779264214 0.00000000000000 -0.00000000000000 -1.00000000000000
-0.04013377926421 -0.11612040133779 2.00133779264214 0.00000000000000 -0.00000000000000 1.00000000000000
-0.01337792642140 -0.11612040133779 2.00133779264214 0.00000000000000 -0.00000000000000 -1.00000000000000
0.01277955271565 -0.11092651757188 1.91182108626198 0.00000000000000 0.00000000000000 -1.00000000000000
0.03761755485893 -0.10884012539185 1.87586206896552 nan nan nan
0.06269592476489 -0.10884012539185 1.87586206896552 0.00000000000000 0.00000000000000 1.00000000000000
0.08805031446541 -0.10918238993711 1.88176100628931 0.00000000000000 0.00000000000000 -1.00000000000000
0.12040133779264 -0.11612040133779 2.00133779264214 0.00000000000000 0.00000000000000 -1.00000000000000
0.14765100671141 -0.11651006711409 2.00805369127517 0.00000000000000 -0.00000000000000 -1.00000000000000
0.17449664429530 -0.11651006711409 2.00805369127517 0.00000000000000 -0.00000000000000 1.00000000000000
0.20134228187919 -0.11651006711409 2.00805369127517 0.00000000000000 -0.00000000000000 -1.00000000000000
0.22818791946309 -0.11651006711409 2.00805369127517 0.00000000000000 -0.00000000000000 -1.00000000000000
0.25503355704698 -0.11651006711409 2.00805369127517 0.00000000000000 -0.00000000000000 -1.00000000000000
0.28187919463087 -0.11651006711409 2.00805369127517 0.00000000000000 -0.00000000000000 -1.00000000000000
0.30872483221477 -0.11651006711409 2.00805369127517 0.00000000000000 -0.00000000000000 -1.00000000000000
0.33557046979866 -0.11651006711409 2.00805369127517 0.00000000000000 -0.00000000000000 -1.00000000000000
-0.29700879765396 -0.10134897360704 1.75483870967742 -0.00000000000000 0.00000000000000 -1.00000000000000
-0.27435294117647 -0.10164705882353 1.76000000000000 -0.00000000000000 0.00000000000000 -1.00000000000000
-0.25082352941176 -0.10164705882353 1.76000000000000 -0.00000000000000 0.00000000000000 -1.00000000000000
-0.22796460176991 -0.10194690265487 1.76519174041298 -0.00000000000000 0.00000000000000 1.00000000000000
-0.20497041420118 -0.10224852071006 1.77041420118343 0.00000000000000 -0.00000000000000 -1.00000000000000
-0.18292537313433 -0.10316417910448 1.78626865671642 -0.00000000000000 0.00000000000000 -1.00000000000000
-0.17819397993311 -0.11558528428094 2.00133779264214 0.00000000000000 -0.00000000000000 1.00000000000000
-0.15143812709030 -0.11558528428094 2.00133779264214 -0.00000000000000 0.00000000000000 -1.00000000000000
-0.12468227424749 -0.11558528428094 2.00133779264214 -0.00000000000000 0.00000000000000 -1.00000000000000
-0.09792642140468 -0.11558528428094 2.00133779264214 -0.00000000000000 0.00000000000000 -1.00000000000000
-0.07117056856187 -0.11558528428094 2.00133779264214 -0.00000000000000 0.00000000000000 -1.00000000000000
-0.04441471571906 -0.11558528428094 2.00133779264214 -0.00000000000000 0.00000000000000 -1.00000000000000
-0.01765886287625 -0.11558528428094 2.00133779264214 -0.00000000000000 0.00000000000000 -1.00000000000000
0.00928327645051 -0.11795221843003 2.04232081911263 0.80840705566500 -0.56237012568000 -0.17383289128848
0.03360501567398 -0.10833855799373 1.87586206896552 0.00000000000000 -0.00000000000000 1.00000000000000
0.05850000000000 -0.10800000000000 1.87000000000000 0.00000000000000 -0.00000000000000 1.00000000000000
0.08376175548589 -0.10833855799373 1.87586206896552 nan nan nan
0.11346405228758 -0.11294117647059 1.95555555555556 0.49602581821475 0.86804518187582 0.02135298308358
0.14335570469799 -0.11597315436242 2.00805369127517 0.00000000000000 0.00000000000000 -1.00000000000000
0.17020134228188 -0.11597315436242 2.00805369127517 0.00000000000000 -0.00000000000000 -1.00000000000000
0.19704697986577 -0.11597315436242 2.00805369127517 0.00000000000000 -0.00000000000000 -1.00000000000000
0.22389261744966 -0.11597315436242 2.00805369127517 0.00000000000000 -0.00000000000000 1.00000000000000
0.25073825503356 -0.11597315436242 2.00805369127517 0.00000000000000 -0.00000000000000 1.00000000000000
0.27758389261745 -0.11597315436242 2.00805369127517 0.00000000000000 -0.00000000000000 -1.00000000000000
0.30442953020134 -0.11597315436242 2.00805369127517 -0.00000000000000 0.00000000000000 1.00000000000000
0.33127516778523 -0.11597315436242 2.00805369127517 -0.00000000000000 0.00000000000000 1.00000000000000
-0.30076246334311 -0.10087976539589 1.75483870967742 -0.00000000000000 0.00000000000000 -1.00000000000000
-0.27730205278592 -0.10087976539589 1.75483870967742 -0.00000000000000 0.00000000000000 -1.00000000000000
-0.25458823529412 -0.10117647058824 1.76000000000000 0.00000000000000 -0.00000000000000 1.00000000000000
-0.23174041297935 -0.10147492625369 1.76519174041298 0.00000000000000 -0.00000000000000 1.00000000000000
-0.20875739644970 -0.10177514792899 1.77041420118343 0.00000000000000 -0.00000000000000 -1.00000000000000
-0.18619047619048 -0.10238095238095 1.78095238095238 0.00000000000000 -0.00000000000000 -1.00000000000000
-0.18247491638796 -0.11505016722408 2.00133779264214 0.00000000000000 -0.00000000000000 1.00000000000000
-0.15571906354515 -0.11505016722408 2.00133779264214 0.00000000000000 -0.00000000000000 1.00000000000000
-0.12896321070234 -0.11505016722408 2.00133779264214 0.00000000000000 -0.00000000000000 -1.00000000000000
-0.10220735785953 -0.11505016722408 2.00133779264214 0.00000000000000 -0.00000000000000 -1.00000000000000
-0.07545150501672 -0.11505016722408 2.00133779264214 0.00000000000000 -0.00000000000000 -1.00000000000000
-0.04869565217391 -0.11505016722408 2.00133779264214 0.00000000000000 -0.00000000000000 -1.00000000000000
-0.02193979933110 -0.11505016722408 2.00133779264214 0.00000000000000 -0.00000000000000 -1.00000000000000
0.00481605351171 -0.11505016722408 2.00133779264214 0.00000000000000 -0.00000000000000 1.00000000000000
0.02959247648903 -0.10783699059561 1.87586206896552 0.00000000000000 0.00000000000000 1.00000000000000
0.05450000000000 -0.10750000000000 1.87000000000000 0.00000000000000 -0.00000000000000 1.00000000000000
0.07974921630094 -0.10783699059561 1.87586206896552 nan nan nan
0.10649681528662 -0.10955414012739 1.90573248407643 0.94705156480941 -0.31274726093706 -0.07268070148537
0.13859531772575 -0.11505016722408 2.00133779264214 -0.00000000000000 0.00000000000000 -1.00000000000000
0.16590604026846 -0.11543624161074 2.00805369127517 nan nan nan
0.19275167785235 -0.11543624161074 2.00805369127517 0.00000000000000 -0.00000000000000 1.00000000000000
0.21959731543624 -0.11543624161074 2.00805369127517 nan nan nan
0.24644295302013 -0.11543624161074 2.00805369127517 -0.00000000000000 0.00000000000000 1.00000000000000
0.27328859060403 -0.11543624161074 2.00805369127517 nan nan nan
0.30013422818792 -0.11543624161074 2.00805369127517 -0.00000000000000 0.00000000000000 1.00000000000000
0.32697986577181 -0.11543624161074 2.00805369127517 -0.00000000000000 0.00000000000000 1.00000000000000
-0.30451612903226 -0.10041055718475 1.75483870967742 -0.00000000000000 0.00000000000000 1.00000000000000
-0.28105571847507 -0.10041055718475 1.75483870967742 0.00000000000000 -0.00000000000000 1.00000000000000
-0.25835294117647 -0.10070588235294 1.76000000000000 0.00000000000000 -0.00000000000000 1.00000000000000
-0.23551622418879 -0.10100294985251 1.76519174041298 -0.00000000000000 0.00000000000000 1.00000000000000
-0.21254437869822 -0.10130177514793 1.77041420118343 0.00000000000000 -0.00000000000000 1.00000000000000
-0.19000000000000 -0.10190476190476 1.78095238095238 0.00000000000000 -0.00000000000000 -1.00000000000000
-0.18675585284281 -0.11451505016722 2.00133779264214 0.00000000000000 0.00000000000000 -1.00000000000000
-0.16000000000000 -0.11451505016722 2.00133779264214 -0.00000000000000 0.00000000000000 1.00000000000000
-0.13324414715719 -0.11451505016722 2.00133779264214 -0.00000000000000 0.00000000000000 -1.00000000000000
-0.10648829431438 -0.11451505016722 2.00133779264214 -0.00000000000000 0.00000000000000 -1.00000000000000
-0.07973244147157 -0.11451505016722 2.00133779264214 -0.00000000000000 0.00000000000000 -1.00000000000000
-0.05297658862876 -0.11451505016722 2.00133779264214 -0.00000000000000 0.00000000000000 1.00000000000000
-0.02622073578595 -0.11451505016722 2.00133779264214 -0.00000000000000 0.00000000000000 -1.00000000000000
0.00053511705686 -0.11451505016722 2.00133779264214 -0.00000000000000 0.00000000000000 -1.00000000000000
0.02566037735849 -0.10767295597484 1.88176100628931 0.00000000000000 -0.00000000000000 1.00000000000000
0.05050000000000 -0.10700000000000 1.87000000000000 0.00000000000000 0.00000000000000 -1.00000000000000
0.07573667711599 -0.10733542319749 1.87586206896552 nan nan nan
0.10177215189873 -0.10835443037975 1.89367088607595 -0.94642780644337 0.31547593548113 0.06891546505029
0.13431438127090 -0.11451505016722 2.00133779264214 0.00000000000000 0.00000000000000 1.00000000000000
0.16161073825503 -0.11489932885906 2.00805369127517 0.00000000000000 -0.00000000000000 -1.00000000000000
0.18845637583893 -0.11489932885906 2.00805369127517 0.00000000000000 -0.00000000000000 1.00000000000000
0.21530201342282 -0.11489932885906 2.00805369127517 0.00000000000000 -0.00000000000000 -1.00000000000000
0.24214765100671 -0.11489932885906 2.00805369127517 0.00000000000000 -0.00000000000000 -1.00000000000000
0.26899328859060 -0.11489932885906 2.00805369127517 0.00000000000000 -0.00000000000000 -1.00000000000000
0.29583892617450 -0.11489932885906 2.00805369127517 0.00000000000000 -0.00000000000000 -1.00000000000000
0.32268456375839 -0.11489932885906 2.00805369127517 -0.00000000000000 0.00000000000000 1.00000000000000
0.34953020134228 -0.11489932885906 2.00805369127517 -0.00000000000000 0.00000000000000 1.00000000000000
-0.28480938416422 -0.09994134897361 1.75483870967742 -0.00000000000000 0.00000000000000 1.00000000000000
-0.26211764705882 -0.10023529411765 1.76000000000000 -0.00000000000000 0.00000000000000 1.00000000000000
-0.23858823529412 -0.10023529411765 1.76000000000000 0.00000000000000 -0.00000000000000 1.00000000000000
-0.21569321533923 -0.10053097345133 1.76519174041298 -0.00000000000000 0.00000000000000 1.00000000000000
-0.19323442136499 -0.10112759643917 1.77566765578635 -0.00000000000000 0.00000000000000 -1.00000000000000
-0.18789473684211 -0.11210526315789 1.96842105263158 -0.94619666048238 0.31539888682746 -0.07235621521336
-0.16428093645485 -0.11397993311037 2.00133779264214 nan nan nan
-0.13752508361204 -0.11397993311037 2.00133779264214 -0.00000000000000 0.00000000000000 1.00000000000000
-0.11076923076923 -0.11397993311037 2.00133779264214 nan nan nan
-0.08401337792642 -0.11397993311037 2.00133779264214 nan nan nan
-0.05725752508361 -0.11397993311037 2.00133779264214 -0.00000000000000 0.00000000000000 1.00000000000000
-0.03050167224080 -0.11397993311037 2.00133779264214 -0.00000000000000 0.00000000000000 1.00000000000000
-0.00374581939799 -0.11397993311037 2.00133779264214 nan nan nan
0.02163522012579 -0.10716981132075 1.88176100628931 0.00000000000000 0.00000000000000 1.00000000000000
0.04664576802508 -0.10683385579937 1.87586206896552 -0.00000000000000 0.00000000000000 -1.00000000000000
0.07172413793103 -0.10683385579937 1.87586206896552 nan nan nan
0.09741324921136 -0.10750788643533 1.88769716088328 0.00000000000000 0.00000000000000 -1.00000000000000
0.13003344481605 -0.11397993311037 2.00133779264214 0.00000000000000 0.00000000000000 1.00000000000000
0.15731543624161 -0.11436241610738 2.00805369127517 -0.00000000000000 0.00000000000000 1.00000000000000
0.18416107382550 -0.11436241610738 2.00805369127517 0.00000000000000 -0.00000000000000 1.00000000000000
0.21100671140940 -0.11436241610738 2.00805369127517 -0.00000000000000 0.00000000000000 1.00000000000000
0.23785234899329 -0.11436241610738 2.00805369127517 0.00000000000000 -0.00000000000000 1.00000000000000
0.26469798657718 -0.11436241610738 2.00805369127517 nan nan nan
0.29154362416107 -0.11436241610738 2.00805369127517 nan nan nan
0.31838926174497 -0.11436241610738 2.00805369127517 -0.00000000000000 0.00000000000000 1.00000000000000
0.34523489932886 -0.11436241610738 2.00805369127517 -0.00000000000000 0.00000000000000 1.00000000000000
-0.28856304985337 -0.09947214076246 1.75483870967742 -0.00000000000000 0.00000000000000 -1.00000000000000
-0.26588235294118 -0.09976470588235 1.76000000000000 0.00000000000000 -0.00000000000000 -1.00000000000000
-0.24235294117647 -0.09976470588235 1.76000000000000 0.00000000000000 -0.00000000000000 -1.00000000000000
-0.21946902654867 -0.10005899705015 1.76519174041298 0.00000000000000 0.00000000000000 1.00000000000000
-0.19703264094955 -0.10065281899110 1.77566765578635 0.00000000000000 -0.00000000000000 1.00000000000000
-0.20348432055749 -0.11818815331010 2.08501742160279 0.83753440389738 -0.27917813463246 -0.46967615591106
-0.16856187290970 -0.11344481605351 2.00133779264214 -0.00000000000000 0.00000000000000 -1.00000000000000
-0.14180602006689 -0.11344481605351 2.00133779264214 0.00000000000000 -0.00000000000000 1.00000000000000
-0.11505016722408 -0.11344481605351 2.00133779264214 -0.00000000000000 0.00000000000000 -1.00000000000000
-0.08829431438127 -0.11344481605351 2.00133779264214 -0.00000000000000 0.00000000000000 -1.00000000000000
-0.06153846153846 -0.11344481605351 2.00133779264214 -0.00000000000000 0.00000000000000 1.00000000000000
-0.03478260869565 -0.11344481605351 2.00133779264214 -0.00000000000000 0.00000000000000 1.00000000000000
-0.00802675585284 -0.11344481605351 2.00133779264214 -0.00000000000000 0.00000000000000 -1.00000000000000
0.01766561514196 -0.10700315457413 1.88769716088328 0.00000000000000 0.00000000000000 1.00000000000000
0.04263322884013 -0.10633228840125 1.87586206896552 nan nan nan
0.06771159874608 -0.10633228840125 1.87586206896552 nan nan nan
0.09308176100629 -0.10666666666667 1.88176100628931 -0.00000000000000 0.00000000000000 -1.00000000000000
0.12617449664430 -0.11382550335570 2.00805369127517 0.00000000000000 0.00000000000000 1.00000000000000
0.15302013422819 -0.11382550335570 2.00805369127517 0.00000000000000 -0.00000000000000 1.00000000000000
0.17986577181208 -0.11382550335570 2.00805369127517 0.00000000000000 -0.00000000000000 -1.00000000000000
0.20671140939597 -0.11382550335570 2.00805369127517 0.00000000000000 -0.00000000000000 -1.00000000000000
0.23355704697987 -0.11382550335570 2.00805369127517 0.00000000000000 -0.00000000000000 1.00000000000000
0.26040268456376 -0.11382550335570 2.00805369127517 0.00000000000000 -0.00000000000000 -1.00000000000000
