ply
            format ascii 1.0
            element vertex 30657
            property float x
            property float y
            property float z
            property float nx
            property float ny
            property float nz
end_header
0.19701492537313 0.18388059701493 1.48855721393035 -0.00000000000000 -0.00000000000000 -1.00000000000000
0.21745635910224 0.18433915211970 1.49226932668329 0.94728258526263 0.27065216721789 -0.17147334497936
0.24986876640420 0.19401574803150 1.57060367454068 nan nan nan
0.27086614173228 0.19401574803150 1.57060367454068 nan nan nan
-0.28204081632653 0.18897959183673 1.52653061224490 0.00000000000000 0.00000000000000 1.00000000000000
-0.26432989690722 0.19092783505155 1.54226804123711 0.00000000000000 -0.00000000000000 1.00000000000000
-0.24434108527132 0.19142118863049 1.54625322997416 0.00000000000000 0.00000000000000 1.00000000000000
-0.22309278350515 0.19092783505155 1.54226804123711 0.00000000000000 0.00000000000000 -1.00000000000000
-0.20299741602067 0.19142118863049 1.54625322997416 -0.00000000000000 0.00000000000000 -1.00000000000000
-0.18375000000000 0.19291666666667 1.55833333333333 0.00000000000000 0.00000000000000 -1.00000000000000
-0.16249350649351 0.19241558441558 1.55428571428571 0.00000000000000 -0.00000000000000 1.00000000000000
-0.14208333333333 0.19291666666667 1.55833333333333 0.00000000000000 0.00000000000000 1.00000000000000
-0.11496296296296 0.18291358024691 1.47753086419753 0.00000000000000 -0.00000000000000 -1.00000000000000
-0.09544554455446 0.18336633663366 1.48118811881188 0.00000000000000 0.00000000000000 1.00000000000000
-0.07958333333333 0.19291666666667 1.55833333333333 0.00000000000000 -0.00000000000000 1.00000000000000
-0.05890339425587 0.19342036553525 1.56240208877285 -0.00000000000000 0.00000000000000 1.00000000000000
-0.03695431472081 0.18802030456853 1.51878172588832 -0.96146978871692 -0.27470565391912 0.01061362753779
-0.01627791563275 0.18382133995037 1.48486352357320 0.00000000000000 0.00000000000000 1.00000000000000
0.00375979112272 0.19342036553525 1.56240208877285 nan nan nan
0.02471204188482 0.19392670157068 1.56649214659686 0.00000000000000 0.00000000000000 1.00000000000000
0.04437659033079 0.18849872773537 1.52264631043257 0.85256000056404 -0.31002181838693 0.42074685686563
0.06375939849624 0.18566416040100 1.49974937343358 nan nan nan
0.08753926701571 0.19392670157068 1.56649214659686 0.00000000000000 0.00000000000000 1.00000000000000
0.10848167539267 0.19392670157068 1.56649214659686 0.00000000000000 -0.00000000000000 1.00000000000000
0.12942408376963 0.19392670157068 1.56649214659686 0.00000000000000 -0.00000000000000 1.00000000000000
0.15036649214660 0.19392670157068 1.56649214659686 -0.00000000000000 0.00000000000000 1.00000000000000
0.17130890052356 0.19392670157068 1.56649214659686 0.00000000000000 -0.00000000000000 1.00000000000000
0.19275590551181 0.19443569553806 1.57060367454068 0.00000000000000 0.00000000000000 -1.00000000000000
0.20158415841584 0.18336633663366 1.48118811881188 nan nan nan
0.23475065616798 0.19443569553806 1.57060367454068 0.00000000000000 -0.00000000000000 1.00000000000000
0.25574803149606 0.19443569553806 1.57060367454068 -0.00000000000000 0.00000000000000 1.00000000000000
0.27674540682415 0.19443569553806 1.57060367454068 0.00000000000000 0.00000000000000 1.00000000000000
-0.27703324808184 0.18987212276215 1.53043478260870 nan nan nan
-0.25855670103093 0.19134020618557 1.54226804123711 nan nan nan
-0.23793814432990 0.19134020618557 1.54226804123711 0.06936027951662 -0.97104391323274 -0.22861073946563
-0.21731958762887 0.19134020618557 1.54226804123711 nan nan nan
-0.19772020725389 0.19233160621762 1.55025906735751 0.00000000000000 0.00000000000000 -1.00000000000000
-0.17791666666667 0.19333333333333 1.55833333333333 0.00000000000000 -0.00000000000000 -1.00000000000000
-0.15667532467532 0.19283116883117 1.55428571428571 0.00000000000000 -0.00000000000000 -1.00000000000000
-0.12982630272953 0.18421836228288 1.48486352357320 -0.00000000000000 -0.00000000000000 1.00000000000000
-0.10943209876543 0.18330864197531 1.47753086419753 0.00000000000000 -0.00000000000000 -1.00000000000000
-0.09012406947891 0.18421836228288 1.48486352357320 0.00000000000000 0.00000000000000 1.00000000000000
-0.07375000000000 0.19333333333333 1.55833333333333 0.00000000000000 -0.00000000000000 1.00000000000000
-0.05305483028721 0.19383812010444 1.56240208877285 0.00000000000000 0.00000000000000 1.00000000000000
-0.03072319201995 0.18513715710723 1.49226932668329 0.55109021451168 -0.82663532176753 0.11390180102073
-0.01074626865672 0.18467661691542 1.48855721393035 -0.28189040372665 -0.75170774327105 0.59621579062717
0.00960835509138 0.19383812010444 1.56240208877285 -0.00000000000000 0.00000000000000 -1.00000000000000
0.03057591623037 0.19434554973822 1.56649214659686 0.00000000000000 -0.00000000000000 -1.00000000000000
0.04957178841310 0.18700251889169 1.50730478589421 -0.61155983532085 0.77943900580108 -0.13590218562686
0.06954773869347 0.18653266331658 1.50351758793970 -0.28020244630547 -0.74720652348126 0.60263504739725
0.09315926892950 0.19383812010444 1.56240208877285 0.00000000000000 -0.00000000000000 1.00000000000000
0.11434554973822 0.19434554973822 1.56649214659686 0.00000000000000 -0.00000000000000 -1.00000000000000
0.13528795811518 0.19434554973822 1.56649214659686 0.00000000000000 0.00000000000000 1.00000000000000
0.15623036649215 0.19434554973822 1.56649214659686 0.00000000000000 -0.00000000000000 -1.00000000000000
0.17763779527559 0.19485564304462 1.57060367454068 0.00000000000000 0.00000000000000 1.00000000000000
0.19306122448980 0.18938775510204 1.52653061224490 0.98580305367531 -0.16779626445537 0.00606242519640
0.20712871287129 0.18376237623762 1.48118811881188 0.00000000000000 0.00000000000000 1.00000000000000
0.24062992125984 0.19485564304462 1.57060367454068 -0.00000000000000 0.00000000000000 1.00000000000000
0.26162729658793 0.19485564304462 1.57060367454068 nan nan nan
0.28262467191601 0.19485564304462 1.57060367454068 0.00000000000000 0.00000000000000 1.00000000000000
-0.27200000000000 0.19076923076923 1.53435897435897 0.00000000000000 0.00000000000000 1.00000000000000
-0.25278350515464 0.19175257731959 1.54226804123711 0.00000000000000 0.00000000000000 1.00000000000000
-0.23156812339332 0.19125964010283 1.53830334190231 -0.00000000000000 0.00000000000000 1.00000000000000
-0.21154639175258 0.19175257731959 1.54226804123711 -0.00000000000000 0.00000000000000 -1.00000000000000
-0.19191709844560 0.19274611398964 1.55025906735751 -0.00000000000000 0.00000000000000 -1.00000000000000
-0.17208333333333 0.19375000000000 1.55833333333333 0.00000000000000 0.00000000000000 1.00000000000000
-0.15085714285714 0.19324675324675 1.55428571428571 nan nan nan
-0.12396039603960 0.18415841584158 1.48118811881188 nan nan nan
-0.10415841584158 0.18415841584158 1.48118811881188 nan nan nan
-0.08851948051948 0.19324675324675 1.55428571428571 0.79274335544279 0.22649810155508 -0.56591216844424
-0.06809399477807 0.19425587467363 1.56240208877285 0.00000000000000 0.00000000000000 1.00000000000000
-0.04708333333333 0.19375000000000 1.55833333333333 0.00000000000000 -0.00000000000000 1.00000000000000
-0.02507462686567 0.18507462686567 1.48855721393035 -0.00000000000000 0.00000000000000 -1.00000000000000
-0.00540259740260 0.19324675324675 1.55428571428571 0.77372001425094 0.22106286121456 -0.59370746242502
0.01545691906005 0.19425587467363 1.56240208877285 -0.00000000000000 0.00000000000000 -1.00000000000000
0.03643979057592 0.19476439790576 1.56649214659686 0.00000000000000 0.00000000000000 1.00000000000000
0.05493734335840 0.18646616541353 1.49974937343358 0.00000000000000 0.00000000000000 1.00000000000000
0.07915343915344 0.19682539682540 1.58306878306878 -0.95828932646866 -0.27379695041961 0.08195606577400
0.09900783289817 0.19425587467363 1.56240208877285 0.00000000000000 -0.00000000000000 1.00000000000000
0.12020942408377 0.19476439790576 1.56649214659686 0.00000000000000 0.00000000000000 1.00000000000000
0.14115183246073 0.19476439790576 1.56649214659686 0.00000000000000 0.00000000000000 1.00000000000000
0.16209424083770 0.19476439790576 1.56649214659686 0.00000000000000 -0.00000000000000 1.00000000000000
0.18351706036745 0.19527559055118 1.57060367454068 -0.00000000000000 0.00000000000000 1.00000000000000
0.19431421446384 0.18553615960100 1.49226932668329 -0.00000000000000 -0.00000000000000 -1.00000000000000
0.21320099255583 0.18461538461538 1.48486352357320 -0.00000000000000 -0.00000000000000 1.00000000000000
0.24650918635171 0.19527559055118 1.57060367454068 0.00000000000000 -0.00000000000000 -1.00000000000000
0.26750656167979 0.19527559055118 1.57060367454068 0.00000000000000 -0.00000000000000 1.00000000000000
0.28774869109948 0.19476439790576 1.56649214659686 -0.00000000000000 0.00000000000000 -1.00000000000000
-0.26762886597938 0.19216494845361 1.54226804123711 0.00000000000000 0.00000000000000 -1.00000000000000
-0.24701030927835 0.19216494845361 1.54226804123711 -0.49076292174149 0.73614438261222 0.46609355562186
-0.22580976863753 0.19167095115681 1.53830334190231 0.00000000000000 -0.00000000000000 1.00000000000000
-0.20630490956072 0.19266149870801 1.54625322997416 0.00000000000000 -0.00000000000000 -1.00000000000000
-0.18659740259740 0.19366233766234 1.55428571428571 0.00000000000000 0.00000000000000 1.00000000000000
-0.16581818181818 0.19366233766234 1.55428571428571 0.00000000000000 -0.00000000000000 1.00000000000000
-0.14541666666667 0.19416666666667 1.55833333333333 0.00000000000000 -0.00000000000000 -1.00000000000000
-0.11812345679012 0.18409876543210 1.47753086419753 -0.00000000000000 0.00000000000000 1.00000000000000
-0.09861386138614 0.18455445544554 1.48118811881188 nan nan nan
-0.08291666666667 0.19416666666667 1.55833333333333 0.00000000000000 -0.00000000000000 -1.00000000000000
-0.06224543080940 0.19467362924282 1.56240208877285 0.00000000000000 0.00000000000000 1.00000000000000
-0.04125000000000 0.19416666666667 1.55833333333333 -0.00000000000000 0.00000000000000 -1.00000000000000
-0.01945409429280 0.18501240694789 1.48486352357320 0.00000000000000 0.00000000000000 1.00000000000000
0.00041775456919 0.19467362924282 1.56240208877285 -0.00000000000000 0.00000000000000 -1.00000000000000
0.02130548302872 0.19467362924282 1.56240208877285 -0.00000000000000 0.00000000000000 -1.00000000000000
0.04275132275132 0.19724867724868 1.58306878306878 -0.84170657765223 0.45322661873581 0.29345471406382
0.06055137844612 0.18686716791980 1.49974937343358 0.00000000000000 0.00000000000000 1.00000000000000
0.08418848167539 0.19518324607330 1.56649214659686 0.00000000000000 0.00000000000000 1.00000000000000
0.10513089005236 0.19518324607330 1.56649214659686 -0.00000000000000 0.00000000000000 1.00000000000000
0.12574412532637 0.19467362924282 1.56240208877285 0.00000000000000 -0.00000000000000 1.00000000000000
0.14701570680628 0.19518324607330 1.56649214659686 -0.00000000000000 0.00000000000000 1.00000000000000
0.16795811518325 0.19518324607330 1.56649214659686 -0.00000000000000 0.00000000000000 1.00000000000000
0.18939632545932 0.19569553805774 1.57060367454068 0.00000000000000 -0.00000000000000 1.00000000000000
0.19890818858561 0.18501240694789 1.48486352357320 0.00000000000000 0.00000000000000 -1.00000000000000
0.22663239074550 0.19167095115681 1.53830334190231 -0.99643564274848 -0.07381004761100 0.04084221752165
0.25238845144357 0.19569553805774 1.57060367454068 -0.00000000000000 0.00000000000000 1.00000000000000
0.27338582677165 0.19569553805774 1.57060367454068 0.00000000000000 0.00000000000000 1.00000000000000
-0.28030690537084 0.19109974424552 1.53043478260870 0.29245635106914 0.77988360285102 -0.55339935735727
-0.26185567010309 0.19257731958763 1.54226804123711 0.00000000000000 0.00000000000000 1.00000000000000
-0.24061696658098 0.19208226221080 1.53830334190231 -0.49001162330738 0.73501743496106 0.46865550175681
-0.22061855670103 0.19257731958763 1.54226804123711 0.00000000000000 0.00000000000000 1.00000000000000
-0.20051679586563 0.19307493540052 1.54625322997416 -0.00000000000000 0.00000000000000 -1.00000000000000
-0.18125000000000 0.19458333333333 1.55833333333333 nan nan nan
-0.16000000000000 0.19407792207792 1.55428571428571 -0.00000000000000 0.00000000000000 -1.00000000000000
-0.13333333333333 0.18587064676617 1.48855721393035 0.75447440269415 0.21556411505547 0.61991974317621
-0.11259259259259 0.18449382716049 1.47753086419753 -0.00000000000000 0.00000000000000 -1.00000000000000
-0.09330024813896 0.18540942928040 1.48486352357320 0.00000000000000 -0.00000000000000 1.00000000000000
-0.07708333333333 0.19458333333333 1.55833333333333 -0.00000000000000 0.00000000000000 1.00000000000000
-0.05639686684073 0.19509138381201 1.56240208877285 0.00000000000000 0.00000000000000 1.00000000000000
-0.03425692695214 0.18821158690176 1.50730478589421 0.77711923025794 -0.51807948683863 0.35732246959900
-0.01393034825871 0.18587064676617 1.48855721393035 0.00000000000000 0.00000000000000 1.00000000000000
0.00626631853786 0.19509138381201 1.56240208877285 0.00000000000000 -0.00000000000000 -1.00000000000000
0.02715404699739 0.19509138381201 1.56240208877285 0.00000000000000 -0.00000000000000 1.00000000000000
0.04670050761421 0.18964467005076 1.51878172588832 0.55262046240209 -0.82893069360315 0.08651317666750
0.06633165829146 0.18773869346734 1.50351758793970 nan nan nan
0.08981723237598 0.19509138381201 1.56240208877285 0.00000000000000 -0.00000000000000 1.00000000000000
0.11099476439791 0.19560209424084 1.56649214659686 nan nan nan
0.13193717277487 0.19560209424084 1.56649214659686 0.00000000000000 0.00000000000000 1.00000000000000
0.15287958115183 0.19560209424084 1.56649214659686 0.00000000000000 -0.00000000000000 1.00000000000000
0.17382198952880 0.19560209424084 1.56649214659686 0.00000000000000 -0.00000000000000 1.00000000000000
0.19527559055118 0.19611548556430 1.57060367454068 0.00000000000000 0.00000000000000 1.00000000000000
0.20345679012346 0.18449382716049 1.47753086419753 0.00000000000000 -0.00000000000000 1.00000000000000
0.23727034120735 0.19611548556430 1.57060367454068 0.00000000000000 -0.00000000000000 -1.00000000000000
0.25826771653543 0.19611548556430 1.57060367454068 0.00000000000000 -0.00000000000000 1.00000000000000
0.27853403141361 0.19560209424084 1.56649214659686 0.00000000000000 -0.00000000000000 1.00000000000000
-0.27528205128205 0.19200000000000 1.53435897435897 0.00000000000000 0.00000000000000 -1.00000000000000
-0.25608247422680 0.19298969072165 1.54226804123711 0.00000000000000 0.00000000000000 1.00000000000000
-0.23485861182519 0.19249357326478 1.53830334190231 0.00000000000000 0.00000000000000 1.00000000000000
-0.21484536082474 0.19298969072165 1.54226804123711 -0.00000000000000 0.00000000000000 -1.00000000000000
-0.19523316062176 0.19398963730570 1.55025906735751 -0.00000000000000 0.00000000000000 1.00000000000000
-0.17541666666667 0.19500000000000 1.55833333333333 0.00000000000000 0.00000000000000 1.00000000000000
-0.15418181818182 0.19449350649351 1.55428571428571 -0.00000000000000 0.00000000000000 -1.00000000000000
-0.12712871287129 0.18534653465347 1.48118811881188 0.00000000000000 0.00000000000000 -1.00000000000000
-0.10706172839506 0.18488888888889 1.47753086419753 -0.00000000000000 0.00000000000000 -1.00000000000000
-0.08796019900498 0.18626865671642 1.48855721393035 0.78187096421718 0.22339170406205 -0.58204290380551
-0.07125000000000 0.19500000000000 1.55833333333333 -0.00000000000000 0.00000000000000 -1.00000000000000
-0.05041666666667 0.19500000000000 1.55833333333333 0.00000000000000 0.00000000000000 -1.00000000000000
-0.02825870646766 0.18626865671642 1.48855721393035 0.00000000000000 0.00000000000000 -1.00000000000000
-0.00840000000000 0.18720000000000 1.49600000000000 -0.76422881719222 -0.21835109062635 0.60685839880096
0.01211488250653 0.19550913838120 1.56240208877285 0.00000000000000 -0.00000000000000 -1.00000000000000
0.03308900523560 0.19602094240838 1.56649214659686 -0.00000000000000 0.00000000000000 1.00000000000000
0.05185929648241 0.18814070351759 1.50351758793970 0.55270784334646 -0.82906176501968 0.08467957065175
0.07250632911392 0.18956962025316 1.51493670886076 -0.96027452867168 0.19867748869069 0.19595939648802
0.09566579634465 0.19550913838120 1.56240208877285 0.00000000000000 -0.00000000000000 -1.00000000000000
0.11685863874346 0.19602094240838 1.56649214659686 0.00000000000000 0.00000000000000 1.00000000000000
0.13744125326371 0.19550913838120 1.56240208877285 0.00000000000000 -0.00000000000000 1.00000000000000
0.15874345549738 0.19602094240838 1.56649214659686 -0.00000000000000 0.00000000000000 1.00000000000000
0.17968586387435 0.19602094240838 1.56649214659686 0.00000000000000 -0.00000000000000 1.00000000000000
0.19208020050125 0.18766917293233 1.49974937343358 0.97798246049509 -0.10866471783278 0.17816364966596
0.21002481389578 0.18580645161290 1.48486352357320 0.00000000000000 -0.00000000000000 1.00000000000000
0.24314960629921 0.19653543307087 1.57060367454068 0.00000000000000 -0.00000000000000 1.00000000000000
0.26414698162730 0.19653543307087 1.57060367454068 0.00000000000000 0.00000000000000 1.00000000000000
0.28439790575916 0.19602094240838 1.56649214659686 0.00000000000000 -0.00000000000000 1.00000000000000
-0.27023136246787 0.19290488431877 1.53830334190231 0.00000000000000 -0.00000000000000 1.00000000000000
-0.24966580976864 0.19290488431877 1.53830334190231 0.49076292174151 -0.73614438261221 -0.46609355562186
-0.22910025706941 0.19290488431877 1.53830334190231 0.00000000000000 -0.00000000000000 1.00000000000000
-0.20961240310078 0.19390180878553 1.54625322997416 0.00000000000000 0.00000000000000 -1.00000000000000
-0.18992207792208 0.19490909090909 1.55428571428571 0.00000000000000 0.00000000000000 -1.00000000000000
-0.16914285714286 0.19490909090909 1.55428571428571 0.00000000000000 -0.00000000000000 1.00000000000000
-0.14836363636364 0.19490909090909 1.55428571428571 0.00000000000000 -0.00000000000000 -1.00000000000000
-0.12158415841584 0.18574257425743 1.48118811881188 -0.00000000000000 0.00000000000000 -1.00000000000000
-0.10178217821782 0.18574257425743 1.48118811881188 nan nan nan
-0.08625000000000 0.19541666666667 1.55833333333333 0.00000000000000 -0.00000000000000 1.00000000000000
-0.06541666666667 0.19541666666667 1.55833333333333 0.00000000000000 -0.00000000000000 1.00000000000000
-0.04458333333333 0.19541666666667 1.55833333333333 0.00000000000000 -0.00000000000000 -1.00000000000000
-0.02268656716418 0.18666666666667 1.48855721393035 0.00000000000000 -0.00000000000000 -1.00000000000000
-0.00291666666667 0.19541666666667 1.55833333333333 0.00000000000000 -0.00000000000000 1.00000000000000
0.01796344647520 0.19592689295039 1.56240208877285 0.00000000000000 -0.00000000000000 -1.00000000000000
0.03905511811024 0.19695538057743 1.57060367454068 -0.86780271866224 0.31556462496809 0.38384555351232
0.05748743718593 0.18854271356784 1.50351758793970 0.00000000000000 -0.00000000000000 1.00000000000000
0.08083769633508 0.19643979057592 1.56649214659686 nan nan nan
0.10151436031332 0.19592689295039 1.56240208877285 0.00000000000000 -0.00000000000000 -1.00000000000000
0.12240208877285 0.19592689295039 1.56240208877285 0.00000000000000 -0.00000000000000 1.00000000000000
0.14328981723238 0.19592689295039 1.56240208877285 0.00000000000000 -0.00000000000000 1.00000000000000
0.16460732984293 0.19643979057592 1.56649214659686 -0.00000000000000 0.00000000000000 1.00000000000000
0.18603674540682 0.19695538057743 1.57060367454068 0.00000000000000 0.00000000000000 1.00000000000000
0.19621890547264 0.18666666666667 1.48855721393035 0.00000000000000 0.00000000000000 -1.00000000000000
0.21611940298507 0.18666666666667 1.48855721393035 0.94728258526263 0.27065216721789 -0.17147334497936
0.24902887139108 0.19695538057743 1.57060367454068 -0.00000000000000 0.00000000000000 -1.00000000000000
0.27002624671916 0.19695538057743 1.57060367454068 0.00000000000000 0.00000000000000 1.00000000000000
-0.32516129032258 0.22052785923754 1.75483870967742 0.98326282214738 0.00000000000000 0.18219281704495
-0.26515463917526 0.19381443298969 1.54226804123711 0.00000000000000 0.00000000000000 1.00000000000000
-0.24328205128205 0.19282051282051 1.53435897435897 0.00000000000000 -0.00000000000000 1.00000000000000
-0.22334190231362 0.19331619537275 1.53830334190231 0.00000000000000 -0.00000000000000 1.00000000000000
-0.20382428940568 0.19431524547804 1.54625322997416 nan nan nan
-0.18458333333333 0.19583333333333 1.55833333333333 0.00000000000000 -0.00000000000000 1.00000000000000
-0.16332467532468 0.19532467532468 1.55428571428571 0.00000000000000 -0.00000000000000 -1.00000000000000
-0.14291666666667 0.19583333333333 1.55833333333333 0.00000000000000 0.00000000000000 1.00000000000000
-0.11575308641975 0.18567901234568 1.47753086419753 0.00000000000000 -0.00000000000000 -1.00000000000000
-0.09623762376238 0.18613861386139 1.48118811881188 -0.00000000000000 0.00000000000000 -1.00000000000000
-0.08041666666667 0.19583333333333 1.55833333333333 0.00000000000000 -0.00000000000000 1.00000000000000
-0.05958333333333 0.19583333333333 1.55833333333333 0.00000000000000 -0.00000000000000 1.00000000000000
-0.03786259541985 0.19134860050891 1.52264631043257 -0.96146978871692 -0.27470565391912 0.01061362753778
-0.01711442786070 0.18706467661692 1.48855721393035 -0.00000000000000 -0.00000000000000 -1.00000000000000
0.00292428198433 0.19634464751958 1.56240208877285 0.00000000000000 -0.00000000000000 -1.00000000000000
0.02381201044386 0.19634464751958 1.56240208877285 0.00000000000000 -0.00000000000000 -1.00000000000000
0.04367346938776 0.19183673469388 1.52653061224490 -0.80329929508115 -0.22951408430890 -0.54957577059581
0.06311557788945 0.18894472361809 1.50351758793970 -0.00000000000000 -0.00000000000000 -1.00000000000000
0.08647519582245 0.19634464751958 1.56240208877285 0.00000000000000 -0.00000000000000 1.00000000000000
0.10764397905759 0.19685863874346 1.56649214659686 0.00000000000000 -0.00000000000000 1.00000000000000
0.12825065274151 0.19634464751958 1.56240208877285 0.00000000000000 -0.00000000000000 -1.00000000000000
0.14952879581152 0.19685863874346 1.56649214659686 0.00000000000000 0.00000000000000 1.00000000000000
0.17047120418848 0.19685863874346 1.56649214659686 0.00000000000000 -0.00000000000000 1.00000000000000
0.19191601049869 0.19737532808399 1.57060367454068 0.00000000000000 0.00000000000000 1.00000000000000
0.20079207920792 0.18613861386139 1.48118811881188 0.00000000000000 0.00000000000000 -1.00000000000000
0.23391076115486 0.19737532808399 1.57060367454068 0.00000000000000 0.00000000000000 -1.00000000000000
0.25490813648294 0.19737532808399 1.57060367454068 0.00000000000000 -0.00000000000000 1.00000000000000
0.27518324607330 0.19685863874346 1.56649214659686 0.00000000000000 -0.00000000000000 1.00000000000000
-0.27856410256410 0.19323076923077 1.53435897435897 -0.00000000000000 -0.00000000000000 -1.00000000000000
-0.25871465295630 0.19372750642674 1.53830334190231 0.30768440150640 0.82049173735038 0.48179209002370
-0.23753846153846 0.19323076923077 1.53435897435897 0.00000000000000 -0.00000000000000 1.00000000000000
-0.21758354755784 0.19372750642674 1.53830334190231 0.00000000000000 0.00000000000000 1.00000000000000
-0.19854922279793 0.19523316062176 1.55025906735751 0.00000000000000 -0.00000000000000 1.00000000000000
-0.17875000000000 0.19625000000000 1.55833333333333 0.00000000000000 0.00000000000000 1.00000000000000
-0.15750649350649 0.19574025974026 1.55428571428571 0.00000000000000 -0.00000000000000 1.00000000000000
-0.13062034739454 0.18699751861042 1.48486352357320 0.00000000000000 0.00000000000000 -1.00000000000000
-0.11022222222222 0.18607407407407 1.47753086419753 0.00000000000000 0.00000000000000 1.00000000000000
-0.09091811414392 0.18699751861042 1.48486352357320 0.00000000000000 0.00000000000000 1.00000000000000
-0.07458333333333 0.19625000000000 1.55833333333333 0.00000000000000 -0.00000000000000 1.00000000000000
-0.05375000000000 0.19625000000000 1.55833333333333 0.00000000000000 -0.00000000000000 1.00000000000000
-0.03160000000000 0.18840000000000 1.49600000000000 0.83388081418877 -0.30322938697773 0.46118838515404
-0.01157107231920 0.18793017456359 1.49226932668329 -0.28189040372664 -0.75170774327105 0.59621579062717
0.00877284595300 0.19676240208877 1.56240208877285 -0.00000000000000 0.00000000000000 -1.00000000000000
0.02966057441253 0.19676240208877 1.56240208877285 -0.00000000000000 0.00000000000000 -1.00000000000000
0.04913705583756 0.19126903553299 1.51878172588832 -0.42950132130377 0.64425198195566 -0.63282540937017
0.06891687657431 0.18982367758186 1.50730478589421 0.00000000000000 -0.00000000000000 1.00000000000000
0.09232375979112 0.19676240208877 1.56240208877285 -0.00000000000000 0.00000000000000 -1.00000000000000
0.11350785340314 0.19727748691099 1.56649214659686 0.00000000000000 0.00000000000000 1.00000000000000
0.13409921671018 0.19676240208877 1.56240208877285 0.00000000000000 -0.00000000000000 1.00000000000000
0.15539267015707 0.19727748691099 1.56649214659686 0.00000000000000 0.00000000000000 1.00000000000000
0.17633507853403 0.19727748691099 1.56649214659686 -0.00000000000000 0.00000000000000 1.00000000000000
0.19727748691099 0.19727748691099 1.56649214659686 0.32191002518690 0.85842673383172 0.39934631377686
0.20582716049383 0.18607407407407 1.47753086419753 -0.00000000000000 0.00000000000000 -1.00000000000000
0.23979002624672 0.19779527559055 1.57060367454068 0.00000000000000 -0.00000000000000 1.00000000000000
0.26078740157480 0.19779527559055 1.57060367454068 0.00000000000000 0.00000000000000 1.00000000000000
0.28104712041885 0.19727748691099 1.56649214659686 nan nan nan
-0.27352185089974 0.19413881748072 1.53830334190231 0.00000000000000 -0.00000000000000 1.00000000000000
-0.25230769230769 0.19364102564103 1.53435897435897 -0.30768440150640 -0.82049173735038 -0.48179209002371
-0.23179487179487 0.19364102564103 1.53435897435897 0.00000000000000 -0.00000000000000 1.00000000000000
-0.21237113402062 0.19463917525773 1.54226804123711 -0.00000000000000 0.00000000000000 1.00000000000000
-0.19274611398964 0.19564766839378 1.55025906735751 0.00000000000000 0.00000000000000 1.00000000000000
-0.17246753246753 0.19615584415584 1.55428571428571 0.00000000000000 -0.00000000000000 1.00000000000000
-0.15168831168831 0.19615584415584 1.55428571428571 -0.00000000000000 0.00000000000000 -1.00000000000000
-0.12475247524752 0.18693069306931 1.48118811881188 nan nan nan
-0.10495049504950 0.18693069306931 1.48118811881188 0.00000000000000 0.00000000000000 -1.00000000000000
-0.08958333333333 0.19666666666667 1.55833333333333 0.00000000000000 0.00000000000000 -1.00000000000000
-0.06875000000000 0.19666666666667 1.55833333333333 nan nan nan
-0.04791666666667 0.19666666666667 1.55833333333333 -0.00000000000000 0.00000000000000 1.00000000000000
-0.02587064676617 0.18786069651741 1.48855721393035 0.00000000000000 0.00000000000000 1.00000000000000
-0.00623376623377 0.19615584415584 1.55428571428571 -0.77372001425094 -0.22106286121456 0.59370746242502
0.01462140992167 0.19718015665796 1.56240208877285 -0.00000000000000 0.00000000000000 -1.00000000000000
0.03560209424084 0.19769633507853 1.56649214659686 -0.00000000000000 0.00000000000000 1.00000000000000
0.05427135678392 0.18974874371859 1.50351758793970 0.00000000000000 -0.00000000000000 -1.00000000000000
0.07708333333333 0.19666666666667 1.55833333333333 0.46840684620704 -0.70261026931058 -0.53566205380416
0.09817232375979 0.19718015665796 1.56240208877285 0.00000000000000 -0.00000000000000 1.00000000000000
0.11906005221932 0.19718015665796 1.56240208877285 0.00000000000000 -0.00000000000000 1.00000000000000
0.13994778067885 0.19718015665796 1.56240208877285 -0.00000000000000 0.00000000000000 -1.00000000000000
0.16125654450262 0.19769633507853 1.56649214659686 0.00000000000000 0.00000000000000 1.00000000000000
0.18219895287958 0.19769633507853 1.56649214659686 nan nan nan
0.19351620947631 0.18832917705736 1.49226932668329 0.83282160145575 0.23794902898736 0.49978839497598
0.21240694789082 0.18739454094293 1.48486352357320 -0.00000000000000 0.00000000000000 -1.00000000000000
0.24566929133858 0.19821522309711 1.57060367454068 -0.00000000000000 0.00000000000000 1.00000000000000
0.26596858638743 0.19769633507853 1.56649214659686 0.00000000000000 -0.00000000000000 1.00000000000000
0.28691099476440 0.19769633507853 1.56649214659686 0.00000000000000 0.00000000000000 1.00000000000000
-0.26776349614396 0.19455012853470 1.53830334190231 0.00000000000000 -0.00000000000000 -1.00000000000000
-0.24656410256410 0.19405128205128 1.53435897435897 0.00000000000000 0.00000000000000 -1.00000000000000
-0.22663239074550 0.19455012853470 1.53830334190231 0.00000000000000 -0.00000000000000 -1.00000000000000
-0.20713178294574 0.19555555555556 1.54625322997416 0.00000000000000 -0.00000000000000 -1.00000000000000
-0.18742857142857 0.19657142857143 1.55428571428571 0.00000000000000 0.00000000000000 1.00000000000000
-0.16664935064935 0.19657142857143 1.55428571428571 -0.00000000000000 0.00000000000000 -1.00000000000000
-0.14587012987013 0.19657142857143 1.55428571428571 -0.00000000000000 0.00000000000000 -1.00000000000000
-0.11891358024691 0.18686419753086 1.47753086419753 0.00000000000000 -0.00000000000000 1.00000000000000
-0.09940594059406 0.18732673267327 1.48118811881188 nan nan nan
-0.08375000000000 0.19708333333333 1.55833333333333 -0.00000000000000 0.00000000000000 -1.00000000000000
-0.06291666666667 0.19708333333333 1.55833333333333 -0.00000000000000 0.00000000000000 -1.00000000000000
-0.04208333333333 0.19708333333333 1.55833333333333 0.00000000000000 0.00000000000000 1.00000000000000
-0.02029850746269 0.18825870646766 1.48855721393035 0.00000000000000 0.00000000000000 1.00000000000000
-0.00041666666667 0.19708333333333 1.55833333333333 -0.00000000000000 0.00000000000000 -1.00000000000000
0.02046997389034 0.19759791122715 1.56240208877285 -0.00000000000000 0.00000000000000 -1.00000000000000
0.04071979434447 0.19455012853470 1.53830334190231 0.95978658443328 0.27422473840951 -0.06008747944561
0.05989949748744 0.19015075376884 1.50351758793970 -0.00000000000000 0.00000000000000 -1.00000000000000
0.08313315926893 0.19759791122715 1.56240208877285 0.00000000000000 -0.00000000000000 1.00000000000000
0.10402088772846 0.19759791122715 1.56240208877285 -0.00000000000000 0.00000000000000 -1.00000000000000
0.12490861618799 0.19759791122715 1.56240208877285 -0.00000000000000 0.00000000000000 -1.00000000000000
0.14579634464752 0.19759791122715 1.56240208877285 0.00000000000000 -0.00000000000000 1.00000000000000
0.16712041884817 0.19811518324607 1.56649214659686 0.00000000000000 0.00000000000000 1.00000000000000
0.18806282722513 0.19811518324607 1.56649214659686 0.00000000000000 -0.00000000000000 1.00000000000000
0.19811414392060 0.18779156327543 1.48486352357320 0.83282160145574 0.23794902898734 0.49978839497600
0.22181818181818 0.19111111111111 1.51111111111111 0.94332508260290 -0.23583127065073 -0.23349818054001
0.25154855643045 0.19863517060367 1.57060367454068 0.00000000000000 -0.00000000000000 -1.00000000000000
0.27183246073298 0.19811518324607 1.56649214659686 0.00000000000000 -0.00000000000000 1.00000000000000
-0.28184615384615 0.19446153846154 1.53435897435897 0.00000000000000 0.00000000000000 -1.00000000000000
-0.26200514138817 0.19496143958869 1.53830334190231 -0.00000000000000 -0.00000000000000 -1.00000000000000
-0.24082051282051 0.19446153846154 1.53435897435897 0.00000000000000 -0.00000000000000 -1.00000000000000
-0.22087403598972 0.19496143958869 1.53830334190231 nan nan nan
-0.20134366925065 0.19596899224806 1.54625322997416 -0.00000000000000 0.00000000000000 -1.00000000000000
-0.18208333333333 0.19750000000000 1.55833333333333 0.00000000000000 0.00000000000000 1.00000000000000
-0.16083116883117 0.19698701298701 1.55428571428571 -0.00000000000000 0.00000000000000 -1.00000000000000
-0.13968911917098 0.19647668393782 1.55025906735751 0.41827065897916 -0.62740598846873 0.65681913908679
-0.11338271604938 0.18725925925926 1.47753086419753 0.00000000000000 0.00000000000000 1.00000000000000
-0.09409429280397 0.18818858560794 1.48486352357320 -0.00000000000000 -0.00000000000000 -1.00000000000000
-0.07791666666667 0.19750000000000 1.55833333333333 -0.00000000000000 0.00000000000000 -1.00000000000000
-0.05708333333333 0.19750000000000 1.55833333333333 -0.00000000000000 0.00000000000000 -1.00000000000000
-0.03524050632911 0.19200000000000 1.51493670886076 -0.78293110312056 -0.22369460089159 -0.58049945159179
-0.01476309226933 0.18912718204489 1.49226932668329 0.00000000000000 0.00000000000000 -1.00000000000000
0.00543080939948 0.19801566579634 1.56240208877285 0.00000000000000 -0.00000000000000 1.00000000000000
0.02631853785901 0.19801566579634 1.56240208877285 0.00000000000000 -0.00000000000000 1.00000000000000
0.04600508905852 0.19297709923664 1.52264631043257 0.00000000000000 -0.00000000000000 1.00000000000000
0.06569269521411 0.19103274559194 1.50730478589421 0.00000000000000 -0.00000000000000 1.00000000000000
0.08898172323760 0.19801566579634 1.56240208877285 -0.00000000000000 0.00000000000000 1.00000000000000
0.11015706806283 0.19853403141361 1.56649214659686 0.00000000000000 0.00000000000000 1.00000000000000
0.13075718015666 0.19801566579634 1.56240208877285 0.00000000000000 -0.00000000000000 1.00000000000000
0.15164490861619 0.19801566579634 1.56240208877285 0.00000000000000 -0.00000000000000 1.00000000000000
0.17298429319372 0.19853403141361 1.56649214659686 -0.00000000000000 0.00000000000000 1.00000000000000
0.19392670157068 0.19853403141361 1.56649214659686 0.00000000000000 0.00000000000000 1.00000000000000
0.20266666666667 0.18725925925926 1.47753086419753 0.00000000000000 0.00000000000000 -1.00000000000000
0.23643044619423 0.19905511811024 1.57060367454068 0.00000000000000 -0.00000000000000 1.00000000000000
0.25742782152231 0.19905511811024 1.57060367454068 0.00000000000000 0.00000000000000 1.00000000000000
0.27769633507853 0.19853403141361 1.56649214659686 nan nan nan
-0.27681233933162 0.19537275064267 1.53830334190231 0.00000000000000 0.00000000000000 -1.00000000000000
-0.25558974358974 0.19487179487179 1.53435897435897 0.35048408837242 0.93462423565976 -0.06031949863166
-0.23507692307692 0.19487179487179 1.53435897435897 0.00000000000000 -0.00000000000000 -1.00000000000000
-0.21567010309278 0.19587628865979 1.54226804123711 0.00000000000000 0.00000000000000 -1.00000000000000
-0.19606217616580 0.19689119170984 1.55025906735751 0.00000000000000 0.00000000000000 1.00000000000000
-0.17579220779221 0.19740259740260 1.55428571428571 0.00000000000000 -0.00000000000000 1.00000000000000
-0.15501298701299 0.19740259740260 1.55428571428571 0.00000000000000 -0.00000000000000 -1.00000000000000
-0.12823821339950 0.18858560794045 1.48486352357320 -0.00000000000000 0.00000000000000 -1.00000000000000
-0.10811881188119 0.18811881188119 1.48118811881188 0.00000000000000 -0.00000000000000 1.00000000000000
-0.09291666666667 0.19791666666667 1.55833333333333 -0.00000000000000 0.00000000000000 1.00000000000000
-0.07208333333333 0.19791666666667 1.55833333333333 -0.00000000000000 0.00000000000000 1.00000000000000
-0.05125000000000 0.19791666666667 1.55833333333333 0.00000000000000 -0.00000000000000 -1.00000000000000
-0.02912718204489 0.18952618453865 1.49226932668329 0.55097370162251 -0.82646055243376 0.11571920925788
-0.00920000000000 0.19000000000000 1.49600000000000 nan nan nan
0.01127937336815 0.19843342036554 1.56240208877285 0.00000000000000 -0.00000000000000 -1.00000000000000
0.03216710182768 0.19843342036554 1.56240208877285 0.00000000000000 -0.00000000000000 -1.00000000000000
0.05118387909320 0.19143576826196 1.50730478589421 -0.85218810011812 0.30988658186114 -0.42159903747457
0.07133501259446 0.19143576826196 1.50730478589421 -0.00000000000000 0.00000000000000 -1.00000000000000
0.09483028720627 0.19843342036554 1.56240208877285 0.00000000000000 -0.00000000000000 -1.00000000000000
0.11571801566580 0.19843342036554 1.56240208877285 0.00000000000000 -0.00000000000000 1.00000000000000
0.13660574412533 0.19843342036554 1.56240208877285 0.00000000000000 -0.00000000000000 -1.00000000000000
0.15749347258486 0.19843342036554 1.56240208877285 0.00000000000000 -0.00000000000000 1.00000000000000
0.17884816753927 0.19895287958115 1.56649214659686 0.00000000000000 -0.00000000000000 1.00000000000000
0.19772020725389 0.19689119170984 1.55025906735751 0.75083470470667 0.43798691107889 0.49438316307457
0.20923076923077 0.18858560794045 1.48486352357320 0.00000000000000 -0.00000000000000 1.00000000000000
0.24230971128609 0.19947506561680 1.57060367454068 0.00000000000000 0.00000000000000 1.00000000000000
0.26261780104712 0.19895287958115 1.56649214659686 0.00000000000000 -0.00000000000000 1.00000000000000
0.28356020942408 0.19895287958115 1.56649214659686 0.00000000000000 0.00000000000000 1.00000000000000
-0.27105398457584 0.19578406169666 1.53830334190231 0.00000000000000 0.00000000000000 1.00000000000000
-0.24920716112532 0.19478260869565 1.53043478260870 0.00000000000000 -0.00000000000000 1.00000000000000
-0.22933333333333 0.19528205128205 1.53435897435897 -0.00000000000000 0.00000000000000 -1.00000000000000
-0.20989690721649 0.19628865979381 1.54226804123711 -0.00000000000000 0.00000000000000 -1.00000000000000
-0.19075324675325 0.19781818181818 1.55428571428571 0.00000000000000 -0.00000000000000 1.00000000000000
-0.16997402597403 0.19781818181818 1.55428571428571 0.00000000000000 -0.00000000000000 -1.00000000000000
-0.14919480519481 0.19781818181818 1.55428571428571 0.00000000000000 -0.00000000000000 -1.00000000000000
-0.12237623762376 0.18851485148515 1.48118811881188 0.00000000000000 0.00000000000000 1.00000000000000
-0.10257425742574 0.18851485148515 1.48118811881188 0.00000000000000 -0.00000000000000 -1.00000000000000
-0.08708333333333 0.19833333333333 1.55833333333333 0.00000000000000 -0.00000000000000 1.00000000000000
-0.06625000000000 0.19833333333333 1.55833333333333 nan nan nan
-0.04541666666667 0.19833333333333 1.55833333333333 0.00000000000000 0.00000000000000 1.00000000000000
-0.02354114713217 0.18992518703242 1.49226932668329 0.00000000000000 -0.00000000000000 1.00000000000000
-0.00375000000000 0.19833333333333 1.55833333333333 0.00000000000000 -0.00000000000000 1.00000000000000
0.01712793733681 0.19885117493473 1.56240208877285 0.00000000000000 -0.00000000000000 -1.00000000000000
0.03811518324607 0.19937172774869 1.56649214659686 0.47232613178690 -0.70848919768035 -0.52435778052918
0.05668341708543 0.19135678391960 1.50351758793970 -0.00000000000000 0.00000000000000 -1.00000000000000
0.08000000000000 0.19937172774869 1.56649214659686 0.81814396733776 0.23375541923936 0.52535592952309
0.10067885117493 0.19885117493473 1.56240208877285 0.00000000000000 -0.00000000000000 -1.00000000000000
0.12156657963446 0.19885117493473 1.56240208877285 0.00000000000000 -0.00000000000000 -1.00000000000000
0.14245430809399 0.19885117493473 1.56240208877285 -0.00000000000000 0.00000000000000 1.00000000000000
0.16334203655352 0.19885117493473 1.56240208877285 0.00000000000000 -0.00000000000000 1.00000000000000
0.18471204188482 0.19937172774869 1.56649214659686 0.00000000000000 -0.00000000000000 1.00000000000000
0.19542288557214 0.18945273631841 1.48855721393035 0.00000000000000 -0.00000000000000 1.00000000000000
0.21532338308458 0.18945273631841 1.48855721393035 0.00000000000000 0.00000000000000 1.00000000000000
0.24818897637795 0.19989501312336 1.57060367454068 0.00000000000000 0.00000000000000 1.00000000000000
0.26848167539267 0.19937172774869 1.56649214659686 nan nan nan
0.28866840731070 0.19885117493473 1.56240208877285 0.00000000000000 0.00000000000000 1.00000000000000
-0.26529562982005 0.19619537275064 1.53830334190231 0.00000000000000 0.00000000000000 1.00000000000000
-0.24410256410256 0.19569230769231 1.53435897435897 0.00000000000000 -0.00000000000000 -1.00000000000000
-0.22416452442159 0.19619537275064 1.53830334190231 -0.00000000000000 0.00000000000000 -1.00000000000000
-0.20465116279070 0.19720930232558 1.54625322997416 0.00000000000000 -0.00000000000000 1.00000000000000
-0.18541666666667 0.19875000000000 1.55833333333333 0.00000000000000 0.00000000000000 1.00000000000000
-0.16415584415584 0.19823376623377 1.55428571428571 0.00000000000000 -0.00000000000000 -1.00000000000000
-0.14337662337662 0.19823376623377 1.55428571428571 -0.00000000000000 0.00000000000000 -1.00000000000000
-0.11654320987654 0.18844444444444 1.47753086419753 -0.00000000000000 0.00000000000000 -1.00000000000000
-0.09702970297030 0.18891089108911 1.48118811881188 0.00000000000000 0.00000000000000 1.00000000000000
-0.08125000000000 0.19875000000000 1.55833333333333 nan nan nan
-0.06041666666667 0.19875000000000 1.55833333333333 nan nan nan
-0.03867684478372 0.19419847328244 1.52264631043257 0.00000000000000 0.00000000000000 -1.00000000000000
-0.01795511221945 0.19032418952618 1.49226932668329 nan nan nan
0.00208333333333 0.19875000000000 1.55833333333333 nan nan nan
0.02297650130548 0.19926892950392 1.56240208877285 0.00000000000000 -0.00000000000000 -1.00000000000000
0.04285714285714 0.19469387755102 1.52653061224490 -0.00000000000000 -0.00000000000000 -1.00000000000000
0.06246851385390 0.19224181360202 1.50730478589421 0.00000000000000 0.00000000000000 -1.00000000000000
0.08563968668407 0.19926892950392 1.56240208877285 0.00000000000000 -0.00000000000000 -1.00000000000000
0.10652741514360 0.19926892950392 1.56240208877285 0.00000000000000 -0.00000000000000 -1.00000000000000
0.12741514360313 0.19926892950392 1.56240208877285 -0.00000000000000 0.00000000000000 1.00000000000000
0.14830287206266 0.19926892950392 1.56240208877285 0.00000000000000 -0.00000000000000 -1.00000000000000
0.16919060052219 0.19926892950392 1.56240208877285 0.00000000000000 -0.00000000000000 1.00000000000000
0.19057591623037 0.19979057591623 1.56649214659686 -0.00000000000000 0.00000000000000 1.00000000000000
0.20000000000000 0.18891089108911 1.48118811881188 0.00000000000000 0.00000000000000 -1.00000000000000
0.23246073298429 0.19979057591623 1.56649214659686 -0.82962242609991 0.30168088221815 0.46980344338476
0.25406824146982 0.20031496062992 1.57060367454068 0.00000000000000 0.00000000000000 1.00000000000000
0.27434554973822 0.19979057591623 1.56649214659686 nan nan nan
-0.28010282776350 0.19660668380463 1.53830334190231 0.35057933847415 0.93487823593105 -0.05564900194496
-0.25820971867008 0.19560102301790 1.53043478260870 -0.37234271748979 -0.92489400999244 0.07701928987222
-0.23835897435897 0.19610256410256 1.53435897435897 -0.00000000000000 0.00000000000000 -1.00000000000000
-0.21840616966581 0.19660668380463 1.53830334190231 -0.00000000000000 0.00000000000000 1.00000000000000
-0.19937823834197 0.19813471502591 1.55025906735751 0.00000000000000 0.00000000000000 -1.00000000000000
-0.17911688311688 0.19864935064935 1.55428571428571 0.00000000000000 0.00000000000000 1.00000000000000
-0.15833766233766 0.19864935064935 1.55428571428571 -0.00000000000000 0.00000000000000 1.00000000000000
-0.13240000000000 0.19120000000000 1.49600000000000 -0.93232221307014 0.33902625929823 -0.12584310279967
-0.11128712871287 0.18930693069307 1.48118811881188 0.00000000000000 -0.00000000000000 1.00000000000000
-0.09194029850746 0.19024875621891 1.48855721393035 0.78255053389255 0.22358586682644 -0.58105423332073
-0.07541666666667 0.19916666666667 1.55833333333333 -0.00000000000000 0.00000000000000 1.00000000000000
-0.05458333333333 0.19916666666667 1.55833333333333 -0.00000000000000 0.00000000000000 1.00000000000000
-0.03272727272727 0.19313131313131 1.51111111111111 -0.83504867473864 0.30365406354132 -0.45878962554976
-0.01240000000000 0.19120000000000 1.49600000000000 0.00000000000000 -0.00000000000000 1.00000000000000
0.00793733681462 0.19968668407311 1.56240208877285 0.00000000000000 0.00000000000000 1.00000000000000
0.02882506527415 0.19968668407311 1.56240208877285 -0.00000000000000 0.00000000000000 -1.00000000000000
0.04844783715013 0.19460559796438 1.52264631043257 -0.00000000000000 0.00000000000000 -1.00000000000000
0.06811083123426 0.19264483627204 1.50730478589421 nan nan nan
0.09148825065274 0.19968668407311 1.56240208877285 -0.00000000000000 0.00000000000000 -1.00000000000000
0.11237597911227 0.19968668407311 1.56240208877285 0.00000000000000 -0.00000000000000 1.00000000000000
0.13326370757180 0.19968668407311 1.56240208877285 -0.00000000000000 0.00000000000000 -1.00000000000000
0.15415143603133 0.19968668407311 1.56240208877285 -0.00000000000000 0.00000000000000 -1.00000000000000
0.17549738219895 0.20020942408377 1.56649214659686 0.00000000000000 -0.00000000000000 1.00000000000000
0.19695538057743 0.20073490813648 1.57060367454068 0.83742219611905 -0.30451716222511 -0.45386491752228
0.20503703703704 0.18883950617284 1.47753086419753 0.00000000000000 0.00000000000000 1.00000000000000
0.23895013123360 0.20073490813648 1.57060367454068 0.00000000000000 0.00000000000000 1.00000000000000
0.25926701570681 0.20020942408377 1.56649214659686 0.00000000000000 -0.00000000000000 1.00000000000000
0.28020942408377 0.20020942408377 1.56649214659686 0.00000000000000 0.00000000000000 1.00000000000000
-0.27434447300771 0.19701799485861 1.53830334190231 0.00000000000000 0.00000000000000 1.00000000000000
-0.25248081841432 0.19601023017903 1.53043478260870 0.00000000000000 0.00000000000000 -1.00000000000000
-0.23261538461538 0.19651282051282 1.53435897435897 -0.00000000000000 0.00000000000000 -1.00000000000000
-0.21319587628866 0.19752577319588 1.54226804123711 -0.00000000000000 0.00000000000000 -1.00000000000000
-0.19407792207792 0.19906493506494 1.55428571428571 0.00000000000000 -0.00000000000000 1.00000000000000
-0.17329870129870 0.19906493506494 1.55428571428571 0.00000000000000 0.00000000000000 1.00000000000000
-0.15251948051948 0.19906493506494 1.55428571428571 0.00000000000000 -0.00000000000000 1.00000000000000
-0.12554455445545 0.18970297029703 1.48118811881188 0.00000000000000 0.00000000000000 -1.00000000000000
-0.10574257425743 0.18970297029703 1.48118811881188 0.00000000000000 -0.00000000000000 -1.00000000000000
-0.09089005235602 0.20062827225131 1.56649214659686 -0.93311441878385 0.33931433410322 0.11900951277003
-0.06958333333333 0.19958333333333 1.55833333333333 0.00000000000000 -0.00000000000000 1.00000000000000
-0.04875000000000 0.19958333333333 1.55833333333333 0.00000000000000 -0.00000000000000 1.00000000000000
-0.02673316708229 0.19112219451372 1.49226932668329 0.00000000000000 -0.00000000000000 1.00000000000000
-0.00688607594937 0.19402531645570 1.51493670886076 -0.93871082791653 0.34134939196965 -0.04798514514119
0.01378590078329 0.20010443864230 1.56240208877285 0.00000000000000 0.00000000000000 1.00000000000000
0.03467362924282 0.20010443864230 1.56240208877285 -0.00000000000000 0.00000000000000 -1.00000000000000
0.05346733668342 0.19256281407035 1.50351758793970 0.00000000000000 0.00000000000000 -1.00000000000000
0.07431472081218 0.19451776649746 1.51878172588832 -0.93979111631362 0.34174222411404 0.00221584196117
0.09733681462141 0.20010443864230 1.56240208877285 -0.00000000000000 0.00000000000000 -1.00000000000000
0.11822454308094 0.20010443864230 1.56240208877285 -0.00000000000000 0.00000000000000 -1.00000000000000
0.13911227154047 0.20010443864230 1.56240208877285 -0.00000000000000 0.00000000000000 -1.00000000000000
0.16000000000000 0.20010443864230 1.56240208877285 -0.00000000000000 0.00000000000000 -1.00000000000000
0.18136125654450 0.20062827225131 1.56649214659686 -0.00000000000000 0.00000000000000 1.00000000000000
0.19320000000000 0.19160000000000 1.49600000000000 0.98086243438409 -0.09728037054631 0.16865768384656
0.21161290322581 0.19017369727047 1.48486352357320 0.00000000000000 0.00000000000000 1.00000000000000
0.24418848167539 0.20062827225131 1.56649214659686 0.00000000000000 -0.00000000000000 1.00000000000000
