0.000000000000000000e+00 0.000000000000000000e+00 1.107266435986160348e-05
0.000000000000000000e+00 0.000000000000000000e+00 -1.063043460206462422e-05
7.254770642125102614e-05 -1.500987029405215953e-05 -1.759178202912512349e-06
0.000000000000000000e+00 -0.000000000000000000e+00 5.251604272976662102e-20
0.000000000000000000e+00 -0.000000000000000000e+00 7.030373462210692814e-20
0.000000000000000000e+00 0.000000000000000000e+00 1.027213122647645335e-05
-0.000000000000000000e+00 0.000000000000000000e+00 -1.021417855660893718e-05
0.000000000000000000e+00 -0.000000000000000000e+00 2.541098841762901017e-20
0.000000000000000000e+00 0.000000000000000000e+00 9.931642367765584770e-06
-0.000000000000000000e+00 0.000000000000000000e+00 1.185846126156020475e-20
8.608682321513718685e-06 -1.291302348227059497e-05 1.068604483359026439e-05
0.000000000000000000e+00 0.000000000000000000e+00 1.027213122647641946e-05
-0.000000000000000000e+00 -0.000000000000000000e+00 0.000000000000000000e+00
0.000000000000000000e+00 0.000000000000000000e+00 1.044897959183672160e-05
0.000000000000000000e+00 0.000000000000000000e+00 1.021417855660886772e-05
-0.000000000000000000e+00 0.000000000000000000e+00 2.541098841762901017e-20
0.000000000000000000e+00 -0.000000000000000000e+00 4.997494388800372001e-20
0.000000000000000000e+00 -0.000000000000000000e+00 -2.032879073410320814e-20
0.000000000000000000e+00 -0.000000000000000000e+00 -2.032879073410320814e-20
0.000000000000000000e+00 -0.000000000000000000e+00 -2.032879073410320814e-20
0.000000000000000000e+00 0.000000000000000000e+00 -1.063043460206460728e-05
-0.000000000000000000e+00 0.000000000000000000e+00 -1.044897959183676395e-05
-0.000000000000000000e+00 0.000000000000000000e+00 1.007969207232617403e-19
0.000000000000000000e+00 0.000000000000000000e+00 1.033057851239665771e-05
-0.000000000000000000e+00 0.000000000000000000e+00 1.007969207232617403e-19
6.773729160035773297e-04 -1.859455063539247144e-04 -2.005057923747614185e-04
0.000000000000000000e+00 -0.000000000000000000e+00 1.154307460613771577e-05
7.482665309794404882e-06 1.995377415945194061e-05 1.193091643424463888e-05
5.281184868774369142e-05 -1.920430861372513548e-05 1.939044663170549898e-05
0.000000000000000000e+00 -0.000000000000000000e+00 5.082197683525802034e-20
0.000000000000000000e+00 0.000000000000000000e+00 1.133786848072574071e-05
7.308021695689339748e-06 1.948805785517168334e-05 1.135934923108942317e-05
-0.000000000000000000e+00 0.000000000000000000e+00 -1.044897959183681478e-05
0.000000000000000000e+00 0.000000000000000000e+00 -1.044897959183667925e-05
0.000000000000000000e+00 0.000000000000000000e+00 -1.009973488195931124e-05
0.000000000000000000e+00 -0.000000000000000000e+00 1.004323297946629262e-05
0.000000000000000000e+00 0.000000000000000000e+00 0.000000000000000000e+00
-0.000000000000000000e+00 0.000000000000000000e+00 -1.004323297946625196e-05
8.470329472543003391e-20 -1.643243917673342658e-19 2.032879073410320814e-20
0.000000000000000000e+00 -0.000000000000000000e+00 1.015671493751238883e-05
0.000000000000000000e+00 0.000000000000000000e+00 -1.063043460206459881e-05
-0.000000000000000000e+00 -0.000000000000000000e+00 6.352747104407252543e-21
0.000000000000000000e+00 -0.000000000000000000e+00 2.541098841762901017e-20
-2.387545077159515815e-05 8.681982098761961318e-06 -9.244918103828864424e-06
0.000000000000000000e+00 -0.000000000000000000e+00 4.404571325722361763e-20
0.000000000000000000e+00 -0.000000000000000000e+00 3.303428494291771322e-20
0.000000000000000000e+00 -0.000000000000000000e+00 3.303428494291771322e-20
-0.000000000000000000e+00 0.000000000000000000e+00 -1.133786848072565431e-05
0.000000000000000000e+00 0.000000000000000000e+00 -8.936197593532868577e-20
0.000000000000000000e+00 0.000000000000000000e+00 1.038952605904172060e-05
0.000000000000000000e+00 -0.000000000000000000e+00 -1.863472483959460746e-20
1.558713878713931787e-05 4.453468224896879715e-06 -2.583964183964365584e-06
-0.000000000000000000e+00 -0.000000000000000000e+00 -1.778769189234030712e-19
-1.695767151467214139e-04 3.699855603201211143e-04 1.519348011742384960e-04
1.043400782114654418e-05 -1.565101173171992808e-05 -9.366893384893120627e-06
7.460527246747646255e-06 1.989473932466039114e-05 1.189561786491233716e-05
0.000000000000000000e+00 -0.000000000000000000e+00 0.000000000000000000e+00
0.000000000000000000e+00 -0.000000000000000000e+00 1.069197099802858769e-05
1.576655798175388123e-05 -1.081135404463144369e-04 -1.622425790788610035e-05
1.680362637083816375e-05 4.801036105953700086e-06 1.643135351770253863e-06
0.000000000000000000e+00 0.000000000000000000e+00 1.038952605904173923e-05
2.463444243026640198e-05 -8.957979065551419518e-06 -8.275352318577884457e-06
0.000000000000000000e+00 0.000000000000000000e+00 -1.004323297946630617e-05
0.000000000000000000e+00 -0.000000000000000000e+00 1.004323297946628754e-05
0.000000000000000000e+00 0.000000000000000000e+00 9.987203895009504672e-06
-0.000000000000000000e+00 0.000000000000000000e+00 -3.642241673193491458e-20
0.000000000000000000e+00 -0.000000000000000000e+00 -2.541098841762901017e-20
0.000000000000000000e+00 -0.000000000000000000e+00 -1.948175778684890780e-20
0.000000000000000000e+00 0.000000000000000000e+00 6.352747104407252543e-21
0.000000000000000000e+00 -0.000000000000000000e+00 -1.948175778684890780e-20
0.000000000000000000e+00 -0.000000000000000000e+00 -1.863472483959460746e-20
0.000000000000000000e+00 -0.000000000000000000e+00 -1.863472483959460746e-20
2.449407523693317894e-05 -8.906936449793894956e-06 -1.186003837432414641e-05
0.000000000000000000e+00 -0.000000000000000000e+00 -2.032879073410320814e-20
0.000000000000000000e+00 -0.000000000000000000e+00 -2.032879073410320814e-20
1.656009885139238740e-05 4.731456814683539258e-06 -1.922945015593267137e-06
0.000000000000000000e+00 -0.000000000000000000e+00 1.044897959183671313e-05
-0.000000000000000000e+00 0.000000000000000000e+00 5.082197683525802034e-20
-0.000000000000000000e+00 0.000000000000000000e+00 6.860966872759832746e-20
0.000000000000000000e+00 0.000000000000000000e+00 -1.056942792971341346e-05
-7.097185222025308886e-06 -1.892582725873415703e-05 -9.102361438943228325e-06
0.000000000000000000e+00 -0.000000000000000000e+00 1.154307460613763445e-05
1.685290386752682547e-05 4.815115390721838083e-06 2.710111737291293162e-06
0.000000000000000000e+00 0.000000000000000000e+00 -1.107266435986162381e-05
-0.000000000000000000e+00 0.000000000000000000e+00 -1.063043460206458695e-05
-0.000000000000000000e+00 -0.000000000000000000e+00 -1.736417541871315695e-19
-9.299450132519410361e-06 1.394917519877923921e-05 -1.442160715738454590e-06
-1.572138159785166621e-05 -4.491823313671865790e-06 -1.477257399950902026e-06
-0.000000000000000000e+00 -0.000000000000000000e+00 6.352747104407252543e-21
-3.064640741694623320e-05 -8.756116404841847952e-06 1.854236415142942855e-05
0.000000000000000000e+00 -0.000000000000000000e+00 4.997494388800372001e-20
0.000000000000000000e+00 0.000000000000000000e+00 9.931642367765584770e-06
0.000000000000000000e+00 0.000000000000000000e+00 -1.004323297946628754e-05
0.000000000000000000e+00 -0.000000000000000000e+00 9.987203895009497896e-06
0.000000000000000000e+00 0.000000000000000000e+00 1.027213122647640930e-05
0.000000000000000000e+00 0.000000000000000000e+00 1.015671493751240916e-05
-0.000000000000000000e+00 -0.000000000000000000e+00 0.000000000000000000e+00
0.000000000000000000e+00 -0.000000000000000000e+00 1.270549420881450509e-20
0.000000000000000000e+00 0.000000000000000000e+00 -1.021417855660886772e-05
-0.000000000000000000e+00 0.000000000000000000e+00 0.000000000000000000e+00
0.000000000000000000e+00 0.000000000000000000e+00 -1.133786848072565431e-05
0.000000000000000000e+00 -0.000000000000000000e+00 7.284483346386982916e-20
0.000000000000000000e+00 -0.000000000000000000e+00 7.284483346386982916e-20
0.000000000000000000e+00 -0.000000000000000000e+00 5.082197683525802034e-20
0.000000000000000000e+00 0.000000000000000000e+00 -1.044897959183676395e-05
0.000000000000000000e+00 -0.000000000000000000e+00 1.027213122647637373e-05
0.000000000000000000e+00 -0.000000000000000000e+00 6.268043809681822509e-20
-1.807055356075034025e-05 2.710583034112520206e-05 -1.880738762973748664e-05
0.000000000000000000e+00 0.000000000000000000e+00 1.094353818268853883e-05
-0.000000000000000000e+00 0.000000000000000000e+00 8.724439356719293492e-20
-1.324072130289657559e-05 5.296288521158660730e-05 3.154407133925427547e-05
0.000000000000000000e+00 0.000000000000000000e+00 -1.100781727023325599e-05
0.000000000000000000e+00 0.000000000000000000e+00 1.063043460206462422e-05
2.546718928879983964e-05 2.546718928879943645e-05 1.389119415752718988e-05
0.000000000000000000e+00 0.000000000000000000e+00 1.127068125985077538e-05
-0.000000000000000000e+00 0.000000000000000000e+00 8.893845946170153560e-20
0.000000000000000000e+00 0.000000000000000000e+00 1.033057851239663738e-05
0.000000000000000000e+00 0.000000000000000000e+00 -1.015671493751245829e-05
-0.000000000000000000e+00 0.000000000000000000e+00 4.997494388800372001e-20
0.000000000000000000e+00 0.000000000000000000e+00 -4.319868030996931729e-20
0.000000000000000000e+00 -0.000000000000000000e+00 1.185846126156020475e-20
2.979279540390938216e-05 8.512227258259807017e-06 2.958795571052754561e-07
-0.000000000000000000e+00 -0.000000000000000000e+00 -1.021417855660888297e-05
-0.000000000000000000e+00 -0.000000000000000000e+00 0.000000000000000000e+00
-0.000000000000000000e+00 -0.000000000000000000e+00 0.000000000000000000e+00
0.000000000000000000e+00 -0.000000000000000000e+00 1.027213122647641438e-05
0.000000000000000000e+00 -0.000000000000000000e+00 2.541098841762901017e-20
-0.000000000000000000e+00 0.000000000000000000e+00 -1.027213122647636695e-05
0.000000000000000000e+00 0.000000000000000000e+00 1.133786848072564753e-05
-0.000000000000000000e+00 0.000000000000000000e+00 -2.032879073410320814e-20
-0.000000000000000000e+00 0.000000000000000000e+00 -2.032879073410320814e-20
0.000000000000000000e+00 0.000000000000000000e+00 1.063043460206458695e-05
0.000000000000000000e+00 0.000000000000000000e+00 -1.038952605904163081e-05
0.000000000000000000e+00 -0.000000000000000000e+00 0.000000000000000000e+00
0.000000000000000000e+00 0.000000000000000000e+00 -1.038952605904157999e-05
-0.000000000000000000e+00 0.000000000000000000e+00 -1.033057851239675766e-05
0.000000000000000000e+00 -0.000000000000000000e+00 1.094353818268871501e-05
0.000000000000000000e+00 -0.000000000000000000e+00 1.262079091408907505e-19
-0.000000000000000000e+00 -0.000000000000000000e+00 2.625802136488331051e-20
0.000000000000000000e+00 0.000000000000000000e+00 1.063043460206461914e-05
0.000000000000000000e+00 0.000000000000000000e+00 1.063043460206461914e-05
-6.680202337345387336e-06 -1.781387289958765439e-05 -1.074071748357456228e-05
-0.000000000000000000e+00 -0.000000000000000000e+00 -8.470329472543003391e-20
-0.000000000000000000e+00 -0.000000000000000000e+00 0.000000000000000000e+00
-0.000000000000000000e+00 0.000000000000000000e+00 8.893845946170153560e-20
-0.000000000000000000e+00 0.000000000000000000e+00 0.000000000000000000e+00
0.000000000000000000e+00 -0.000000000000000000e+00 -3.726944967918921492e-20
0.000000000000000000e+00 -0.000000000000000000e+00 1.004323297946626213e-05
0.000000000000000000e+00 0.000000000000000000e+00 9.987203895009514836e-06
0.000000000000000000e+00 0.000000000000000000e+00 -1.027213122647643302e-05
0.000000000000000000e+00 -0.000000000000000000e+00 -1.948175778684890780e-20
0.000000000000000000e+00 0.000000000000000000e+00 1.063043460206459881e-05
0.000000000000000000e+00 0.000000000000000000e+00 -1.027213122647641099e-05
0.000000000000000000e+00 0.000000000000000000e+00 1.021417855660886772e-05
0.000000000000000000e+00 0.000000000000000000e+00 1.021417855660887450e-05
-0.000000000000000000e+00 0.000000000000000000e+00 -1.033057851239663230e-05
-0.000000000000000000e+00 0.000000000000000000e+00 5.251604272976662102e-20
-0.000000000000000000e+00 0.000000000000000000e+00 5.251604272976662102e-20
-6.596678755487614333e-05 -5.375071578545457482e-05 1.959144344197609079e-05
-0.000000000000000000e+00 0.000000000000000000e+00 1.050894491835040819e-05
0.000000000000000000e+00 0.000000000000000000e+00 -1.033057851239653065e-05
-0.000000000000000000e+00 0.000000000000000000e+00 9.994988777600744001e-20
0.000000000000000000e+00 0.000000000000000000e+00 6.352747104407252543e-21
0.000000000000000000e+00 0.000000000000000000e+00 -1.087982048296197614e-05
0.000000000000000000e+00 -0.000000000000000000e+00 1.154307460613764123e-05
0.000000000000000000e+00 0.000000000000000000e+00 1.154307460613766325e-05
0.000000000000000000e+00 -0.000000000000000000e+00 1.107266435986162381e-05
0.000000000000000000e+00 0.000000000000000000e+00 1.063043460206458695e-05
0.000000000000000000e+00 0.000000000000000000e+00 1.069197099802861819e-05
-8.831097150185347820e-06 1.324664572527798785e-05 8.960966225923603913e-06
1.585717038394865680e-05 4.530620109699724043e-06 1.205944470375898489e-05
0.000000000000000000e+00 0.000000000000000000e+00 -1.027213122647637203e-05
0.000000000000000000e+00 -0.000000000000000000e+00 1.044897959183667417e-05
-0.000000000000000000e+00 0.000000000000000000e+00 5.929230630780102373e-21
-0.000000000000000000e+00 0.000000000000000000e+00 -1.004323297946628754e-05
0.000000000000000000e+00 -0.000000000000000000e+00 1.004323297946629262e-05
0.000000000000000000e+00 -0.000000000000000000e+00 -3.642241673193491458e-20
0.000000000000000000e+00 0.000000000000000000e+00 1.027213122647642794e-05
0.000000000000000000e+00 0.000000000000000000e+00 1.015671493751238375e-05
-0.000000000000000000e+00 -0.000000000000000000e+00 1.778769189234030712e-20
0.000000000000000000e+00 0.000000000000000000e+00 1.027213122647643641e-05
0.000000000000000000e+00 -0.000000000000000000e+00 0.000000000000000000e+00
0.000000000000000000e+00 -0.000000000000000000e+00 0.000000000000000000e+00
8.527836274540949446e-05 -4.148677106533444096e-05 5.799027268639194041e-06
0.000000000000000000e+00 -0.000000000000000000e+00 0.000000000000000000e+00
0.000000000000000000e+00 0.000000000000000000e+00 1.133786848072564753e-05
0.000000000000000000e+00 0.000000000000000000e+00 -1.069197099802866393e-05
0.000000000000000000e+00 -0.000000000000000000e+00 5.082197683525802034e-20
0.000000000000000000e+00 0.000000000000000000e+00 1.033057851239670683e-05
-0.000000000000000000e+00 0.000000000000000000e+00 -1.027213122647650247e-05
-5.026893237322605738e-05 1.827961177208263082e-05 1.829183076390862223e-05
0.000000000000000000e+00 0.000000000000000000e+00 -1.081665765278518539e-05
-0.000000000000000000e+00 0.000000000000000000e+00 8.724439356719293492e-20
1.725414767819119318e-05 4.929756479483145898e-06 -8.429356333234147881e-06
0.000000000000000000e+00 0.000000000000000000e+00 1.107266435986162381e-05
0.000000000000000000e+00 -0.000000000000000000e+00 1.069197099802866393e-05
-1.660852019306307788e-05 -4.745291483732376697e-06 8.875217627996507847e-06
-1.781401832014498451e-05 2.672102748021740561e-05 7.626924287468455270e-06
0.000000000000000000e+00 -0.000000000000000000e+00 1.044897959183676395e-05
0.000000000000000000e+00 -0.000000000000000000e+00 1.033057851239660688e-05
0.000000000000000000e+00 -0.000000000000000000e+00 1.021417855660886772e-05
-0.000000000000000000e+00 0.000000000000000000e+00 3.134021904840911255e-20
-0.000000000000000000e+00 -0.000000000000000000e+00 -6.183340514956392475e-20
-0.000000000000000000e+00 0.000000000000000000e+00 -1.863472483959460746e-20
-0.000000000000000000e+00 0.000000000000000000e+00 3.134021904840911255e-20
0.000000000000000000e+00 0.000000000000000000e+00 -2.541098841762901017e-21
0.000000000000000000e+00 0.000000000000000000e+00 -5.505714157152952204e-21
0.000000000000000000e+00 -0.000000000000000000e+00 1.038952605904173923e-05
-0.000000000000000000e+00 0.000000000000000000e+00 3.134021904840911255e-20
0.000000000000000000e+00 0.000000000000000000e+00 1.021417855660886772e-05
0.000000000000000000e+00 -0.000000000000000000e+00 -1.948175778684890780e-20
0.000000000000000000e+00 0.000000000000000000e+00 1.133786848072565431e-05
-0.000000000000000000e+00 0.000000000000000000e+00 7.284483346386982916e-20
-0.000000000000000000e+00 0.000000000000000000e+00 7.284483346386982916e-20
-0.000000000000000000e+00 0.000000000000000000e+00 -1.069197099802867748e-05
0.000000000000000000e+00 0.000000000000000000e+00 1.044897959183676395e-05
-0.000000000000000000e+00 0.000000000000000000e+00 6.860966872759832746e-20
-0.000000000000000000e+00 0.000000000000000000e+00 6.268043809681822509e-20
0.000000000000000000e+00 0.000000000000000000e+00 -1.033057851239646628e-05
-0.000000000000000000e+00 0.000000000000000000e+00 1.423015351387224570e-19
0.000000000000000000e+00 -0.000000000000000000e+00 8.724439356719293492e-20
0.000000000000000000e+00 0.000000000000000000e+00 2.625802136488331051e-20
-0.000000000000000000e+00 0.000000000000000000e+00 -1.100781727023337796e-05
-6.914346662702343718e-06 -1.843825776720634140e-05 1.023594456929425068e-05
-0.000000000000000000e+00 -0.000000000000000000e+00 -6.437450399132682577e-20
1.745955238952022695e-05 4.988443539862910613e-06 1.304464647589832898e-05
0.000000000000000000e+00 0.000000000000000000e+00 1.044897959183680800e-05
0.000000000000000000e+00 -0.000000000000000000e+00 1.038952605904171382e-05
-0.000000000000000000e+00 0.000000000000000000e+00 -1.015671493751245829e-05
0.000000000000000000e+00 -0.000000000000000000e+00 4.997494388800372001e-20
0.000000000000000000e+00 -0.000000000000000000e+00 1.004323297946632481e-05
0.000000000000000000e+00 0.000000000000000000e+00 1.004323297946627398e-05
-6.548483656878810307e-06 -1.746262308501026020e-05 1.068651833845358732e-05
0.000000000000000000e+00 0.000000000000000000e+00 -1.015671493751238883e-05
-2.421652421652378305e-05 8.806008806008646533e-06 1.034235125144217126e-05
-1.541051541051515346e-05 -4.403004403004314796e-06 -9.865555320100797513e-06
-0.000000000000000000e+00 0.000000000000000000e+00 -2.541098841762901017e-20
0.000000000000000000e+00 0.000000000000000000e+00 1.021417855660889144e-05
0.000000000000000000e+00 0.000000000000000000e+00 -1.033057851239672716e-05
7.549607380044046331e-06 2.013228634678422180e-05 1.018725986932854277e-05
0.000000000000000000e+00 -0.000000000000000000e+00 3.303428494291771322e-20
0.000000000000000000e+00 0.000000000000000000e+00 1.133786848072565431e-05
0.000000000000000000e+00 0.000000000000000000e+00 -1.056942792971318984e-05
0.000000000000000000e+00 -0.000000000000000000e+00 -1.863472483959460746e-20
0.000000000000000000e+00 -0.000000000000000000e+00 8.809142651444723526e-20
-0.000000000000000000e+00 0.000000000000000000e+00 -1.038952605904157999e-05
1.558713878713931787e-05 4.453468224897150766e-06 -2.792348392348261544e-06
-0.000000000000000000e+00 0.000000000000000000e+00 -1.094353818268871501e-05
-0.000000000000000000e+00 0.000000000000000000e+00 -1.154307460613751417e-05
0.000000000000000000e+00 -0.000000000000000000e+00 1.107266435986163059e-05
1.973513270244057257e-04 1.018587494319601471e-04 -4.769862761668130407e-04
0.000000000000000000e+00 0.000000000000000000e+00 1.069197099802858769e-05
0.000000000000000000e+00 -0.000000000000000000e+00 1.033057851239668820e-05
-0.000000000000000000e+00 -0.000000000000000000e+00 -9.740878893424453899e-20
0.000000000000000000e+00 -0.000000000000000000e+00 1.033057851239672716e-05
-0.000000000000000000e+00 0.000000000000000000e+00 -1.863472483959460746e-20
-0.000000000000000000e+00 0.000000000000000000e+00 2.541098841762901017e-20
0.000000000000000000e+00 0.000000000000000000e+00 1.004323297946628076e-05
-0.000000000000000000e+00 0.000000000000000000e+00 -1.863472483959460746e-20
2.795208725939191119e-19 -3.625301014248405451e-19 -3.388131789017201356e-21
-0.000000000000000000e+00 0.000000000000000000e+00 -2.541098841762901017e-20
0.000000000000000000e+00 0.000000000000000000e+00 1.015671493751238375e-05
1.585717038394862292e-05 4.530620109699621552e-06 1.018178128931119722e-05
0.000000000000000000e+00 0.000000000000000000e+00 1.027213122647639067e-05
0.000000000000000000e+00 0.000000000000000000e+00 1.027213122647643471e-05
-6.511486574071437107e-06 -1.736396419752372274e-05 -9.395808167042558727e-06
2.428551716300958961e-05 -8.831097150185280057e-06 8.960966225923558173e-06
-0.000000000000000000e+00 0.000000000000000000e+00 -2.032879073410320814e-20
-0.000000000000000000e+00 0.000000000000000000e+00 -1.133786848072562890e-05
-9.408056159052602938e-06 1.411208423857756948e-05 1.143305220398138953e-05
0.000000000000000000e+00 0.000000000000000000e+00 1.044897959183671313e-05
-0.000000000000000000e+00 0.000000000000000000e+00 8.216219588366713289e-20
0.000000000000000000e+00 -0.000000000000000000e+00 1.702536223981143682e-19
0.000000000000000000e+00 0.000000000000000000e+00 -1.056942792971341346e-05
-3.380494246368598158e-05 -9.658554989624584558e-06 -1.576617064482853687e-05
0.000000000000000000e+00 0.000000000000000000e+00 1.154307460613764123e-05
1.680362637083816375e-05 4.801036105953842387e-06 2.702187433966000615e-06
-0.000000000000000000e+00 0.000000000000000000e+00 -1.948175778684890780e-20
6.914346662702413175e-06 1.843825776720620248e-05 -1.020513197275815745e-05
-0.000000000000000000e+00 -0.000000000000000000e+00 -1.075404326822096857e-05
8.831097150185347820e-06 -1.324664572527798785e-05 -8.960966225923603913e-06
1.572138159785166621e-05 4.491823313671865790e-06 1.195617676139171786e-05
0.000000000000000000e+00 0.000000000000000000e+00 1.027213122647637373e-05
-0.000000000000000000e+00 0.000000000000000000e+00 -1.044897959183667417e-05
0.000000000000000000e+00 -0.000000000000000000e+00 1.270549420881450509e-20
0.000000000000000000e+00 0.000000000000000000e+00 9.987203895009547024e-06
0.000000000000000000e+00 -0.000000000000000000e+00 -3.726944967918921492e-20
0.000000000000000000e+00 -0.000000000000000000e+00 3.134021904840911255e-20
6.456511741135297484e-06 1.721736464302746109e-05 9.748066746419998077e-06
0.000000000000000000e+00 -0.000000000000000000e+00 1.021417855660888127e-05
0.000000000000000000e+00 0.000000000000000000e+00 6.352747104407252543e-21
0.000000000000000000e+00 -0.000000000000000000e+00 1.033057851239666109e-05
-0.000000000000000000e+00 0.000000000000000000e+00 0.000000000000000000e+00
-0.000000000000000000e+00 0.000000000000000000e+00 -1.021417855660889313e-05
1.132655027424903694e-05 -4.530620109699621552e-05 -1.005458473542930727e-05
0.000000000000000000e+00 0.000000000000000000e+00 1.133786848072564753e-05
0.000000000000000000e+00 -0.000000000000000000e+00 1.127068125985084653e-05
-0.000000000000000000e+00 0.000000000000000000e+00 7.030373462210692814e-20
0.000000000000000000e+00 0.000000000000000000e+00 1.044897959183672499e-05
0.000000000000000000e+00 0.000000000000000000e+00 -1.027213122647636695e-05
0.000000000000000000e+00 0.000000000000000000e+00 -1.033057851239675766e-05
-2.428551716300955573e-05 8.831097150185146226e-06 -6.599710303413923291e-06
0.000000000000000000e+00 0.000000000000000000e+00 1.081665765278518539e-05
0.000000000000000000e+00 0.000000000000000000e+00 1.154307460613772254e-05
7.416512336737282802e-06 1.977736623129942081e-05 -1.051664093382283276e-05
0.000000000000000000e+00 -0.000000000000000000e+00 1.100781727023326785e-05
0.000000000000000000e+00 0.000000000000000000e+00 1.069197099802867578e-05
-5.253454602918187312e-05 -1.500987029405162760e-05 2.767194002071879643e-05
-9.299450132519410361e-06 1.394917519877923921e-05 -1.442160715738452896e-06
0.000000000000000000e+00 0.000000000000000000e+00 1.044897959183674532e-05
-0.000000000000000000e+00 0.000000000000000000e+00 -1.033057851239653743e-05
-0.000000000000000000e+00 0.000000000000000000e+00 -1.021417855660888636e-05
0.000000000000000000e+00 -0.000000000000000000e+00 5.929230630780102373e-21
0.000000000000000000e+00 -0.000000000000000000e+00 1.004323297946631295e-05
0.000000000000000000e+00 -0.000000000000000000e+00 -1.863472483959460746e-20
-0.000000000000000000e+00 0.000000000000000000e+00 -9.987203895009513142e-06
0.000000000000000000e+00 -0.000000000000000000e+00 1.015671493751242779e-05
0.000000000000000000e+00 0.000000000000000000e+00 -1.033057851239669667e-05
0.000000000000000000e+00 -0.000000000000000000e+00 4.404571325722361763e-20
-0.000000000000000000e+00 0.000000000000000000e+00 1.270549420881450509e-20
0.000000000000000000e+00 0.000000000000000000e+00 1.015671493751237697e-05
-0.000000000000000000e+00 0.000000000000000000e+00 0.000000000000000000e+00
6.519637083704427668e-05 -1.883450713070167692e-04 -2.155780176519040965e-05
0.000000000000000000e+00 0.000000000000000000e+00 1.133786848072564753e-05
0.000000000000000000e+00 0.000000000000000000e+00 1.133786848072564753e-05
0.000000000000000000e+00 -0.000000000000000000e+00 -1.063043460206458695e-05
0.000000000000000000e+00 0.000000000000000000e+00 -1.038952605904191033e-05
0.000000000000000000e+00 -0.000000000000000000e+00 0.000000000000000000e+00
-0.000000000000000000e+00 0.000000000000000000e+00 -1.033057851239676443e-05
0.000000000000000000e+00 0.000000000000000000e+00 1.033057851239658825e-05
-0.000000000000000000e+00 0.000000000000000000e+00 -1.948175778684890780e-20
-0.000000000000000000e+00 0.000000000000000000e+00 1.067261513540418427e-19
0.000000000000000000e+00 0.000000000000000000e+00 -1.107266435986144085e-05
2.663891779396447627e-05 -9.686879197805044024e-06 -6.779520401137897652e-06
0.000000000000000000e+00 -0.000000000000000000e+00 1.075404326822098890e-05
0.000000000000000000e+00 0.000000000000000000e+00 -8.809142651444723526e-20
1.685290386752682547e-05 4.815115390721980384e-06 1.265577120074784258e-05
-0.000000000000000000e+00 -0.000000000000000000e+00 -1.711006553453686685e-19
-0.000000000000000000e+00 0.000000000000000000e+00 -1.038952605904178328e-05
0.000000000000000000e+00 0.000000000000000000e+00 -1.009973488195934174e-05
-0.000000000000000000e+00 0.000000000000000000e+00 3.134021904840911255e-20
0.000000000000000000e+00 -0.000000000000000000e+00 4.319868030996931729e-20
0.000000000000000000e+00 -0.000000000000000000e+00 1.009973488195936037e-05
-6.548483656878812848e-06 -1.746262308501026020e-05 1.068651833845358732e-05
-0.000000000000000000e+00 0.000000000000000000e+00 8.470329472543003391e-22
6.115577879176048448e-19 -9.317362419797303730e-19 2.541098841762901017e-20
0.000000000000000000e+00 -0.000000000000000000e+00 1.038952605904173415e-05
0.000000000000000000e+00 -0.000000000000000000e+00 -3.811648262644351526e-20
0.000000000000000000e+00 -0.000000000000000000e+00 -2.054426245295283893e-05
0.000000000000000000e+00 0.000000000000000000e+00 1.033057851239666448e-05
1.977753934795648449e-05 -2.966630902193429306e-05 -7.006748565785668865e-07
-0.000000000000000000e+00 0.000000000000000000e+00 7.199780051661552882e-20
9.976887079725897458e-06 -1.496533061958888261e-05 1.065046033845086023e-05
-0.000000000000000000e+00 0.000000000000000000e+00 -1.056942792971329149e-05
-0.000000000000000000e+00 0.000000000000000000e+00 -1.038952605904162573e-05
-0.000000000000000000e+00 0.000000000000000000e+00 8.809142651444723526e-20
0.000000000000000000e+00 0.000000000000000000e+00 -1.050894491835044546e-05
0.000000000000000000e+00 0.000000000000000000e+00 1.087982048296197614e-05
0.000000000000000000e+00 0.000000000000000000e+00 1.154307460613764123e-05
0.000000000000000000e+00 0.000000000000000000e+00 -2.227617232707693298e-05
0.000000000000000000e+00 0.000000000000000000e+00 1.107266435986163059e-05
2.923208678275744708e-05 -4.384813017413623161e-05 -2.761025309093353072e-05
0.000000000000000000e+00 0.000000000000000000e+00 -1.270549420881450509e-20
8.756116404841815764e-06 -1.313417460726250511e-05 -8.884882822559638898e-06
-9.139729979705758374e-06 1.370959496955861977e-05 -1.195618420473579705e-05
-0.000000000000000000e+00 0.000000000000000000e+00 8.809142651444723526e-20
0.000000000000000000e+00 0.000000000000000000e+00 1.044897959183676395e-05
0.000000000000000000e+00 -0.000000000000000000e+00 2.541098841762901017e-20
0.000000000000000000e+00 -0.000000000000000000e+00 9.987203895009553800e-06
0.000000000000000000e+00 -0.000000000000000000e+00 0.000000000000000000e+00
-6.348404782945747701e-06 -1.692907942118861649e-05 1.041658930962868014e-05
0.000000000000000000e+00 0.000000000000000000e+00 1.027213122647642963e-05
0.000000000000000000e+00 -0.000000000000000000e+00 1.021417855660889821e-05
-0.000000000000000000e+00 -0.000000000000000000e+00 -1.050894491835042513e-05
0.000000000000000000e+00 -0.000000000000000000e+00 1.033057851239668651e-05
0.000000000000000000e+00 0.000000000000000000e+00 -1.021417855660889313e-05
0.000000000000000000e+00 0.000000000000000000e+00 -1.021417855660889313e-05
-3.574479037413147431e-19 5.590417451878382238e-19 1.694065894508600678e-20
0.000000000000000000e+00 0.000000000000000000e+00 1.133786848072565431e-05
0.000000000000000000e+00 -0.000000000000000000e+00 1.127068125985079402e-05
-0.000000000000000000e+00 -0.000000000000000000e+00 -1.069197099802859955e-05
0.000000000000000000e+00 0.000000000000000000e+00 -1.033057851239661874e-05
0.000000000000000000e+00 -0.000000000000000000e+00 1.270549420881450509e-20
-0.000000000000000000e+00 0.000000000000000000e+00 9.994988777600744001e-20
0.000000000000000000e+00 0.000000000000000000e+00 1.056942792971341346e-05
7.243916242218456207e-06 1.931710997924873205e-05 9.161423482805616762e-06
0.000000000000000000e+00 -0.000000000000000000e+00 1.147405787227955352e-05
1.715265269184905198e-05 4.900757911956820326e-06 2.725555202371633715e-06
0.000000000000000000e+00 0.000000000000000000e+00 1.107266435986164922e-05
9.435405159514265980e-06 -1.415310773927131257e-05 1.259525675370973617e-05
0.000000000000000000e+00 0.000000000000000000e+00 -2.089795918367356179e-05
-8.756116404841781883e-06 1.313417460726250511e-05 8.914147917495812416e-06
0.000000000000000000e+00 0.000000000000000000e+00 -1.044897959183666739e-05
0.000000000000000000e+00 0.000000000000000000e+00 -1.033057851239668820e-05
0.000000000000000000e+00 0.000000000000000000e+00 -1.021417855660887450e-05
0.000000000000000000e+00 0.000000000000000000e+00 1.004323297946623671e-05
0.000000000000000000e+00 0.000000000000000000e+00 -1.004323297946626890e-05
0.000000000000000000e+00 0.000000000000000000e+00 1.004323297946628076e-05
0.000000000000000000e+00 0.000000000000000000e+00 9.987203895009497896e-06
0.000000000000000000e+00 -0.000000000000000000e+00 1.015671493751239222e-05
0.000000000000000000e+00 0.000000000000000000e+00 1.021417855660887788e-05
0.000000000000000000e+00 0.000000000000000000e+00 1.038952605904173923e-05
-0.000000000000000000e+00 0.000000000000000000e+00 -1.033057851239665940e-05
-0.000000000000000000e+00 0.000000000000000000e+00 6.776263578034402713e-21
0.000000000000000000e+00 0.000000000000000000e+00 -1.027213122647646520e-05
5.454892180317694184e-19 -8.859964628279981547e-19 -3.896351557369781560e-20
0.000000000000000000e+00 -0.000000000000000000e+00 1.127068125985088719e-05
-0.000000000000000000e+00 0.000000000000000000e+00 5.251604272976662102e-20
0.000000000000000000e+00 -0.000000000000000000e+00 1.024909866177703410e-19
6.548483656878843342e-06 1.746262308501029409e-05 8.923914003001397912e-06
-0.000000000000000000e+00 0.000000000000000000e+00 3.134021904840911255e-20
0.000000000000000000e+00 -0.000000000000000000e+00 1.007969207232617403e-19
-0.000000000000000000e+00 -0.000000000000000000e+00 -1.033057851239661197e-05
0.000000000000000000e+00 0.000000000000000000e+00 -1.094353818268870823e-05
0.000000000000000000e+00 -0.000000000000000000e+00 1.147405787227944002e-05
0.000000000000000000e+00 0.000000000000000000e+00 -1.567010952420455627e-19
0.000000000000000000e+00 -0.000000000000000000e+00 -3.896351557369781560e-20
6.974587599389549300e-06 1.859890026503889187e-05 -1.032512477948844053e-05
0.000000000000000000e+00 0.000000000000000000e+00 5.082197683525802034e-20
9.299450132519410361e-06 -1.394917519877923921e-05 1.442160715738202175e-06
0.000000000000000000e+00 0.000000000000000000e+00 -1.038952605904175109e-05
0.000000000000000000e+00 0.000000000000000000e+00 -1.038952605904163081e-05
0.000000000000000000e+00 0.000000000000000000e+00 5.929230630780102373e-21
0.000000000000000000e+00 -0.000000000000000000e+00 -1.863472483959460746e-20
0.000000000000000000e+00 -0.000000000000000000e+00 5.929230630780102373e-21
0.000000000000000000e+00 0.000000000000000000e+00 1.004323297946631803e-05
-3.156469417218899420e-05 2.104312944812574993e-05 8.889878216053243612e-06
0.000000000000000000e+00 -0.000000000000000000e+00 -1.778769189234030712e-20
0.000000000000000000e+00 -0.000000000000000000e+00 -1.948175778684890780e-20
-0.000000000000000000e+00 0.000000000000000000e+00 1.270549420881450509e-20
0.000000000000000000e+00 -0.000000000000000000e+00 3.218725199566341288e-20
-0.000000000000000000e+00 0.000000000000000000e+00 -1.015671493751237697e-05
-0.000000000000000000e+00 0.000000000000000000e+00 -1.948175778684890780e-20
-9.061240219399243105e-06 1.359186032909889854e-05 2.907349803015927208e-07
0.000000000000000000e+00 -0.000000000000000000e+00 1.127068125985076183e-05
0.000000000000000000e+00 -0.000000000000000000e+00 1.127068125985084145e-05
0.000000000000000000e+00 -0.000000000000000000e+00 1.056942792971324744e-05
0.000000000000000000e+00 0.000000000000000000e+00 1.038952605904180869e-05
0.000000000000000000e+00 -0.000000000000000000e+00 6.860966872759832746e-20
0.000000000000000000e+00 -0.000000000000000000e+00 -1.038952605904158168e-05
-6.623322862638993924e-06 -1.766219430037056011e-05 -8.701228074447491526e-06
0.000000000000000000e+00 0.000000000000000000e+00 1.094353818268871501e-05
0.000000000000000000e+00 0.000000000000000000e+00 1.154307460613769544e-05
0.000000000000000000e+00 0.000000000000000000e+00 1.107266435986144085e-05
-4.039742291492387331e-04 2.609522970901921330e-04 -1.569766003526408874e-04
0.000000000000000000e+00 0.000000000000000000e+00 1.075404326822093638e-05
0.000000000000000000e+00 -0.000000000000000000e+00 1.027213122647650247e-05
0.000000000000000000e+00 0.000000000000000000e+00 -9.063252535621013628e-20
0.000000000000000000e+00 0.000000000000000000e+00 1.033057851239672547e-05
0.000000000000000000e+00 0.000000000000000000e+00 -1.044897959183666739e-05
-0.000000000000000000e+00 0.000000000000000000e+00 8.724439356719293492e-20
-0.000000000000000000e+00 0.000000000000000000e+00 -1.004323297946631803e-05
0.000000000000000000e+00 -0.000000000000000000e+00 -1.863472483959460746e-20
-0.000000000000000000e+00 0.000000000000000000e+00 -1.009973488195931124e-05
0.000000000000000000e+00 -0.000000000000000000e+00 1.021417855660891007e-05
0.000000000000000000e+00 0.000000000000000000e+00 1.015671493751241085e-05
-6.776457585281403853e-06 -1.807055356075032331e-05 -9.898942943204797981e-06
-0.000000000000000000e+00 0.000000000000000000e+00 -1.038952605904168672e-05
-0.000000000000000000e+00 0.000000000000000000e+00 -1.027213122647641099e-05
0.000000000000000000e+00 -0.000000000000000000e+00 1.021417855660889144e-05
-6.511486574071404073e-06 -1.736396419752372274e-05 -9.279738887647349580e-06
-1.977753934795648449e-05 2.966630902193429306e-05 7.006748565785668865e-07
0.000000000000000000e+00 0.000000000000000000e+00 1.133786848072562212e-05
0.000000000000000000e+00 0.000000000000000000e+00 -1.069197099802856059e-05
0.000000000000000000e+00 0.000000000000000000e+00 1.050894491835054710e-05
0.000000000000000000e+00 0.000000000000000000e+00 1.033057851239671361e-05
0.000000000000000000e+00 -0.000000000000000000e+00 0.000000000000000000e+00
0.000000000000000000e+00 0.000000000000000000e+00 1.050894491835044546e-05
-2.207774287546320014e-06 3.090884002564841583e-05 9.811018358026890392e-06
0.000000000000000000e+00 -0.000000000000000000e+00 1.147405787227933499e-05
-1.680362637083816375e-05 -4.801036105953842387e-06 -2.702187433965825279e-06
0.000000000000000000e+00 -0.000000000000000000e+00 1.100781727023318314e-05
0.000000000000000000e+00 -0.000000000000000000e+00 1.087982048296192362e-05
-1.660852019306308466e-05 -4.745291483732373309e-06 8.875217627996507847e-06
-6.511486574071371038e-06 -1.736396419752365497e-05 -1.046944900144820861e-05
-9.192560788837736272e-06 1.378884118325658747e-05 -1.364136694600244508e-06
0.000000000000000000e+00 0.000000000000000000e+00 1.033057851239666279e-05
-3.064640741694623320e-05 -8.756116404841847952e-06 -2.060262683492211526e-06
-0.000000000000000000e+00 0.000000000000000000e+00 -1.009973488195929261e-05
0.000000000000000000e+00 -0.000000000000000000e+00 -1.863472483959460746e-20
-0.000000000000000000e+00 0.000000000000000000e+00 -1.863472483959460746e-20
-6.402154022409468177e-06 -1.707241072642532527e-05 1.050478213480915997e-05
0.000000000000000000e+00 0.000000000000000000e+00 -1.015671493751238714e-05
0.000000000000000000e+00 0.000000000000000000e+00 1.021417855660888127e-05
-1.567646336471494858e-05 -4.478989532775709759e-06 -1.006575054090402978e-05
0.000000000000000000e+00 0.000000000000000000e+00 1.033057851239665432e-05
-0.000000000000000000e+00 0.000000000000000000e+00 -3.811648262644351526e-20
-0.000000000000000000e+00 0.000000000000000000e+00 -3.811648262644351526e-20
8.731311542505114856e-06 -1.309696731375768838e-05 -2.217846514807577442e-07
0.000000000000000000e+00 0.000000000000000000e+00 -1.127068125985088550e-05
-0.000000000000000000e+00 0.000000000000000000e+00 5.251604272976662102e-20
0.000000000000000000e+00 -0.000000000000000000e+00 1.075404326822100753e-05
8.731311542505114856e-06 -1.309696731375775445e-05 -6.886997072297057685e-07
0.000000000000000000e+00 0.000000000000000000e+00 1.033057851239668312e-05
0.000000000000000000e+00 -0.000000000000000000e+00 -1.863472483959460746e-20
-6.604506604506455254e-06 -1.761201761201712366e-05 1.198464834828450994e-05
0.000000000000000000e+00 0.000000000000000000e+00 -4.252173840825857821e-05
0.000000000000000000e+00 -0.000000000000000000e+00 1.727947212398772692e-19
-0.000000000000000000e+00 -0.000000000000000000e+00 -1.050320854595332420e-19
0.000000000000000000e+00 -0.000000000000000000e+00 1.100781727023324244e-05
-9.435405159514265980e-06 1.415310773927131257e-05 -1.747063655872530914e-06
6.567087303631319472e-06 1.751223280968356377e-05 1.058811134783318828e-05
-0.000000000000000000e+00 0.000000000000000000e+00 1.007969207232617403e-19
-0.000000000000000000e+00 0.000000000000000000e+00 1.270549420881450509e-20
0.000000000000000000e+00 0.000000000000000000e+00 1.033057851239661874e-05
0.000000000000000000e+00 0.000000000000000000e+00 1.021417855660889144e-05
-2.321228116714798900e-05 8.440829515326596588e-06 8.418260452451557124e-06
-0.000000000000000000e+00 0.000000000000000000e+00 5.929230630780102373e-21
1.464789904601410067e-05 4.185114013146904177e-06 3.412994048154690859e-07
-6.511486574071404920e-06 -1.736396419752375323e-05 1.068417716832942329e-05
0.000000000000000000e+00 -0.000000000000000000e+00 -3.472835083742631390e-20
0.000000000000000000e+00 0.000000000000000000e+00 -1.033057851239668820e-05
9.035276780375170127e-06 -1.355291517056273825e-05 1.076260910603477312e-05
0.000000000000000000e+00 -0.000000000000000000e+00 1.027213122647640252e-05
-0.000000000000000000e+00 0.000000000000000000e+00 -1.021417855660898122e-05
0.000000000000000000e+00 0.000000000000000000e+00 1.027213122647645843e-05
-5.404070203482436163e-19 9.249599784016959703e-19 5.505714157152952204e-20
0.000000000000000000e+00 -0.000000000000000000e+00 5.251604272976662102e-20
0.000000000000000000e+00 -0.000000000000000000e+00 0.000000000000000000e+00
-0.000000000000000000e+00 0.000000000000000000e+00 -1.069197099802853687e-05
0.000000000000000000e+00 0.000000000000000000e+00 1.027213122647643471e-05
0.000000000000000000e+00 0.000000000000000000e+00 1.027213122647645843e-05
-0.000000000000000000e+00 0.000000000000000000e+00 1.007969207232617403e-19
0.000000000000000000e+00 0.000000000000000000e+00 2.541098841762901017e-20
0.000000000000000000e+00 0.000000000000000000e+00 1.094353818268870823e-05
-0.000000000000000000e+00 0.000000000000000000e+00 0.000000000000000000e+00
0.000000000000000000e+00 -0.000000000000000000e+00 1.100781727023324244e-05
-0.000000000000000000e+00 0.000000000000000000e+00 8.470329472543003391e-20
-7.097185222025308886e-06 -1.892582725873415703e-05 1.047498995336342791e-05
0.000000000000000000e+00 -0.000000000000000000e+00 1.027213122647644149e-05
9.299450132519410361e-06 -1.394917519877923582e-05 1.442160715738202175e-06
-0.000000000000000000e+00 0.000000000000000000e+00 6.945670167485262780e-20
-0.000000000000000000e+00 0.000000000000000000e+00 6.945670167485262780e-20
0.000000000000000000e+00 0.000000000000000000e+00 -1.009973488195932310e-05
-0.000000000000000000e+00 0.000000000000000000e+00 -1.863472483959460746e-20
0.000000000000000000e+00 -0.000000000000000000e+00 4.404571325722361763e-20
0.000000000000000000e+00 0.000000000000000000e+00 -1.009973488195937054e-05
0.000000000000000000e+00 0.000000000000000000e+00 -1.021417855660889313e-05
0.000000000000000000e+00 0.000000000000000000e+00 1.015671493751238375e-05
-0.000000000000000000e+00 0.000000000000000000e+00 -1.033057851239669667e-05
-0.000000000000000000e+00 0.000000000000000000e+00 3.134021904840911255e-20
-0.000000000000000000e+00 0.000000000000000000e+00 0.000000000000000000e+00
0.000000000000000000e+00 -0.000000000000000000e+00 1.021417855660886772e-05
0.000000000000000000e+00 0.000000000000000000e+00 1.027213122647641608e-05
9.061240219399243105e-06 -1.359186032909889854e-05 -2.907349803015935678e-07
-0.000000000000000000e+00 0.000000000000000000e+00 7.284483346386982916e-20
-0.000000000000000000e+00 0.000000000000000000e+00 -1.127068125985084145e-05
-0.000000000000000000e+00 0.000000000000000000e+00 -1.056942792971322711e-05
6.493092544201147230e-06 1.731491345120310220e-05 8.819494685706519602e-06
0.000000000000000000e+00 0.000000000000000000e+00 1.027213122647635340e-05
-6.699343318255319632e-06 -1.786491551534498921e-05 -8.830952555880798829e-06
-6.567087303631319472e-06 -1.751223280968342824e-05 -8.627349987123276041e-06
2.535951132520142259e-04 6.185246664682963046e-06 5.971078364395487144e-05
0.000000000000000000e+00 0.000000000000000000e+00 1.100781727023343048e-05
0.000000000000000000e+00 -0.000000000000000000e+00 1.100781727023345081e-05
2.640569858274563508e-05 -9.602072211907684775e-06 1.510272454185716201e-05
-1.646409827834060502e-05 -4.704028079525283336e-06 8.798041822535732846e-06
0.000000000000000000e+00 0.000000000000000000e+00 1.027213122647636525e-05
1.665694153473394794e-05 4.759126152781127740e-06 1.250861232134698036e-05
-6.623322862638993924e-06 -1.766219430037056011e-05 1.030688210175387343e-05
0.000000000000000000e+00 0.000000000000000000e+00 1.044897959183669958e-05
0.000000000000000000e+00 -0.000000000000000000e+00 4.997494388800372001e-20
0.000000000000000000e+00 0.000000000000000000e+00 -8.682087709356578475e-20
0.000000000000000000e+00 -0.000000000000000000e+00 1.270549420881450509e-20
0.000000000000000000e+00 0.000000000000000000e+00 -1.015671493751241593e-05
0.000000000000000000e+00 -0.000000000000000000e+00 6.776263578034402713e-21
-0.000000000000000000e+00 -0.000000000000000000e+00 -1.021417855660890499e-05
-4.101059874514531020e-05 4.556733193905038137e-06 1.106287096274313663e-05
0.000000000000000000e+00 0.000000000000000000e+00 1.033057851239668481e-05
0.000000000000000000e+00 -0.000000000000000000e+00 1.021417855660887450e-05
0.000000000000000000e+00 -0.000000000000000000e+00 0.000000000000000000e+00
0.000000000000000000e+00 -0.000000000000000000e+00 1.021417855660889144e-05
6.406252090944375107e-05 -1.850695048495041607e-04 -1.033450649252170384e-05
0.000000000000000000e+00 0.000000000000000000e+00 -1.127068125985088719e-05
0.000000000000000000e+00 -0.000000000000000000e+00 1.075404326822094316e-05
0.000000000000000000e+00 0.000000000000000000e+00 -1.033057851239661874e-05
0.000000000000000000e+00 -0.000000000000000000e+00 1.021417855660891854e-05
0.000000000000000000e+00 0.000000000000000000e+00 1.027213122647638389e-05
-5.336307567702092136e-19 1.234974037096769894e-18 2.104876873926936343e-19
8.806008806008629592e-06 -1.320901320901304603e-05 -1.136069317887477068e-06
-0.000000000000000000e+00 0.000000000000000000e+00 -1.948175778684890780e-20
7.286527514231431525e-06 1.943074003795058232e-05 1.165065094521510098e-05
-0.000000000000000000e+00 0.000000000000000000e+00 2.083701050245578834e-19
-0.000000000000000000e+00 0.000000000000000000e+00 1.041850525122789417e-19
1.558713878713928399e-05 4.453468224896879715e-06 1.851642537356877871e-06
0.000000000000000000e+00 -0.000000000000000000e+00 1.021417855660887450e-05
0.000000000000000000e+00 -0.000000000000000000e+00 1.069197099802866393e-05
0.000000000000000000e+00 -0.000000000000000000e+00 1.050894491835049628e-05
0.000000000000000000e+00 0.000000000000000000e+00 -3.134021904840911255e-20
0.000000000000000000e+00 -0.000000000000000000e+00 1.004323297946626890e-05
0.000000000000000000e+00 -0.000000000000000000e+00 8.639736061993863458e-20
-0.000000000000000000e+00 0.000000000000000000e+00 -1.004323297946627398e-05
8.731311542505114856e-06 -1.309696731375768838e-05 1.089663011354060635e-05
-0.000000000000000000e+00 0.000000000000000000e+00 -2.117582368135750848e-20
0.000000000000000000e+00 -0.000000000000000000e+00 1.027213122647641946e-05
-9.061240219399276986e-06 1.359186032909882908e-05 -1.079353614369579310e-05
0.000000000000000000e+00 -0.000000000000000000e+00 1.027213122647641099e-05
-0.000000000000000000e+00 0.000000000000000000e+00 -1.021417855660887958e-05
0.000000000000000000e+00 -0.000000000000000000e+00 -3.811648262644351526e-20
-0.000000000000000000e+00 0.000000000000000000e+00 0.000000000000000000e+00
0.000000000000000000e+00 0.000000000000000000e+00 1.127068125985088719e-05
0.000000000000000000e+00 -0.000000000000000000e+00 0.000000000000000000e+00
-0.000000000000000000e+00 0.000000000000000000e+00 -1.075404326822106005e-05
0.000000000000000000e+00 -0.000000000000000000e+00 0.000000000000000000e+00
0.000000000000000000e+00 0.000000000000000000e+00 1.027213122647640930e-05
-0.000000000000000000e+00 0.000000000000000000e+00 0.000000000000000000e+00
-0.000000000000000000e+00 -0.000000000000000000e+00 -4.997494388800372001e-20
-8.806008806008629592e-06 1.320901320901304773e-05 1.149607967789788182e-05
-0.000000000000000000e+00 0.000000000000000000e+00 8.639736061993863458e-20
0.000000000000000000e+00 -0.000000000000000000e+00 1.100781727023335933e-05
0.000000000000000000e+00 -0.000000000000000000e+00 -1.948175778684890780e-20
-0.000000000000000000e+00 -0.000000000000000000e+00 2.625802136488331051e-20
0.000000000000000000e+00 0.000000000000000000e+00 -1.027213122647634662e-05
0.000000000000000000e+00 -0.000000000000000000e+00 6.945670167485262780e-20
0.000000000000000000e+00 -0.000000000000000000e+00 -1.948175778684890780e-20
0.000000000000000000e+00 0.000000000000000000e+00 -1.038952605904191033e-05
0.000000000000000000e+00 0.000000000000000000e+00 -1.015671493751240238e-05
0.000000000000000000e+00 -0.000000000000000000e+00 1.004323297946633158e-05
0.000000000000000000e+00 -0.000000000000000000e+00 3.134021904840911255e-20
0.000000000000000000e+00 0.000000000000000000e+00 -1.009973488195934512e-05
-6.511486574071404073e-06 -1.736396419752375323e-05 1.068417716832942329e-05
-0.000000000000000000e+00 0.000000000000000000e+00 -3.642241673193491458e-20
-0.000000000000000000e+00 0.000000000000000000e+00 -1.609362599783170644e-20
-0.000000000000000000e+00 0.000000000000000000e+00 -1.050894491835040141e-05
-0.000000000000000000e+00 0.000000000000000000e+00 1.270549420881450509e-20
-0.000000000000000000e+00 -0.000000000000000000e+00 -3.134021904840911255e-20
-6.456511741135297484e-06 -1.721736464302756951e-05 -9.230164735098969690e-06
8.881560562472552584e-06 -1.332234084370884497e-05 -2.552854974507665051e-07
0.000000000000000000e+00 -0.000000000000000000e+00 0.000000000000000000e+00
0.000000000000000000e+00 0.000000000000000000e+00 1.127068125985083467e-05
