0.000000000000000000e+00 -0.000000000000000000e+00 4.489274620447791797e-20
0.000000000000000000e+00 -0.000000000000000000e+00 -5.082197683525802034e-21
0.000000000000000000e+00 -0.000000000000000000e+00 1.021417855660904729e-05
0.000000000000000000e+00 0.000000000000000000e+00 1.044897959183665553e-05
0.000000000000000000e+00 0.000000000000000000e+00 -1.331945889698230929e-05
2.278987442527874498e-05 6.511392692936847444e-06 3.708360009614007011e-06
0.000000000000000000e+00 0.000000000000000000e+00 -1.314924391847477096e-05
0.000000000000000000e+00 -0.000000000000000000e+00 1.069197099802856906e-05
9.798800367455188151e-06 2.613013431321372100e-05 -1.236640046373994127e-05
0.000000000000000000e+00 0.000000000000000000e+00 -1.133786848072564923e-05
0.000000000000000000e+00 0.000000000000000000e+00 1.120408949266478747e-05
0.000000000000000000e+00 0.000000000000000000e+00 1.127068125985084823e-05
8.063753657860939228e-19 1.469602163486211088e-19 1.482307657695025593e-21
0.000000000000000000e+00 -0.000000000000000000e+00 -9.987203895009492814e-06
0.000000000000000000e+00 -0.000000000000000000e+00 9.931642367765610181e-06
3.740036523794201015e-04 3.155655816951363052e-04 5.364427386986206489e-04
2.233114439418132461e-05 2.233114439418209710e-05 1.071775513036256121e-05
-0.000000000000000000e+00 0.000000000000000000e+00 -8.470329472543003391e-22
0.000000000000000000e+00 -0.000000000000000000e+00 1.069197099802866562e-05
-0.000000000000000000e+00 -0.000000000000000000e+00 1.694065894508600678e-21
0.000000000000000000e+00 0.000000000000000000e+00 1.033057851239669667e-05
0.000000000000000000e+00 -0.000000000000000000e+00 5.505714157152952204e-20
0.000000000000000000e+00 -0.000000000000000000e+00 3.049318610115481221e-20
0.000000000000000000e+00 -0.000000000000000000e+00 4.743384504624081899e-20
-1.761575055343615385e-05 -5.033071586696054604e-06 -9.729707906901620705e-06
0.000000000000000000e+00 0.000000000000000000e+00 1.063043460206463778e-05
0.000000000000000000e+00 0.000000000000000000e+00 1.044897959183675887e-05
-0.000000000000000000e+00 0.000000000000000000e+00 -1.033057851239661705e-05
0.000000000000000000e+00 -0.000000000000000000e+00 -2.541098841762901017e-21
-0.000000000000000000e+00 0.000000000000000000e+00 1.024909866177703410e-19
0.000000000000000000e+00 0.000000000000000000e+00 -3.536362554786703916e-19
0.000000000000000000e+00 0.000000000000000000e+00 -1.044897959183686052e-05
-0.000000000000000000e+00 0.000000000000000000e+00 -1.331945889698231267e-05
0.000000000000000000e+00 0.000000000000000000e+00 1.331945889698242279e-05
0.000000000000000000e+00 0.000000000000000000e+00 -1.634773588200799654e-19
9.462913629367086986e-06 -1.419437044405061777e-05 1.341001129295330448e-06
2.083701050245578834e-19 5.454892180317694184e-19 2.032879073410320814e-20
0.000000000000000000e+00 -0.000000000000000000e+00 4.489274620447791797e-20
0.000000000000000000e+00 -0.000000000000000000e+00 6.013933925505532407e-20
1.989491346871580555e-05 -2.984237020307389129e-05 -9.515247718493573359e-06
0.000000000000000000e+00 0.000000000000000000e+00 1.027213122647642285e-05
0.000000000000000000e+00 0.000000000000000000e+00 9.931642367765615263e-06
0.000000000000000000e+00 0.000000000000000000e+00 9.876543209876526366e-06
2.195265651356002008e-06 -3.073371911898839542e-05 -1.010761350704695483e-05
0.000000000000000000e+00 0.000000000000000000e+00 1.027213122647641608e-05
-0.000000000000000000e+00 0.000000000000000000e+00 -1.016439536705160407e-20
0.000000000000000000e+00 0.000000000000000000e+00 -1.063043460206464286e-05
0.000000000000000000e+00 0.000000000000000000e+00 1.033057851239670514e-05
-0.000000000000000000e+00 0.000000000000000000e+00 -1.027213122647640422e-05
0.000000000000000000e+00 -0.000000000000000000e+00 -5.082197683525802034e-21
-0.000000000000000000e+00 0.000000000000000000e+00 2.541098841762901017e-20
0.000000000000000000e+00 0.000000000000000000e+00 1.033057851239667295e-05
0.000000000000000000e+00 0.000000000000000000e+00 1.140565827578523879e-05
-0.000000000000000000e+00 0.000000000000000000e+00 1.024909866177703410e-19
-0.000000000000000000e+00 0.000000000000000000e+00 5.082197683525802034e-20
0.000000000000000000e+00 -0.000000000000000000e+00 9.656175598699023865e-20
-0.000000000000000000e+00 0.000000000000000000e+00 -5.082197683525802034e-21
-0.000000000000000000e+00 0.000000000000000000e+00 -5.082197683525802034e-21
-0.000000000000000000e+00 -0.000000000000000000e+00 -3.540597719522975417e-19
0.000000000000000000e+00 0.000000000000000000e+00 1.323394092286095101e-05
0.000000000000000000e+00 0.000000000000000000e+00 -1.340580848545796510e-05
0.000000000000000000e+00 -0.000000000000000000e+00 -5.082197683525802034e-21
-9.219128883603170698e-06 1.382869332540475689e-05 9.262266518753317345e-06
0.000000000000000000e+00 -0.000000000000000000e+00 -1.323394092286052580e-05
1.820468031257099434e-05 5.201337232163135189e-06 2.093051479787462162e-06
1.756347829660102292e-05 5.018136656171555784e-06 1.784524532809592049e-06
0.000000000000000000e+00 -0.000000000000000000e+00 -5.082197683525802034e-21
6.795930164549423011e-06 1.812248043879848621e-05 1.095707457011545351e-05
0.000000000000000000e+00 -0.000000000000000000e+00 1.021417855660892532e-05
0.000000000000000000e+00 0.000000000000000000e+00 9.931642367765594934e-06
0.000000000000000000e+00 0.000000000000000000e+00 9.931642367765633898e-06
-8.881560562472544113e-06 1.332234084370877721e-05 -2.790329855856740556e-07
0.000000000000000000e+00 -0.000000000000000000e+00 1.009973488195935529e-05
7.159562589490915471e-06 1.909216690530910227e-05 1.077763031519603552e-05
0.000000000000000000e+00 0.000000000000000000e+00 -1.016439536705160407e-20
-0.000000000000000000e+00 -0.000000000000000000e+00 -4.701032857261366882e-20
0.000000000000000000e+00 -0.000000000000000000e+00 1.778769189234030712e-20
0.000000000000000000e+00 -0.000000000000000000e+00 -6.776263578034402713e-21
0.000000000000000000e+00 -0.000000000000000000e+00 5.505714157152952204e-20
0.000000000000000000e+00 0.000000000000000000e+00 1.027213122647645335e-05
0.000000000000000000e+00 -0.000000000000000000e+00 -5.082197683525802034e-21
-0.000000000000000000e+00 -0.000000000000000000e+00 -9.063252535621013628e-20
-0.000000000000000000e+00 0.000000000000000000e+00 -1.050894491835031332e-05
0.000000000000000000e+00 -0.000000000000000000e+00 4.997494388800372001e-20
-0.000000000000000000e+00 0.000000000000000000e+00 9.571472303973593831e-20
0.000000000000000000e+00 -0.000000000000000000e+00 1.021417855660897445e-05
0.000000000000000000e+00 0.000000000000000000e+00 -1.050894491835063011e-05
-0.000000000000000000e+00 0.000000000000000000e+00 1.194316455628563478e-19
-0.000000000000000000e+00 0.000000000000000000e+00 -1.349300050598760892e-05
0.000000000000000000e+00 0.000000000000000000e+00 1.323394092286072401e-05
-9.272573109015035394e-06 1.390885966352240147e-05 9.315960817412717538e-06
2.264284297737329061e-05 6.469383707821178675e-06 -1.054301970566004398e-05
1.777381747976561991e-05 5.078233565647330140e-06 1.975622951341412421e-06
0.000000000000000000e+00 0.000000000000000000e+00 1.120408949266478577e-05
-0.000000000000000000e+00 0.000000000000000000e+00 -1.120408949266497043e-05
6.718484299163556168e-06 1.791595813110283904e-05 1.086214841237354535e-05
0.000000000000000000e+00 -0.000000000000000000e+00 1.609362599783170644e-20
0.000000000000000000e+00 0.000000000000000000e+00 9.931642367765610181e-06
0.000000000000000000e+00 -0.000000000000000000e+00 1.015671493751241424e-05
-1.343696859832711911e-05 -3.583191626220563742e-05 -4.790363136659092446e-08
-0.000000000000000000e+00 0.000000000000000000e+00 2.541098841762901017e-21
0.000000000000000000e+00 0.000000000000000000e+00 7.199780051661552882e-21
0.000000000000000000e+00 0.000000000000000000e+00 -1.990527426047605797e-20
0.000000000000000000e+00 0.000000000000000000e+00 1.033057851239668312e-05
0.000000000000000000e+00 -0.000000000000000000e+00 4.997494388800372001e-20
0.000000000000000000e+00 -0.000000000000000000e+00 4.997494388800372001e-20
0.000000000000000000e+00 0.000000000000000000e+00 1.033057851239667465e-05
0.000000000000000000e+00 0.000000000000000000e+00 -1.133786848072564923e-05
-0.000000000000000000e+00 0.000000000000000000e+00 -1.133786848072564923e-05
0.000000000000000000e+00 0.000000000000000000e+00 -1.044897959183667078e-05
-0.000000000000000000e+00 0.000000000000000000e+00 -1.038952605904177142e-05
-0.000000000000000000e+00 0.000000000000000000e+00 -1.021417855660884062e-05
-0.000000000000000000e+00 0.000000000000000000e+00 0.000000000000000000e+00
0.000000000000000000e+00 0.000000000000000000e+00 1.021417855660894565e-05
1.545442001282427906e-05 4.415548575092438435e-06 7.532406392805251753e-06
0.000000000000000000e+00 0.000000000000000000e+00 1.331945889698230929e-05
0.000000000000000000e+00 0.000000000000000000e+00 -1.331945889698222628e-05
0.000000000000000000e+00 0.000000000000000000e+00 -1.306535740897593607e-05
-0.000000000000000000e+00 0.000000000000000000e+00 -1.069197099802856736e-05
9.397007059532979674e-06 2.505868549208791756e-05 9.966522638898515986e-07
0.000000000000000000e+00 -0.000000000000000000e+00 -5.082197683525802034e-21
0.000000000000000000e+00 -0.000000000000000000e+00 1.113808616353835807e-05
-6.854797484779327674e-06 -1.827945995941158451e-05 -1.105198631904304394e-05
0.000000000000000000e+00 -0.000000000000000000e+00 1.027213122647645335e-05
-0.000000000000000000e+00 0.000000000000000000e+00 2.541098841762901017e-20
-8.300411721886872963e-06 1.245061758283030860e-05 -4.272270739206462164e-07
-1.324664572527794550e-05 -3.532438860074122187e-05 -1.652879145756452022e-07
-0.000000000000000000e+00 -0.000000000000000000e+00 1.270549420881450509e-21
0.000000000000000000e+00 -0.000000000000000000e+00 -4.235164736271501695e-21
0.000000000000000000e+00 -0.000000000000000000e+00 -9.317362419797303730e-21
0.000000000000000000e+00 0.000000000000000000e+00 -1.033057851239668142e-05
0.000000000000000000e+00 0.000000000000000000e+00 -1.027213122647640422e-05
-0.000000000000000000e+00 0.000000000000000000e+00 4.997494388800372001e-20
-0.000000000000000000e+00 0.000000000000000000e+00 4.997494388800372001e-20
0.000000000000000000e+00 0.000000000000000000e+00 1.033057851239667126e-05
-0.000000000000000000e+00 -0.000000000000000000e+00 8.470329472543003391e-22
-2.231555937522768581e-05 -5.950815833394006182e-05 -6.452020910270852227e-05
0.000000000000000000e+00 0.000000000000000000e+00 -1.050894491835045223e-05
0.000000000000000000e+00 0.000000000000000000e+00 -1.027213122647649739e-05
-0.000000000000000000e+00 0.000000000000000000e+00 4.997494388800372001e-20
0.000000000000000000e+00 -0.000000000000000000e+00 1.007969207232617403e-19
0.000000000000000000e+00 -0.000000000000000000e+00 1.033057851239665940e-05
0.000000000000000000e+00 0.000000000000000000e+00 1.044897959183686052e-05
0.000000000000000000e+00 0.000000000000000000e+00 -1.340580848545776520e-05
0.000000000000000000e+00 0.000000000000000000e+00 -1.323394092286032590e-05
4.359133126934974366e-05 1.162435500515992035e-04 3.861834517088574511e-05
9.435405159514276144e-06 -1.415310773927145318e-05 1.337102870198522404e-06
3.010555715747649454e-04 1.273696648970159780e-04 5.992318580655682883e-05
0.000000000000000000e+00 0.000000000000000000e+00 1.133786848072555775e-05
0.000000000000000000e+00 -0.000000000000000000e+00 0.000000000000000000e+00
0.000000000000000000e+00 -0.000000000000000000e+00 1.050894491835048950e-05
0.000000000000000000e+00 -0.000000000000000000e+00 1.021417855660887450e-05
0.000000000000000000e+00 -0.000000000000000000e+00 9.987203895009509754e-06
0.000000000000000000e+00 0.000000000000000000e+00 9.931642367765630510e-06
-8.681982098761876614e-06 1.302297314814280815e-05 9.941333780200068483e-06
-1.493835938562216469e-05 -4.268102681606323694e-06 -1.027654134969652510e-05
-0.000000000000000000e+00 0.000000000000000000e+00 -1.021417855660888974e-05
0.000000000000000000e+00 0.000000000000000000e+00 1.063043460206463608e-05
0.000000000000000000e+00 -0.000000000000000000e+00 1.027213122647640930e-05
0.000000000000000000e+00 -0.000000000000000000e+00 1.021417855660889821e-05
-0.000000000000000000e+00 0.000000000000000000e+00 -5.082197683525802034e-21
0.000000000000000000e+00 -0.000000000000000000e+00 2.964615315390051187e-20
0.000000000000000000e+00 0.000000000000000000e+00 1.038952605904176295e-05
0.000000000000000000e+00 0.000000000000000000e+00 -1.133786848072564753e-05
0.000000000000000000e+00 -0.000000000000000000e+00 5.675120746603812272e-20
0.000000000000000000e+00 -0.000000000000000000e+00 0.000000000000000000e+00
-0.000000000000000000e+00 0.000000000000000000e+00 -1.027213122647627547e-05
0.000000000000000000e+00 -0.000000000000000000e+00 -5.082197683525802034e-21
0.000000000000000000e+00 0.000000000000000000e+00 1.015671493751243626e-05
1.545442001282428245e-05 4.415548575092438435e-06 -1.309906723012129216e-05
0.000000000000000000e+00 -0.000000000000000000e+00 1.314924391847470490e-05
-0.000000000000000000e+00 0.000000000000000000e+00 -1.340580848545796849e-05
0.000000000000000000e+00 0.000000000000000000e+00 1.323394092286052580e-05
0.000000000000000000e+00 -0.000000000000000000e+00 5.590417451878382238e-20
2.242465813009577078e-05 6.407045180027496186e-06 -1.044142790702334953e-05
0.000000000000000000e+00 0.000000000000000000e+00 1.694065894508600678e-21
0.000000000000000000e+00 0.000000000000000000e+00 0.000000000000000000e+00
0.000000000000000000e+00 0.000000000000000000e+00 1.120408949266478747e-05
6.680202337345412747e-06 1.781387289958778991e-05 1.080025582882727423e-05
-0.000000000000000000e+00 0.000000000000000000e+00 -1.021417855660892362e-05
0.000000000000000000e+00 -0.000000000000000000e+00 9.987203895009557188e-06
4.252105395216587702e-19 1.168905467210934468e-19 1.736417541871315695e-20
1.776312112494508145e-05 -2.664468168741762218e-05 5.580659711713794515e-07
-0.000000000000000000e+00 0.000000000000000000e+00 -1.009973488195935529e-05
7.159562589490915471e-06 1.909216690530910227e-05 1.077763031519603382e-05
0.000000000000000000e+00 0.000000000000000000e+00 1.270549420881450509e-20
0.000000000000000000e+00 0.000000000000000000e+00 1.021417855660889144e-05
-0.000000000000000000e+00 0.000000000000000000e+00 4.573977915173221831e-20
-0.000000000000000000e+00 0.000000000000000000e+00 -5.082197683525802034e-21
0.000000000000000000e+00 0.000000000000000000e+00 1.033057851239665262e-05
-0.000000000000000000e+00 -0.000000000000000000e+00 -1.033057851239667804e-05
0.000000000000000000e+00 -0.000000000000000000e+00 5.759824041329242306e-20
0.000000000000000000e+00 0.000000000000000000e+00 -1.050894491835045562e-05
-0.000000000000000000e+00 0.000000000000000000e+00 -1.694065894508600678e-21
-0.000000000000000000e+00 0.000000000000000000e+00 4.997494388800372001e-20
0.000000000000000000e+00 -0.000000000000000000e+00 9.063252535621013628e-20
0.000000000000000000e+00 0.000000000000000000e+00 1.021417855660887450e-05
0.000000000000000000e+00 -0.000000000000000000e+00 -1.044897959183675718e-05
-0.000000000000000000e+00 0.000000000000000000e+00 -1.101142831430590441e-20
2.264284297737330077e-05 6.469383707821005033e-06 3.684435106325808164e-06
-0.000000000000000000e+00 -0.000000000000000000e+00 -1.314924391847477096e-05
0.000000000000000000e+00 0.000000000000000000e+00 1.069197099802856906e-05
9.337153511382773096e-06 2.489907603035403674e-05 1.401405215077454351e-05
0.000000000000000000e+00 -0.000000000000000000e+00 1.133786848072563737e-05
0.000000000000000000e+00 -0.000000000000000000e+00 1.113808616353839534e-05
0.000000000000000000e+00 0.000000000000000000e+00 0.000000000000000000e+00
-6.567087303631352506e-06 -1.751223280968356377e-05 -1.064664153770513721e-05
-0.000000000000000000e+00 0.000000000000000000e+00 -1.009973488195932141e-05
0.000000000000000000e+00 -0.000000000000000000e+00 9.987203895009552106e-06
0.000000000000000000e+00 -0.000000000000000000e+00 2.456395547037470983e-20
-6.623322862638976984e-06 -1.766219430037059400e-05 -1.035410722020408924e-05
0.000000000000000000e+00 -0.000000000000000000e+00 8.470329472543003391e-22
0.000000000000000000e+00 0.000000000000000000e+00 -1.069197099802867578e-05
0.000000000000000000e+00 -0.000000000000000000e+00 1.038952605904172399e-05
0.000000000000000000e+00 -0.000000000000000000e+00 1.027213122647640083e-05
-0.000000000000000000e+00 0.000000000000000000e+00 2.541098841762901017e-20
-0.000000000000000000e+00 0.000000000000000000e+00 4.997494388800372001e-20
0.000000000000000000e+00 -0.000000000000000000e+00 1.038952605904171721e-05
0.000000000000000000e+00 0.000000000000000000e+00 -1.140565827578527944e-05
6.259650007938528590e-05 -3.370580773505357639e-05 -2.820833641997775709e-05
0.000000000000000000e+00 0.000000000000000000e+00 1.044897959183671991e-05
0.000000000000000000e+00 0.000000000000000000e+00 -1.033057851239661705e-05
0.000000000000000000e+00 0.000000000000000000e+00 -1.015671493751238375e-05
0.000000000000000000e+00 -0.000000000000000000e+00 0.000000000000000000e+00
-0.000000000000000000e+00 -0.000000000000000000e+00 -3.553303213731789922e-19
0.000000000000000000e+00 0.000000000000000000e+00 -1.033057851239686946e-05
-1.269101001320510471e-05 1.903651501980731063e-05 1.084165160218958575e-05
-0.000000000000000000e+00 0.000000000000000000e+00 0.000000000000000000e+00
1.087752783458330238e-04 1.506119238634608158e-04 5.121073881810174217e-05
0.000000000000000000e+00 0.000000000000000000e+00 1.063043460206457848e-05
-9.160615019566309677e-06 -2.442830671884357492e-05 -1.378990977544328906e-05
0.000000000000000000e+00 -0.000000000000000000e+00 5.759824041329242306e-20
-0.000000000000000000e+00 0.000000000000000000e+00 1.143494478793305458e-19
0.000000000000000000e+00 -0.000000000000000000e+00 1.050894491835045223e-05
0.000000000000000000e+00 0.000000000000000000e+00 1.027213122647642285e-05
0.000000000000000000e+00 -0.000000000000000000e+00 2.964615315390051187e-20
-6.242697922117435449e-06 -1.664719445897976349e-05 9.825850740159754491e-06
-8.608682321513735626e-06 1.291302348227056109e-05 9.857401615476624049e-06
-6.438324384118019838e-06 -1.716886502431470602e-05 -1.012228539535134261e-05
-0.000000000000000000e+00 0.000000000000000000e+00 -4.235164736271501695e-21
-0.000000000000000000e+00 0.000000000000000000e+00 -1.069197099802865376e-05
-0.000000000000000000e+00 0.000000000000000000e+00 -1.033057851239668142e-05
0.000000000000000000e+00 0.000000000000000000e+00 1.027213122647640422e-05
0.000000000000000000e+00 0.000000000000000000e+00 1.027213122647644826e-05
-0.000000000000000000e+00 0.000000000000000000e+00 -1.027213122647647198e-05
0.000000000000000000e+00 -0.000000000000000000e+00 1.038952605904171721e-05
0.000000000000000000e+00 -0.000000000000000000e+00 1.133786848072564584e-05
-2.527954216930380948e-05 9.192560788837909067e-06 -8.006622130919146098e-06
-0.000000000000000000e+00 0.000000000000000000e+00 -1.050894491835040141e-05
0.000000000000000000e+00 -0.000000000000000000e+00 4.997494388800372001e-20
0.000000000000000000e+00 -0.000000000000000000e+00 5.505714157152952204e-20
0.000000000000000000e+00 0.000000000000000000e+00 1.015671493751233462e-05
0.000000000000000000e+00 0.000000000000000000e+00 1.033057851239686099e-05
2.199662656777433967e-05 6.284750447935431720e-06 -9.149857269788431134e-06
0.000000000000000000e+00 0.000000000000000000e+00 1.340580848545776520e-05
-0.000000000000000000e+00 0.000000000000000000e+00 1.143494478793305458e-19
0.000000000000000000e+00 -0.000000000000000000e+00 1.063043460206454630e-05
9.380707158589176374e-06 -1.407106073788380437e-05 -9.455953472695857433e-06
0.000000000000000000e+00 0.000000000000000000e+00 1.694065894508600678e-21
-0.000000000000000000e+00 -0.000000000000000000e+00 -9.063252535621013628e-20
0.000000000000000000e+00 0.000000000000000000e+00 1.120408949266478916e-05
-0.000000000000000000e+00 0.000000000000000000e+00 -1.050894491835048950e-05
0.000000000000000000e+00 0.000000000000000000e+00 1.021417855660887958e-05
0.000000000000000000e+00 -0.000000000000000000e+00 0.000000000000000000e+00
-3.740036523794201015e-04 -3.155655816951363052e-04 -5.364427386986207573e-04
-0.000000000000000000e+00 0.000000000000000000e+00 -1.027213122647641608e-05
0.000000000000000000e+00 -0.000000000000000000e+00 1.009973488195935529e-05
-2.380800599540420538e-05 8.657456725601527382e-06 1.022575269661637733e-05
-0.000000000000000000e+00 -0.000000000000000000e+00 -1.101142831430590441e-20
-0.000000000000000000e+00 0.000000000000000000e+00 1.185846126156020475e-20
-0.000000000000000000e+00 0.000000000000000000e+00 -4.235164736271501695e-21
-0.000000000000000000e+00 0.000000000000000000e+00 2.456395547037470983e-20
-0.000000000000000000e+00 0.000000000000000000e+00 2.964615315390051187e-20
-6.604506604506480665e-06 -1.761201761201725918e-05 -9.677191495373314132e-06
-0.000000000000000000e+00 0.000000000000000000e+00 -1.016439536705160407e-20
-0.000000000000000000e+00 0.000000000000000000e+00 -1.063043460206458357e-05
0.000000000000000000e+00 -0.000000000000000000e+00 0.000000000000000000e+00
0.000000000000000000e+00 0.000000000000000000e+00 -1.021417855660892532e-05
0.000000000000000000e+00 -0.000000000000000000e+00 0.000000000000000000e+00
0.000000000000000000e+00 -0.000000000000000000e+00 1.021417855660887450e-05
0.000000000000000000e+00 -0.000000000000000000e+00 1.050894491835052847e-05
0.000000000000000000e+00 -0.000000000000000000e+00 1.194316455628563478e-19
0.000000000000000000e+00 -0.000000000000000000e+00 -1.349300050598760892e-05
9.427125671903284799e-06 2.513900179174206569e-05 1.435914240043006652e-05
0.000000000000000000e+00 0.000000000000000000e+00 1.069197099802868256e-05
-3.467727256803028018e-05 1.260991729746474975e-05 -3.079146249173879174e-05
0.000000000000000000e+00 -0.000000000000000000e+00 1.133786848072555605e-05
0.000000000000000000e+00 -0.000000000000000000e+00 1.113808616353848343e-05
0.000000000000000000e+00 0.000000000000000000e+00 -1.063043460206468013e-05
0.000000000000000000e+00 0.000000000000000000e+00 -1.033057851239666448e-05
0.000000000000000000e+00 -0.000000000000000000e+00 1.015671493751241932e-05
0.000000000000000000e+00 -0.000000000000000000e+00 4.997494388800372001e-20
0.000000000000000000e+00 0.000000000000000000e+00 1.015671493751241255e-05
6.623322862638976984e-06 1.766219430037059400e-05 1.035410722020408924e-05
0.000000000000000000e+00 0.000000000000000000e+00 -1.015671493751239222e-05
0.000000000000000000e+00 0.000000000000000000e+00 -1.075404326822096518e-05
-0.000000000000000000e+00 -0.000000000000000000e+00 -1.905824131322175763e-20
-0.000000000000000000e+00 0.000000000000000000e+00 -1.021417855660889313e-05
0.000000000000000000e+00 0.000000000000000000e+00 1.027213122647647198e-05
0.000000000000000000e+00 0.000000000000000000e+00 1.027213122647642794e-05
0.000000000000000000e+00 0.000000000000000000e+00 -1.038952605904170535e-05
0.000000000000000000e+00 -0.000000000000000000e+00 1.133786848072564753e-05
-0.000000000000000000e+00 0.000000000000000000e+00 -1.133786848072555944e-05
-0.000000000000000000e+00 0.000000000000000000e+00 -1.016439536705160407e-20
0.000000000000000000e+00 0.000000000000000000e+00 -1.038952605904168502e-05
0.000000000000000000e+00 -0.000000000000000000e+00 4.489274620447791797e-20
0.000000000000000000e+00 -0.000000000000000000e+00 1.092672501958047437e-19
0.000000000000000000e+00 -0.000000000000000000e+00 1.027213122647649570e-05
0.000000000000000000e+00 0.000000000000000000e+00 1.050894491835027266e-05
0.000000000000000000e+00 -0.000000000000000000e+00 -5.929230630780102373e-21
0.000000000000000000e+00 -0.000000000000000000e+00 1.331945889698242448e-05
-0.000000000000000000e+00 -0.000000000000000000e+00 -1.306535740897593438e-05
0.000000000000000000e+00 0.000000000000000000e+00 -1.063043460206457679e-05
9.160615019566309677e-06 2.442830671884357492e-05 1.378990977544326873e-05
-0.000000000000000000e+00 0.000000000000000000e+00 -1.016439536705160407e-20
-0.000000000000000000e+00 0.000000000000000000e+00 -5.082197683525802034e-21
-6.795930164549423011e-06 -1.812248043879834730e-05 -1.095707457011531968e-05
-0.000000000000000000e+00 -0.000000000000000000e+00 -1.027213122647645504e-05
-8.393674043174127701e-06 1.259051106476110092e-05 -1.058747521354904891e-05
0.000000000000000000e+00 0.000000000000000000e+00 9.987203895009508060e-06
-0.000000000000000000e+00 0.000000000000000000e+00 7.623296525288703052e-21
1.519346867283329000e-05 4.340991049380946777e-06 2.089247029113975555e-07
-0.000000000000000000e+00 0.000000000000000000e+00 -5.082197683525802034e-21
0.000000000000000000e+00 -0.000000000000000000e+00 -5.082197683525802034e-21
-0.000000000000000000e+00 0.000000000000000000e+00 -1.038952605904173754e-05
0.000000000000000000e+00 0.000000000000000000e+00 1.027213122647641099e-05
0.000000000000000000e+00 0.000000000000000000e+00 1.027213122647640930e-05
0.000000000000000000e+00 -0.000000000000000000e+00 4.573977915173221831e-20
0.000000000000000000e+00 0.000000000000000000e+00 1.038952605904171721e-05
0.000000000000000000e+00 0.000000000000000000e+00 1.140565827578527944e-05
5.296626929794138951e-05 -1.926046156288792154e-05 -2.731998625430977822e-05
0.000000000000000000e+00 -0.000000000000000000e+00 1.050894491835048781e-05
-0.000000000000000000e+00 0.000000000000000000e+00 -1.033057851239662721e-05
-0.000000000000000000e+00 0.000000000000000000e+00 -5.082197683525802034e-21
0.000000000000000000e+00 0.000000000000000000e+00 1.015671493751243457e-05
-0.000000000000000000e+00 -0.000000000000000000e+00 -1.749123036080130200e-19
-2.245911656835966776e-06 3.144276319570346795e-05 -2.079570071557007430e-05
-0.000000000000000000e+00 0.000000000000000000e+00 -1.323394092286021410e-05
-0.000000000000000000e+00 0.000000000000000000e+00 -1.331945889698211277e-05
0.000000000000000000e+00 -0.000000000000000000e+00 1.063043460206463439e-05
0.000000000000000000e+00 0.000000000000000000e+00 -1.069197099802866562e-05
1.935835200957551931e-04 1.129237200558577832e-04 2.214909482379088970e-05
-0.000000000000000000e+00 0.000000000000000000e+00 -1.133786848072550184e-05
-0.000000000000000000e+00 0.000000000000000000e+00 -1.113808616353848513e-05
0.000000000000000000e+00 0.000000000000000000e+00 1.050894491835040141e-05
0.000000000000000000e+00 0.000000000000000000e+00 1.021417855660887450e-05
-0.000000000000000000e+00 0.000000000000000000e+00 0.000000000000000000e+00
-6.295255532380591117e-06 -1.678734808634822152e-05 9.908575107115927366e-06
-0.000000000000000000e+00 0.000000000000000000e+00 1.270549420881450509e-20
-0.000000000000000000e+00 -0.000000000000000000e+00 -1.015671493751239561e-05
0.000000000000000000e+00 -0.000000000000000000e+00 8.470329472543003391e-22
-0.000000000000000000e+00 0.000000000000000000e+00 1.063043460206461914e-05
0.000000000000000000e+00 -0.000000000000000000e+00 1.027213122647640930e-05
0.000000000000000000e+00 -0.000000000000000000e+00 1.021417855660888127e-05
0.000000000000000000e+00 -0.000000000000000000e+00 1.021417855660888127e-05
0.000000000000000000e+00 0.000000000000000000e+00 -1.033057851239664585e-05
0.000000000000000000e+00 0.000000000000000000e+00 1.038952605904176295e-05
0.000000000000000000e+00 -0.000000000000000000e+00 -5.082197683525802034e-21
0.000000000000000000e+00 0.000000000000000000e+00 -1.063043460206458695e-05
2.463444243026639521e-05 -8.957979065551283993e-06 7.562785802000123447e-06
-0.000000000000000000e+00 0.000000000000000000e+00 5.505714157152952204e-20
0.000000000000000000e+00 -0.000000000000000000e+00 4.489274620447791797e-20
0.000000000000000000e+00 -0.000000000000000000e+00 1.021417855660897445e-05
0.000000000000000000e+00 -0.000000000000000000e+00 1.050894491835056235e-05
0.000000000000000000e+00 0.000000000000000000e+00 -1.314924391847450330e-05
0.000000000000000000e+00 0.000000000000000000e+00 1.331945889698223475e-05
0.000000000000000000e+00 0.000000000000000000e+00 1.323394092286063592e-05
-0.000000000000000000e+00 0.000000000000000000e+00 -1.063043460206454460e-05
1.338968723584084040e-04 1.091011552550025503e-04 -2.974027480814817937e-04
1.793378119977708689e-05 5.123937485650643810e-06 2.027654406086424118e-06
-0.000000000000000000e+00 -0.000000000000000000e+00 -9.359714067160018747e-20
-6.914346662702378447e-06 -1.843825776720648031e-05 -1.111718483022700597e-05
-6.623322862638968513e-06 -1.766219430037056011e-05 -1.070829560858047399e-05
0.000000000000000000e+00 0.000000000000000000e+00 -1.015671493751237697e-05
0.000000000000000000e+00 0.000000000000000000e+00 9.987203895009513142e-06
0.000000000000000000e+00 -0.000000000000000000e+00 1.009973488195935021e-05
2.401110674188910524e-05 -8.731311542505113162e-06 -9.670978092199645633e-06
0.000000000000000000e+00 -0.000000000000000000e+00 7.623296525288703052e-21
-8.756116404841781883e-06 1.313417460726268977e-05 -7.023622784633498943e-08
-0.000000000000000000e+00 -0.000000000000000000e+00 1.270549420881450509e-20
-0.000000000000000000e+00 0.000000000000000000e+00 -1.027213122647642624e-05
0.000000000000000000e+00 -0.000000000000000000e+00 0.000000000000000000e+00
0.000000000000000000e+00 0.000000000000000000e+00 1.027213122647644826e-05
0.000000000000000000e+00 0.000000000000000000e+00 1.033057851239671530e-05
0.000000000000000000e+00 0.000000000000000000e+00 -1.133786848072556113e-05
0.000000000000000000e+00 -0.000000000000000000e+00 5.759824041329242306e-20
-1.585717038394865002e-05 -4.530620109699586824e-06 -8.728106387803309852e-06
-0.000000000000000000e+00 0.000000000000000000e+00 -1.050894491835040649e-05
0.000000000000000000e+00 -0.000000000000000000e+00 4.997494388800372001e-20
-0.000000000000000000e+00 0.000000000000000000e+00 -9.317362419797303730e-21
0.000000000000000000e+00 0.000000000000000000e+00 1.021417855660897445e-05
0.000000000000000000e+00 -0.000000000000000000e+00 1.990527426047605797e-19
-0.000000000000000000e+00 0.000000000000000000e+00 -1.314924391847438811e-05
0.000000000000000000e+00 -0.000000000000000000e+00 1.331945889698234147e-05
0.000000000000000000e+00 0.000000000000000000e+00 -1.306535740897611226e-05
-2.271838325900572211e-06 3.180573656261647281e-05 9.974220671469930769e-06
-9.248322640346761736e-06 -2.466219370759131042e-05 -1.388072667232060972e-05
-0.000000000000000000e+00 0.000000000000000000e+00 4.235164736271501695e-20
0.000000000000000000e+00 -0.000000000000000000e+00 1.050320854595332420e-19
-6.835099790857549158e-06 -1.822693277562001702e-05 -1.102022773766642699e-05
0.000000000000000000e+00 0.000000000000000000e+00 -1.027213122647645504e-05
-0.000000000000000000e+00 0.000000000000000000e+00 -1.015671493751241932e-05
0.000000000000000000e+00 0.000000000000000000e+00 9.987203895009465708e-06
0.000000000000000000e+00 -0.000000000000000000e+00 1.009973488195935698e-05
-6.081696561285876435e-19 -1.558540622947912624e-19 2.541098841762901017e-21
-0.000000000000000000e+00 0.000000000000000000e+00 3.388131789017201356e-21
-0.000000000000000000e+00 0.000000000000000000e+00 -1.075404326822097196e-05
0.000000000000000000e+00 0.000000000000000000e+00 -1.038952605904170196e-05
0.000000000000000000e+00 0.000000000000000000e+00 1.027213122647640252e-05
0.000000000000000000e+00 -0.000000000000000000e+00 1.021417855660887788e-05
0.000000000000000000e+00 0.000000000000000000e+00 1.021417855660889821e-05
8.881560562472535643e-06 -1.332234084370884328e-05 9.837396959904032035e-06
-0.000000000000000000e+00 0.000000000000000000e+00 -1.016439536705160407e-20
2.098458769002427071e-05 -6.062214221562327364e-05 6.291635738791437977e-05
0.000000000000000000e+00 -0.000000000000000000e+00 -5.082197683525802034e-21
-0.000000000000000000e+00 0.000000000000000000e+00 -1.038952605904162912e-05
-0.000000000000000000e+00 0.000000000000000000e+00 4.065758146820641628e-20
0.000000000000000000e+00 0.000000000000000000e+00 1.015671493751226008e-05
0.000000000000000000e+00 0.000000000000000000e+00 1.027213122647649062e-05
0.000000000000000000e+00 -0.000000000000000000e+00 1.033057851239665432e-05
0.000000000000000000e+00 -0.000000000000000000e+00 1.194316455628563478e-19
0.000000000000000000e+00 -0.000000000000000000e+00 1.253608761936364502e-19
1.636865423034980922e-05 4.676758351528597751e-06 -8.371897637295299457e-06
0.000000000000000000e+00 0.000000000000000000e+00 1.063043460206457679e-05
-9.074012950888994572e-06 -2.419736786903748375e-05 -1.365954355976084181e-05
0.000000000000000000e+00 -0.000000000000000000e+00 0.000000000000000000e+00
0.000000000000000000e+00 0.000000000000000000e+00 1.113808616353839534e-05
-0.000000000000000000e+00 -0.000000000000000000e+00 -1.050894491835036245e-05
0.000000000000000000e+00 -0.000000000000000000e+00 1.015671493751236511e-05
-0.000000000000000000e+00 0.000000000000000000e+00 -1.004323297946619267e-05
-0.000000000000000000e+00 0.000000000000000000e+00 2.008646595893256491e-05
0.000000000000000000e+00 -0.000000000000000000e+00 -5.082197683525802034e-21
0.000000000000000000e+00 0.000000000000000000e+00 -1.015671493751239222e-05
0.000000000000000000e+00 -0.000000000000000000e+00 -5.082197683525802034e-21
0.000000000000000000e+00 -0.000000000000000000e+00 2.286988957586610915e-20
-0.000000000000000000e+00 -0.000000000000000000e+00 3.388131789017201356e-21
0.000000000000000000e+00 0.000000000000000000e+00 -1.021417855660887958e-05
0.000000000000000000e+00 -0.000000000000000000e+00 1.021417855660888127e-05
0.000000000000000000e+00 0.000000000000000000e+00 1.027213122647638389e-05
8.881560562472537337e-06 -1.332234084370884666e-05 9.807712599735361598e-06
0.000000000000000000e+00 -0.000000000000000000e+00 1.133786848072559840e-05
0.000000000000000000e+00 -0.000000000000000000e+00 1.063043460206459034e-05
0.000000000000000000e+00 0.000000000000000000e+00 1.050894491835048781e-05
0.000000000000000000e+00 0.000000000000000000e+00 -1.027213122647635848e-05
0.000000000000000000e+00 0.000000000000000000e+00 1.015671493751243965e-05
0.000000000000000000e+00 -0.000000000000000000e+00 1.021417855660879826e-05
-8.267041565201971309e-19 3.855588096783168356e-19 -2.691447189900539327e-19
0.000000000000000000e+00 -0.000000000000000000e+00 1.298227108604794940e-05
0.000000000000000000e+00 0.000000000000000000e+00 -1.331945889698223475e-05
-0.000000000000000000e+00 -0.000000000000000000e+00 -2.037114238146592315e-19
0.000000000000000000e+00 0.000000000000000000e+00 1.063043460206463439e-05
-9.299450132519410361e-06 1.394917519877909860e-05 -1.348917566013854385e-06
1.809567025082000973e-05 5.170191500234286075e-06 2.080518237393817601e-06
-0.000000000000000000e+00 -0.000000000000000000e+00 -9.232659125071873696e-20
6.914346662702378447e-06 1.843825776720648031e-05 1.111718483022703138e-05
-0.000000000000000000e+00 -0.000000000000000000e+00 6.776263578034402713e-21
-0.000000000000000000e+00 -0.000000000000000000e+00 0.000000000000000000e+00
0.000000000000000000e+00 0.000000000000000000e+00 9.987203895009514836e-06
0.000000000000000000e+00 -0.000000000000000000e+00 1.009973488195934512e-05
-0.000000000000000000e+00 0.000000000000000000e+00 -1.021417855660888127e-05
0.000000000000000000e+00 0.000000000000000000e+00 -1.009973488195935529e-05
-0.000000000000000000e+00 0.000000000000000000e+00 2.541098841762901017e-21
-0.000000000000000000e+00 0.000000000000000000e+00 1.056942792971330843e-05
0.000000000000000000e+00 0.000000000000000000e+00 1.027213122647640252e-05
-0.000000000000000000e+00 0.000000000000000000e+00 0.000000000000000000e+00
-0.000000000000000000e+00 0.000000000000000000e+00 0.000000000000000000e+00
0.000000000000000000e+00 0.000000000000000000e+00 1.033057851239664077e-05
-4.466228878836031310e-06 -4.912851766719994006e-05 1.124916471621339653e-05
-0.000000000000000000e+00 0.000000000000000000e+00 -5.082197683525802034e-21
0.000000000000000000e+00 0.000000000000000000e+00 1.063043460206458357e-05
0.000000000000000000e+00 0.000000000000000000e+00 -1.050894491835040310e-05
-0.000000000000000000e+00 0.000000000000000000e+00 -4.235164736271501695e-21
-0.000000000000000000e+00 0.000000000000000000e+00 4.065758146820641628e-20
0.000000000000000000e+00 0.000000000000000000e+00 1.021417855660887450e-05
0.000000000000000000e+00 0.000000000000000000e+00 1.050894491835035059e-05
-0.000000000000000000e+00 0.000000000000000000e+00 2.168404344971008868e-19
0.000000000000000000e+00 0.000000000000000000e+00 1.340580848545745011e-05
0.000000000000000000e+00 -0.000000000000000000e+00 1.306535740897650020e-05
0.000000000000000000e+00 -0.000000000000000000e+00 1.044897959183676057e-05
9.248322640346761736e-06 2.466219370759131042e-05 1.388072667232060972e-05
0.000000000000000000e+00 -0.000000000000000000e+00 1.133786848072555944e-05
0.000000000000000000e+00 0.000000000000000000e+00 -1.113808616353839195e-05
-0.000000000000000000e+00 -0.000000000000000000e+00 -1.063043460206468013e-05
0.000000000000000000e+00 0.000000000000000000e+00 -8.978549240895583594e-20
0.000000000000000000e+00 0.000000000000000000e+00 1.015671493751237697e-05
2.608861477543245044e-19 -3.574479037413147431e-19 2.541098841762901017e-21
0.000000000000000000e+00 -0.000000000000000000e+00 -5.082197683525802034e-21
0.000000000000000000e+00 -0.000000000000000000e+00 1.027213122647642794e-05
0.000000000000000000e+00 -0.000000000000000000e+00 1.694065894508600678e-21
-0.000000000000000000e+00 0.000000000000000000e+00 -1.033057851239670006e-05
-0.000000000000000000e+00 -0.000000000000000000e+00 0.000000000000000000e+00
0.000000000000000000e+00 -0.000000000000000000e+00 1.021417855660886772e-05
-0.000000000000000000e+00 0.000000000000000000e+00 3.472835083742631390e-20
0.000000000000000000e+00 -0.000000000000000000e+00 1.021417855660889313e-05
-0.000000000000000000e+00 -0.000000000000000000e+00 -1.038952605904175109e-05
-0.000000000000000000e+00 0.000000000000000000e+00 5.759824041329242306e-20
-0.000000000000000000e+00 0.000000000000000000e+00 -1.133786848072556113e-05
0.000000000000000000e+00 0.000000000000000000e+00 -1.050894491835040310e-05
0.000000000000000000e+00 0.000000000000000000e+00 -1.044897959183681139e-05
-0.000000000000000000e+00 0.000000000000000000e+00 5.929230630780102373e-20
0.000000000000000000e+00 0.000000000000000000e+00 1.015671493751244643e-05
0.000000000000000000e+00 0.000000000000000000e+00 -1.761828530288944705e-19
0.000000000000000000e+00 0.000000000000000000e+00 1.050894491835027266e-05
0.000000000000000000e+00 -0.000000000000000000e+00 1.306535740897622576e-05
0.000000000000000000e+00 0.000000000000000000e+00 1.331945889698222628e-05
-7.659458724330291395e-05 -1.244662042703666507e-04 -2.122223022215836849e-05
0.000000000000000000e+00 -0.000000000000000000e+00 1.050894491835039802e-05
-9.131625731529712604e-06 -2.435100195074606743e-05 -1.374627082045774468e-05
-0.000000000000000000e+00 0.000000000000000000e+00 0.000000000000000000e+00
0.000000000000000000e+00 0.000000000000000000e+00 1.113808616353836146e-05
6.737734970507875342e-06 1.796729325468759869e-05 1.086324648988336388e-05
1.515054926980266445e-05 4.328728362800742515e-06 1.018524320658982307e-06
0.000000000000000000e+00 -0.000000000000000000e+00 1.009973488195937223e-05
0.000000000000000000e+00 -0.000000000000000000e+00 1.009973488195937223e-05
-0.000000000000000000e+00 0.000000000000000000e+00 -1.009973488195937562e-05
-1.778769189234030712e-19 -3.557538378468061424e-20 7.623296525288703052e-21
0.000000000000000000e+00 -0.000000000000000000e+00 -3.388131789017201356e-21
0.000000000000000000e+00 0.000000000000000000e+00 -1.069197099802866731e-05
-0.000000000000000000e+00 0.000000000000000000e+00 -1.038952605904169688e-05
0.000000000000000000e+00 0.000000000000000000e+00 1.021417855660888297e-05
0.000000000000000000e+00 -0.000000000000000000e+00 -1.439956010332310576e-20
0.000000000000000000e+00 0.000000000000000000e+00 1.027213122647638389e-05
0.000000000000000000e+00 -0.000000000000000000e+00 1.133786848072566278e-05
0.000000000000000000e+00 -0.000000000000000000e+00 0.000000000000000000e+00
0.000000000000000000e+00 0.000000000000000000e+00 -1.063043460206459034e-05
0.000000000000000000e+00 0.000000000000000000e+00 1.050894491835040141e-05
0.000000000000000000e+00 0.000000000000000000e+00 -1.033057851239653743e-05
0.000000000000000000e+00 -0.000000000000000000e+00 3.642241673193491458e-20
0.000000000000000000e+00 -0.000000000000000000e+00 1.021417855660886094e-05
-0.000000000000000000e+00 -0.000000000000000000e+00 -1.033057851239659164e-05
-0.000000000000000000e+00 0.000000000000000000e+00 -1.033057851239665432e-05
-0.000000000000000000e+00 0.000000000000000000e+00 -1.314924391847450161e-05
0.000000000000000000e+00 0.000000000000000000e+00 1.331945889698211277e-05
0.000000000000000000e+00 0.000000000000000000e+00 -1.774534024497759210e-19
0.000000000000000000e+00 0.000000000000000000e+00 -1.069197099802866731e-05
-2.600668616081569458e-05 -2.600668616081567764e-05 -1.439407496066556522e-05
0.000000000000000000e+00 0.000000000000000000e+00 1.133786848072559332e-05
-6.954429831761271040e-06 -1.854514621803019276e-05 -4.586700602052341472e-07
-0.000000000000000000e+00 -0.000000000000000000e+00 -2.456395547037470983e-20
-0.000000000000000000e+00 0.000000000000000000e+00 -1.015671493751236511e-05
0.000000000000000000e+00 -0.000000000000000000e+00 1.009973488195933496e-05
0.000000000000000000e+00 -0.000000000000000000e+00 1.009973488195932310e-05
-0.000000000000000000e+00 0.000000000000000000e+00 -1.015671493751240916e-05
0.000000000000000000e+00 -0.000000000000000000e+00 1.009973488195933665e-05
0.000000000000000000e+00 -0.000000000000000000e+00 0.000000000000000000e+00
-0.000000000000000000e+00 0.000000000000000000e+00 -1.069197099802865037e-05
0.000000000000000000e+00 0.000000000000000000e+00 -1.027213122647641438e-05
-0.000000000000000000e+00 0.000000000000000000e+00 0.000000000000000000e+00
0.000000000000000000e+00 0.000000000000000000e+00 1.021417855660888127e-05
-0.000000000000000000e+00 -0.000000000000000000e+00 -1.033057851239661197e-05
4.190438862151720672e-05 3.993241739226931425e-04 -2.991569989824904461e-05
0.000000000000000000e+00 -0.000000000000000000e+00 0.000000000000000000e+00
-0.000000000000000000e+00 0.000000000000000000e+00 0.000000000000000000e+00
1.554273098432695728e-05 4.440780281236327114e-06 8.495663880279152500e-06
-0.000000000000000000e+00 0.000000000000000000e+00 3.642241673193491458e-20
0.000000000000000000e+00 0.000000000000000000e+00 1.021417855660893718e-05
-0.000000000000000000e+00 0.000000000000000000e+00 1.007969207232617403e-19
0.000000000000000000e+00 0.000000000000000000e+00 -1.050894491835074022e-05
-0.000000000000000000e+00 0.000000000000000000e+00 -1.298227108604771392e-05
-0.000000000000000000e+00 0.000000000000000000e+00 -1.331945889698221272e-05
4.743384504624081899e-19 4.499333136696436614e-19 2.529981534330188325e-19
0.000000000000000000e+00 0.000000000000000000e+00 -1.044897959183676734e-05
-0.000000000000000000e+00 0.000000000000000000e+00 -1.075404326822087540e-05
1.788024752455387776e-05 5.108642149872547271e-06 2.021601706366741011e-06
1.730519545238703725e-05 4.944341557825000044e-06 1.725231479401564730e-06
0.000000000000000000e+00 0.000000000000000000e+00 0.000000000000000000e+00
0.000000000000000000e+00 -0.000000000000000000e+00 1.033057851239675766e-05
0.000000000000000000e+00 -0.000000000000000000e+00 1.009973488195931971e-05
-8.536205363212647388e-06 1.280430804481893635e-05 9.574700935475111472e-06
-0.000000000000000000e+00 0.000000000000000000e+00 1.270549420881450509e-20
0.000000000000000000e+00 -0.000000000000000000e+00 -2.054426245295286603e-05
0.000000000000000000e+00 -0.000000000000000000e+00 3.388131789017201356e-21
-0.000000000000000000e+00 0.000000000000000000e+00 -1.021417855660889483e-05
-0.000000000000000000e+00 0.000000000000000000e+00 1.050894491835040649e-05
0.000000000000000000e+00 0.000000000000000000e+00 -1.021417855660886772e-05
0.000000000000000000e+00 -0.000000000000000000e+00 -9.317362419797303730e-21
0.000000000000000000e+00 -0.000000000000000000e+00 -9.317362419797303730e-21
0.000000000000000000e+00 0.000000000000000000e+00 -4.404571325722361763e-20
3.523150110687232124e-05 1.006614317339211090e-05 -3.081747041052070011e-06
0.000000000000000000e+00 -0.000000000000000000e+00 5.251604272976662102e-20
-1.594856617866760934e-05 -4.556733193905004255e-06 -8.778412476493937559e-06
0.000000000000000000e+00 0.000000000000000000e+00 1.050894491835040819e-05
-0.000000000000000000e+00 0.000000000000000000e+00 0.000000000000000000e+00
0.000000000000000000e+00 0.000000000000000000e+00 1.015671493751244643e-05
0.000000000000000000e+00 -0.000000000000000000e+00 1.027213122647649739e-05
0.000000000000000000e+00 -0.000000000000000000e+00 1.044897959183676734e-05
0.000000000000000000e+00 0.000000000000000000e+00 1.314924391847478621e-05
0.000000000000000000e+00 0.000000000000000000e+00 1.331945889698234147e-05
0.000000000000000000e+00 0.000000000000000000e+00 1.306535740897651036e-05
-0.000000000000000000e+00 0.000000000000000000e+00 -1.044897959183681139e-05
1.229195051457728775e-05 -1.843792577186592231e-05 -1.119915010118227260e-05
-0.000000000000000000e+00 0.000000000000000000e+00 6.268043809681822509e-20
0.000000000000000000e+00 0.000000000000000000e+00 1.113808616353844277e-05
0.000000000000000000e+00 -0.000000000000000000e+00 1.044897959183672838e-05
0.000000000000000000e+00 0.000000000000000000e+00 1.270549420881450509e-21
0.000000000000000000e+00 -0.000000000000000000e+00 1.009973488195935529e-05
0.000000000000000000e+00 0.000000000000000000e+00 -1.009973488195937223e-05
0.000000000000000000e+00 -0.000000000000000000e+00 1.270549420881450509e-20
8.681982098761876614e-06 -1.302297314814280815e-05 -9.941333780200068483e-06
-0.000000000000000000e+00 0.000000000000000000e+00 7.623296525288703052e-21
-3.321123321123304424e-05 2.214082214082240896e-05 1.038961038961038540e-05
0.000000000000000000e+00 0.000000000000000000e+00 -1.038952605904173415e-05
-0.000000000000000000e+00 0.000000000000000000e+00 -9.317362419797303730e-21
0.000000000000000000e+00 -0.000000000000000000e+00 3.472835083742631390e-20
0.000000000000000000e+00 0.000000000000000000e+00 1.021417855660889821e-05
-0.000000000000000000e+00 0.000000000000000000e+00 2.267573696145129845e-05
0.000000000000000000e+00 -0.000000000000000000e+00 -1.016439536705160407e-20
1.078185449383753792e-04 8.331433017965378222e-05 -7.403679860256331805e-07
0.000000000000000000e+00 0.000000000000000000e+00 1.050894491835040310e-05
0.000000000000000000e+00 0.000000000000000000e+00 -1.038952605904171721e-05
0.000000000000000000e+00 -0.000000000000000000e+00 5.929230630780102373e-20
0.000000000000000000e+00 -0.000000000000000000e+00 1.021417855660898292e-05
0.000000000000000000e+00 0.000000000000000000e+00 -1.033057851239650863e-05
0.000000000000000000e+00 0.000000000000000000e+00 1.033057851239665262e-05
-0.000000000000000000e+00 0.000000000000000000e+00 -1.306535740897610040e-05
0.000000000000000000e+00 0.000000000000000000e+00 1.340580848545765509e-05
0.000000000000000000e+00 -0.000000000000000000e+00 1.063043460206462931e-05
-0.000000000000000000e+00 0.000000000000000000e+00 -1.050894491835039802e-05
-9.074012950888994572e-06 -2.419736786903748375e-05 -1.365954355976084012e-05
-0.000000000000000000e+00 0.000000000000000000e+00 0.000000000000000000e+00
-1.700189753320673793e-05 -4.857685009487573583e-06 -1.263777410222322771e-05
-0.000000000000000000e+00 0.000000000000000000e+00 2.077905211808353945e-05
-0.000000000000000000e+00 -0.000000000000000000e+00 0.000000000000000000e+00
0.000000000000000000e+00 0.000000000000000000e+00 1.009973488195932818e-05
-0.000000000000000000e+00 0.000000000000000000e+00 -1.009973488195935359e-05
0.000000000000000000e+00 0.000000000000000000e+00 -1.015671493751237528e-05
-0.000000000000000000e+00 -0.000000000000000000e+00 -1.015671493751239222e-05
0.000000000000000000e+00 -0.000000000000000000e+00 0.000000000000000000e+00
-0.000000000000000000e+00 0.000000000000000000e+00 0.000000000000000000e+00
0.000000000000000000e+00 0.000000000000000000e+00 6.352747104407252543e-21
