ply
            format ascii 1.0
            element vertex 30650
            property float x
            property float y
            property float z
            property float nx
            property float ny
            property float nz
end_header
0.04374683544304 0.18268354430380 1.51493670886076 -0.85209133600792 0.30985139491197 -0.42182042170970
0.06320000000000 0.18040000000000 1.49600000000000 0.00000000000000 -0.00000000000000 -1.00000000000000
0.08712041884817 0.18890052356021 1.56649214659686 nan nan nan
0.10834645669291 0.18939632545932 1.57060367454068 0.00000000000000 0.00000000000000 1.00000000000000
0.12900523560209 0.18890052356021 1.56649214659686 -0.00000000000000 0.00000000000000 1.00000000000000
0.15034120734908 0.18939632545932 1.57060367454068 0.00000000000000 0.00000000000000 1.00000000000000
0.17133858267717 0.18939632545932 1.57060367454068 0.00000000000000 -0.00000000000000 1.00000000000000
0.19284210526316 0.18989473684211 1.57473684210526 0.00000000000000 0.00000000000000 -1.00000000000000
0.20168734491315 0.17905707196030 1.48486352357320 0.00000000000000 0.00000000000000 1.00000000000000
0.23494736842105 0.18989473684211 1.57473684210526 -0.00000000000000 0.00000000000000 -1.00000000000000
0.25600000000000 0.18989473684211 1.57473684210526 0.00000000000000 -0.00000000000000 1.00000000000000
0.27632545931759 0.18939632545932 1.57060367454068 nan nan nan
-0.27673469387755 0.18448979591837 1.52653061224490 0.00000000000000 0.00000000000000 1.00000000000000
-0.25830334190231 0.18591259640103 1.53830334190231 0.35060880115194 0.93495680307185 -0.05412249942915
-0.23958549222798 0.18735751295337 1.55025906735751 -0.00000000000000 0.00000000000000 -1.00000000000000
-0.21829457364341 0.18687338501292 1.54625322997416 0.00000000000000 0.00000000000000 1.00000000000000
-0.19813471502591 0.18735751295337 1.55025906735751 0.00000000000000 -0.00000000000000 -1.00000000000000
-0.17879895561358 0.18882506527415 1.56240208877285 0.00000000000000 0.00000000000000 -1.00000000000000
-0.15750000000000 0.18833333333333 1.55833333333333 0.00000000000000 0.00000000000000 1.00000000000000
-0.13022332506203 0.17945409429280 1.48486352357320 0.00000000000000 -0.00000000000000 1.00000000000000
-0.11009900990099 0.17900990099010 1.48118811881188 -0.00000000000000 0.00000000000000 -1.00000000000000
-0.09052109181141 0.17945409429280 1.48486352357320 0.00000000000000 -0.00000000000000 1.00000000000000
-0.07436031331593 0.18882506527415 1.56240208877285 -0.00000000000000 0.00000000000000 -1.00000000000000
-0.05347258485640 0.18882506527415 1.56240208877285 0.00000000000000 -0.00000000000000 1.00000000000000
-0.03104477611940 0.17990049751244 1.48855721393035 0.00000000000000 0.00000000000000 -1.00000000000000
-0.01111662531017 0.17945409429280 1.48486352357320 0.00000000000000 0.00000000000000 1.00000000000000
0.00921465968586 0.18931937172775 1.56649214659686 0.00000000000000 -0.00000000000000 1.00000000000000
0.03023622047244 0.18981627296588 1.57060367454068 0.00000000000000 -0.00000000000000 1.00000000000000
0.04904522613065 0.18170854271357 1.50351758793970 0.55282371924234 -0.82923557886352 0.08218448874297
0.06897243107769 0.18125313283208 1.49974937343358 0.00000000000000 -0.00000000000000 1.00000000000000
0.09298429319372 0.18931937172775 1.56649214659686 nan nan nan
0.11392670157068 0.18931937172775 1.56649214659686 nan nan nan
0.13486910994764 0.18931937172775 1.56649214659686 0.00000000000000 -0.00000000000000 1.00000000000000
0.15622047244094 0.18981627296588 1.57060367454068 0.00000000000000 0.00000000000000 1.00000000000000
0.17768421052632 0.19031578947368 1.57473684210526 0.00000000000000 0.00000000000000 1.00000000000000
0.18974874371859 0.18170854271357 1.50351758793970 0.83307314207562 0.23802089773588 0.49933474963521
0.20673267326733 0.17900990099010 1.48118811881188 -0.00000000000000 0.00000000000000 -1.00000000000000
0.24020997375328 0.18981627296588 1.57060367454068 0.00000000000000 -0.00000000000000 1.00000000000000
0.26189473684211 0.19031578947368 1.57473684210526 0.00000000000000 0.00000000000000 1.00000000000000
0.28220472440945 0.18981627296588 1.57060367454068 0.00000000000000 -0.00000000000000 1.00000000000000
-0.27171355498721 0.18537084398977 1.53043478260870 0.00000000000000 0.00000000000000 1.00000000000000
-0.25385012919897 0.18728682170543 1.54625322997416 0.30768846663243 0.82050257768647 0.48177103224586
-0.23438961038961 0.18825974025974 1.55428571428571 -0.00000000000000 0.00000000000000 -1.00000000000000
-0.21195876288660 0.18680412371134 1.54226804123711 0.00000000000000 0.00000000000000 1.00000000000000
-0.19283116883117 0.18825974025974 1.55428571428571 0.00000000000000 0.00000000000000 -1.00000000000000
-0.17295039164491 0.18924281984334 1.56240208877285 0.00000000000000 0.00000000000000 1.00000000000000
-0.15166666666667 0.18875000000000 1.55833333333333 nan nan nan
-0.12435643564356 0.17940594059406 1.48118811881188 0.00000000000000 -0.00000000000000 1.00000000000000
-0.10455445544554 0.17940594059406 1.48118811881188 0.00000000000000 -0.00000000000000 -1.00000000000000
-0.08517412935323 0.18029850746269 1.48855721393035 0.78161273487937 0.22331792425125 -0.58241792330122
-0.06851174934726 0.18924281984334 1.56240208877285 -0.00000000000000 0.00000000000000 -1.00000000000000
-0.04762402088773 0.18924281984334 1.56240208877285 -0.00000000000000 0.00000000000000 -1.00000000000000
-0.02540942928040 0.17985111662531 1.48486352357320 -0.00000000000000 0.00000000000000 -1.00000000000000
-0.00560000000000 0.18120000000000 1.49600000000000 -0.96110084374274 -0.27460024106935 0.02966269983744
0.01507853403141 0.18973821989529 1.56649214659686 0.00000000000000 -0.00000000000000 1.00000000000000
0.03621052631579 0.19073684210526 1.57473684210526 0.00000000000000 -0.00000000000000 -1.00000000000000
0.05453634085213 0.18165413533835 1.49974937343358 -0.00000000000000 0.00000000000000 1.00000000000000
0.07670103092784 0.18680412371134 1.54226804123711 -0.95837783999924 -0.27382223999978 0.08082881095181
0.09884816753927 0.18973821989529 1.56649214659686 0.00000000000000 -0.00000000000000 1.00000000000000
0.11979057591623 0.18973821989529 1.56649214659686 0.00000000000000 -0.00000000000000 1.00000000000000
0.14073298429319 0.18973821989529 1.56649214659686 -0.00000000000000 0.00000000000000 1.00000000000000
0.16209973753281 0.19023622047244 1.57060367454068 nan nan nan
0.18357894736842 0.19073684210526 1.57473684210526 0.00000000000000 -0.00000000000000 -1.00000000000000
0.19440000000000 0.18120000000000 1.49600000000000 -0.00000000000000 -0.00000000000000 -1.00000000000000
0.21280397022333 0.17985111662531 1.48486352357320 0.00000000000000 0.00000000000000 -1.00000000000000
0.24673684210526 0.19073684210526 1.57473684210526 0.00000000000000 0.00000000000000 1.00000000000000
0.26708661417323 0.19023622047244 1.57060367454068 0.00000000000000 -0.00000000000000 1.00000000000000
0.28808398950131 0.19023622047244 1.57060367454068 0.00000000000000 -0.00000000000000 1.00000000000000
-0.26598465473146 0.18578005115090 1.53043478260870 0.29245213246535 0.77987235324091 -0.55341743997362
-0.24806201550388 0.18770025839793 1.54625322997416 -0.00000000000000 0.00000000000000 -1.00000000000000
-0.22739018087855 0.18770025839793 1.54625322997416 0.00000000000000 -0.00000000000000 1.00000000000000
-0.20671834625323 0.18770025839793 1.54625322997416 -0.00000000000000 0.00000000000000 -1.00000000000000
-0.18701298701299 0.18867532467532 1.55428571428571 -0.00000000000000 0.00000000000000 -1.00000000000000
-0.16710182767624 0.18966057441253 1.56240208877285 0.00000000000000 0.00000000000000 1.00000000000000
-0.14583333333333 0.18916666666667 1.55833333333333 0.00000000000000 -0.00000000000000 1.00000000000000
-0.11881188118812 0.17980198019802 1.48118811881188 -0.00000000000000 0.00000000000000 -1.00000000000000
-0.09900990099010 0.17980198019802 1.48118811881188 -0.00000000000000 0.00000000000000 -1.00000000000000
-0.08333333333333 0.18916666666667 1.55833333333333 0.00000000000000 -0.00000000000000 1.00000000000000
-0.06266318537859 0.18966057441253 1.56240208877285 0.00000000000000 -0.00000000000000 1.00000000000000
-0.04188481675393 0.19015706806283 1.56649214659686 0.88148131736342 -0.32053866085943 -0.34676455129336
-0.01980198019802 0.17980198019802 1.48118811881188 0.00000000000000 0.00000000000000 1.00000000000000
0.00000000000000 0.18966057441253 1.56240208877285 0.00000000000000 -0.00000000000000 1.00000000000000
0.02094240837696 0.19015706806283 1.56649214659686 0.00000000000000 -0.00000000000000 1.00000000000000
0.04733727810651 0.21491124260355 1.77041420118343 0.83257773689328 0.52106905982436 -0.18788652672137
0.06000000000000 0.18160000000000 1.49600000000000 -0.00000000000000 0.00000000000000 -1.00000000000000
0.08376963350785 0.19015706806283 1.56649214659686 0.00000000000000 0.00000000000000 -1.00000000000000
0.10471204188482 0.19015706806283 1.56649214659686 nan nan nan
0.12565445026178 0.19015706806283 1.56649214659686 -0.00000000000000 0.00000000000000 1.00000000000000
0.14659685863874 0.19015706806283 1.56649214659686 0.00000000000000 -0.00000000000000 1.00000000000000
0.16797900262467 0.19065616797900 1.57060367454068 0.00000000000000 0.00000000000000 -1.00000000000000
0.18947368421053 0.19115789473684 1.57473684210526 -0.00000000000000 -0.00000000000000 -1.00000000000000
0.19851116625310 0.18024813895782 1.48486352357320 -0.00000000000000 -0.00000000000000 -1.00000000000000
0.23097112860892 0.19065616797900 1.57060367454068 0.00000000000000 0.00000000000000 1.00000000000000
0.25263157894737 0.19115789473684 1.57473684210526 -0.00000000000000 0.00000000000000 1.00000000000000
0.27296587926509 0.19065616797900 1.57060367454068 0.00000000000000 -0.00000000000000 -1.00000000000000
-0.28000000000000 0.18571428571429 1.52653061224490 0.00000000000000 -0.00000000000000 1.00000000000000
-0.26159383033419 0.18714652956298 1.53830334190231 0.35060880115194 0.93495680307185 -0.05412249942915
-0.24290155440415 0.18860103626943 1.55025906735751 0.00000000000000 0.00000000000000 -1.00000000000000
-0.22160206718346 0.18811369509044 1.54625322997416 -0.00000000000000 -0.00000000000000 1.00000000000000
-0.20093023255814 0.18811369509044 1.54625322997416 -0.00000000000000 0.00000000000000 -1.00000000000000
-0.18166666666667 0.18958333333333 1.55833333333333 -0.00000000000000 0.00000000000000 -1.00000000000000
-0.16041558441558 0.18909090909091 1.55428571428571 0.00000000000000 -0.00000000000000 1.00000000000000
-0.13507537688442 0.18291457286432 1.50351758793970 -0.99456016096150 -0.06216001006010 0.08358360711022
-0.11298765432099 0.17975308641975 1.47753086419753 0.00000000000000 -0.00000000000000 1.00000000000000
-0.09346534653465 0.18019801980198 1.48118811881188 0.00000000000000 0.00000000000000 1.00000000000000
-0.07770234986945 0.19007832898172 1.56240208877285 0.00000000000000 -0.00000000000000 -1.00000000000000
-0.05681462140992 0.19007832898172 1.56240208877285 0.00000000000000 -0.00000000000000 -1.00000000000000
-0.03440000000000 0.18200000000000 1.49600000000000 -0.83377946733748 0.30319253357726 -0.46139580343717
-0.01429280397022 0.18064516129032 1.48486352357320 0.00000000000000 -0.00000000000000 1.00000000000000
0.00584856396867 0.19007832898172 1.56240208877285 0.00000000000000 -0.00000000000000 1.00000000000000
0.02687664041995 0.19107611548556 1.57060367454068 0.00000000000000 0.00000000000000 1.00000000000000
0.04606060606061 0.18383838383838 1.51111111111111 0.48197576344313 -0.87578522869544 0.02644988945724
0.06560000000000 0.18200000000000 1.49600000000000 0.00000000000000 0.00000000000000 1.00000000000000
0.08963350785340 0.19057591623037 1.56649214659686 nan nan nan
0.11057591623037 0.19057591623037 1.56649214659686 0.00000000000000 0.00000000000000 -1.00000000000000
0.13151832460733 0.19057591623037 1.56649214659686 0.00000000000000 -0.00000000000000 1.00000000000000
0.15246073298429 0.19057591623037 1.56649214659686 0.00000000000000 -0.00000000000000 1.00000000000000
0.17385826771654 0.19107611548556 1.57060367454068 -0.00000000000000 0.00000000000000 1.00000000000000
0.19485564304462 0.19107611548556 1.57060367454068 0.00000000000000 0.00000000000000 1.00000000000000
0.20356435643564 0.18019801980198 1.48118811881188 0.00000000000000 0.00000000000000 -1.00000000000000
0.23747368421053 0.19157894736842 1.57473684210526 0.00000000000000 0.00000000000000 1.00000000000000
0.25852631578947 0.19157894736842 1.57473684210526 0.00000000000000 0.00000000000000 1.00000000000000
0.27884514435696 0.19107611548556 1.57060367454068 0.00000000000000 -0.00000000000000 1.00000000000000
-0.27498721227621 0.18659846547315 1.53043478260870 0.00000000000000 -0.00000000000000 1.00000000000000
-0.25649484536082 0.18804123711340 1.54226804123711 0.00000000000000 0.00000000000000 -1.00000000000000
-0.23771428571429 0.18950649350649 1.55428571428571 0.00000000000000 0.00000000000000 1.00000000000000
-0.21525773195876 0.18804123711340 1.54226804123711 0.00000000000000 -0.00000000000000 1.00000000000000
-0.19564766839378 0.18901554404145 1.55025906735751 -0.00000000000000 0.00000000000000 -1.00000000000000
-0.17629242819843 0.19049608355091 1.56240208877285 0.00000000000000 0.00000000000000 1.00000000000000
-0.15459740259740 0.18950649350649 1.55428571428571 0.00000000000000 -0.00000000000000 1.00000000000000
-0.12784119106700 0.18104218362283 1.48486352357320 -0.00000000000000 0.00000000000000 -1.00000000000000
-0.10772277227723 0.18059405940594 1.48118811881188 0.00000000000000 -0.00000000000000 1.00000000000000
-0.08813895781638 0.18104218362283 1.48486352357320 -0.00000000000000 0.00000000000000 -1.00000000000000
-0.07185378590078 0.19049608355091 1.56240208877285 0.00000000000000 -0.00000000000000 -1.00000000000000
-0.05096605744125 0.19049608355091 1.56240208877285 0.00000000000000 0.00000000000000 1.00000000000000
-0.02865671641791 0.18149253731343 1.48855721393035 -0.00000000000000 0.00000000000000 -1.00000000000000
-0.00875621890547 0.18149253731343 1.48855721393035 -0.00000000000000 -0.00000000000000 1.00000000000000
0.01172774869110 0.19099476439791 1.56649214659686 0.00000000000000 0.00000000000000 1.00000000000000
0.03275590551181 0.19149606299213 1.57060367454068 0.00000000000000 -0.00000000000000 1.00000000000000
0.05145728643216 0.18331658291457 1.50351758793970 -0.00000000000000 0.00000000000000 -1.00000000000000
0.07137844611529 0.18285714285714 1.49974937343358 0.00000000000000 0.00000000000000 1.00000000000000
0.09549738219895 0.19099476439791 1.56649214659686 -0.00000000000000 0.00000000000000 1.00000000000000
0.11643979057592 0.19099476439791 1.56649214659686 -0.00000000000000 0.00000000000000 1.00000000000000
0.13738219895288 0.19099476439791 1.56649214659686 -0.00000000000000 0.00000000000000 1.00000000000000
0.15832460732984 0.19099476439791 1.56649214659686 0.00000000000000 -0.00000000000000 1.00000000000000
0.17973753280840 0.19149606299213 1.57060367454068 0.00000000000000 -0.00000000000000 1.00000000000000
0.19167919799499 0.18285714285714 1.49974937343358 0.00000000000000 0.00000000000000 1.00000000000000
0.20910891089109 0.18059405940594 1.48118811881188 0.00000000000000 0.00000000000000 1.00000000000000
0.24272965879265 0.19149606299213 1.57060367454068 0.00000000000000 -0.00000000000000 1.00000000000000
0.26372703412073 0.19149606299213 1.57060367454068 0.00000000000000 -0.00000000000000 1.00000000000000
0.28472440944882 0.19149606299213 1.57060367454068 0.00000000000000 0.00000000000000 1.00000000000000
-0.26994871794872 0.18748717948718 1.53435897435897 -0.83153624228465 -0.23758178350990 0.50209797242309
-0.25072164948454 0.18845360824742 1.54226804123711 0.00000000000000 -0.00000000000000 1.00000000000000
-0.23069767441860 0.18894056847545 1.54625322997416 0.30850005681914 0.82266681818436 0.47754269044873
-0.21002583979328 0.18894056847545 1.54625322997416 0.00000000000000 0.00000000000000 -1.00000000000000
-0.19033766233766 0.18992207792208 1.55428571428571 0.00000000000000 -0.00000000000000 -1.00000000000000
-0.17000000000000 0.19041666666667 1.55833333333333 0.00000000000000 -0.00000000000000 1.00000000000000
-0.14916666666667 0.19041666666667 1.55833333333333 -0.00000000000000 0.00000000000000 -1.00000000000000
-0.12198019801980 0.18099009900990 1.48118811881188 -0.00000000000000 0.00000000000000 -1.00000000000000
-0.10217821782178 0.18099009900990 1.48118811881188 -0.00000000000000 0.00000000000000 -1.00000000000000
-0.08644155844156 0.18992207792208 1.55428571428571 0.79248524428897 0.22642435551113 -0.56630305386394
-0.06600522193211 0.19091383812010 1.56240208877285 0.00000000000000 -0.00000000000000 -1.00000000000000
-0.04511749347258 0.19091383812010 1.56240208877285 0.00000000000000 0.00000000000000 1.00000000000000
-0.02302729528536 0.18143920595533 1.48486352357320 nan nan nan
-0.00334203655352 0.19091383812010 1.56240208877285 0.00000000000000 -0.00000000000000 1.00000000000000
0.01759162303665 0.19141361256545 1.56649214659686 0.00000000000000 0.00000000000000 1.00000000000000
0.03873684210526 0.19242105263158 1.57473684210526 0.47218536711240 -0.70827805066860 -0.52476964663175
0.05694235588972 0.18325814536341 1.49974937343358 0.00000000000000 -0.00000000000000 1.00000000000000
0.08041884816754 0.19141361256545 1.56649214659686 0.00000000000000 -0.00000000000000 1.00000000000000
0.10136125654450 0.19141361256545 1.56649214659686 nan nan nan
0.12230366492147 0.19141361256545 1.56649214659686 nan nan nan
0.14324607329843 0.19141361256545 1.56649214659686 0.00000000000000 -0.00000000000000 1.00000000000000
0.16461942257218 0.19191601049869 1.57060367454068 0.00000000000000 0.00000000000000 1.00000000000000
0.18610526315789 0.19242105263158 1.57473684210526 0.00000000000000 0.00000000000000 1.00000000000000
0.19630922693267 0.18234413965087 1.49226932668329 -0.31815975956173 -0.84842602549805 -0.42302204038702
0.21518610421836 0.18143920595533 1.48486352357320 -0.00000000000000 0.00000000000000 -1.00000000000000
0.24860892388451 0.19191601049869 1.57060367454068 0.00000000000000 -0.00000000000000 1.00000000000000
0.26960629921260 0.19191601049869 1.57060367454068 0.00000000000000 -0.00000000000000 1.00000000000000
0.29060367454068 0.19191601049869 1.57060367454068 0.00000000000000 0.00000000000000 1.00000000000000
-0.26420512820513 0.18789743589744 1.53435897435897 0.83020911673055 0.23720260478014 -0.50446778567417
-0.24558139534884 0.18935400516796 1.54625322997416 0.00000000000000 -0.00000000000000 -1.00000000000000
-0.22490956072351 0.18935400516796 1.54625322997416 0.00000000000000 0.00000000000000 1.00000000000000
-0.20423772609819 0.18935400516796 1.54625322997416 0.00000000000000 -0.00000000000000 -1.00000000000000
-0.18451948051948 0.19033766233766 1.55428571428571 -0.00000000000000 0.00000000000000 -1.00000000000000
-0.16416666666667 0.19083333333333 1.55833333333333 -0.00000000000000 -0.00000000000000 -1.00000000000000
-0.14333333333333 0.19083333333333 1.55833333333333 -0.00000000000000 0.00000000000000 -1.00000000000000
-0.11643564356436 0.18138613861386 1.48118811881188 0.00000000000000 0.00000000000000 1.00000000000000
-0.09663366336634 0.18138613861386 1.48118811881188 0.00000000000000 -0.00000000000000 -1.00000000000000
-0.08083333333333 0.19083333333333 1.55833333333333 0.00000000000000 -0.00000000000000 -1.00000000000000
-0.06015665796345 0.19133159268930 1.56240208877285 -0.00000000000000 0.00000000000000 -1.00000000000000
-0.04154696132597 0.20243093922652 1.65303867403315 -0.99274011468696 -0.09665623834680 -0.07158656494048
-0.01746898263027 0.18183622828784 1.48486352357320 0.00000000000000 -0.00000000000000 1.00000000000000
0.00250652741514 0.19133159268930 1.56240208877285 -0.00000000000000 0.00000000000000 -1.00000000000000
0.02345549738220 0.19183246073298 1.56649214659686 -0.00000000000000 0.00000000000000 1.00000000000000
0.04304568527919 0.18598984771574 1.51878172588832 -0.42964179321256 0.64446268981884 -0.63251543139797
0.06240000000000 0.18320000000000 1.49600000000000 0.00000000000000 0.00000000000000 1.00000000000000
0.08628272251309 0.19183246073298 1.56649214659686 0.00000000000000 0.00000000000000 1.00000000000000
0.10722513089005 0.19183246073298 1.56649214659686 nan nan nan
0.12816753926702 0.19183246073298 1.56649214659686 0.00000000000000 -0.00000000000000 1.00000000000000
0.14910994764398 0.19183246073298 1.56649214659686 -0.00000000000000 0.00000000000000 1.00000000000000
0.17049868766404 0.19233595800525 1.57060367454068 nan nan nan
0.19149606299213 0.19233595800525 1.57060367454068 0.00000000000000 -0.00000000000000 1.00000000000000
0.20039603960396 0.18138613861386 1.48118811881188 0.00000000000000 -0.00000000000000 1.00000000000000
0.23349081364829 0.19233595800525 1.57060367454068 nan nan nan
0.25515789473684 0.19284210526316 1.57473684210526 0.00000000000000 0.00000000000000 1.00000000000000
0.27548556430446 0.19233595800525 1.57060367454068 -0.00000000000000 0.00000000000000 1.00000000000000
-0.27755102040816 0.18734693877551 1.52653061224490 0.00000000000000 0.00000000000000 1.00000000000000
-0.25979381443299 0.18927835051546 1.54226804123711 0.00000000000000 -0.00000000000000 1.00000000000000
-0.24041450777202 0.19025906735751 1.55025906735751 0.00000000000000 0.00000000000000 1.00000000000000
-0.21855670103093 0.18927835051546 1.54226804123711 0.00000000000000 -0.00000000000000 1.00000000000000
-0.19896373056995 0.19025906735751 1.55025906735751 0.00000000000000 0.00000000000000 -1.00000000000000
-0.17916666666667 0.19125000000000 1.55833333333333 0.00000000000000 -0.00000000000000 -1.00000000000000
-0.15792207792208 0.19075324675325 1.55428571428571 0.00000000000000 -0.00000000000000 1.00000000000000
-0.13101736972705 0.18223325062035 1.48486352357320 0.00000000000000 0.00000000000000 -1.00000000000000
-0.11061728395062 0.18133333333333 1.47753086419753 0.00000000000000 -0.00000000000000 -1.00000000000000
-0.09131513647643 0.18223325062035 1.48486352357320 0.00000000000000 0.00000000000000 -1.00000000000000
-0.07519582245431 0.19174934725849 1.56240208877285 -0.00000000000000 0.00000000000000 -1.00000000000000
-0.05430809399478 0.19174934725849 1.56240208877285 -0.00000000000000 0.00000000000000 -1.00000000000000
-0.03192019950125 0.18314214463840 1.49226932668329 -0.70644819967069 0.65426736674047 -0.26993546265826
-0.01191066997519 0.18223325062035 1.48486352357320 0.00000000000000 0.00000000000000 1.00000000000000
0.00835509138381 0.19174934725849 1.56240208877285 -0.00000000000000 0.00000000000000 -1.00000000000000
0.02931937172775 0.19225130890052 1.56649214659686 0.00000000000000 -0.00000000000000 1.00000000000000
0.04836272040302 0.18498740554156 1.50730478589421 -0.41276607059524 0.91051339101891 0.02428035709384
0.06817042606516 0.18406015037594 1.49974937343358 -0.00000000000000 -0.00000000000000 -1.00000000000000
0.09214659685864 0.19225130890052 1.56649214659686 0.00000000000000 0.00000000000000 1.00000000000000
0.11308900523560 0.19225130890052 1.56649214659686 nan nan nan
0.13403141361257 0.19225130890052 1.56649214659686 -0.00000000000000 0.00000000000000 1.00000000000000
0.15497382198953 0.19225130890052 1.56649214659686 -0.00000000000000 0.00000000000000 1.00000000000000
0.17637795275591 0.19275590551181 1.57060367454068 0.00000000000000 -0.00000000000000 1.00000000000000
0.19282051282051 0.18830769230769 1.53435897435897 0.91375362208473 0.11918525505453 0.38839309095891
0.20594059405941 0.18178217821782 1.48118811881188 0.00000000000000 -0.00000000000000 1.00000000000000
0.23937007874016 0.19275590551181 1.57060367454068 0.00000000000000 0.00000000000000 -1.00000000000000
0.26036745406824 0.19275590551181 1.57060367454068 0.00000000000000 -0.00000000000000 1.00000000000000
0.28136482939633 0.19275590551181 1.57060367454068 0.00000000000000 0.00000000000000 1.00000000000000
-0.27253196930946 0.18823529411765 1.53043478260870 0.00000000000000 0.00000000000000 1.00000000000000
-0.25402061855670 0.18969072164948 1.54226804123711 0.00000000000000 -0.00000000000000 1.00000000000000
-0.23280205655527 0.18920308483290 1.53830334190231 0.00000000000000 -0.00000000000000 1.00000000000000
-0.21278350515464 0.18969072164948 1.54226804123711 0.00000000000000 -0.00000000000000 -1.00000000000000
-0.19316062176166 0.19067357512953 1.55025906735751 -0.00000000000000 0.00000000000000 -1.00000000000000
-0.17333333333333 0.19166666666667 1.55833333333333 0.00000000000000 -0.00000000000000 1.00000000000000
-0.15210389610390 0.19116883116883 1.55428571428571 -0.00000000000000 0.00000000000000 -1.00000000000000
-0.12514851485149 0.18217821782178 1.48118811881188 0.00000000000000 0.00000000000000 -1.00000000000000
-0.10534653465347 0.18217821782178 1.48118811881188 -0.00000000000000 0.00000000000000 1.00000000000000
-0.08618453865337 0.18354114713217 1.49226932668329 -0.96129675173529 -0.27465621478151 -0.02173749721266
-0.06934725848564 0.19216710182768 1.56240208877285 nan nan nan
-0.04833333333333 0.19166666666667 1.55833333333333 0.00000000000000 -0.00000000000000 1.00000000000000
-0.02620347394541 0.18263027295285 1.48486352357320 0.00000000000000 0.00000000000000 -1.00000000000000
-0.00641604010025 0.18446115288221 1.49974937343358 0.96110084374274 0.27460024106936 -0.02966269983744
0.01420365535248 0.19216710182768 1.56240208877285 0.00000000000000 -0.00000000000000 1.00000000000000
0.03527559055118 0.19317585301837 1.57060367454068 nan nan nan
0.05373433583960 0.18446115288221 1.49974937343358 0.00000000000000 0.00000000000000 -1.00000000000000
0.08065753424658 0.20164383561644 1.63945205479452 -0.99916118079394 0.03892835769327 0.01270896383516
0.09801047120419 0.19267015706806 1.56649214659686 -0.00000000000000 0.00000000000000 -1.00000000000000
0.11895287958115 0.19267015706806 1.56649214659686 0.00000000000000 0.00000000000000 1.00000000000000
0.13989528795812 0.19267015706806 1.56649214659686 0.00000000000000 -0.00000000000000 1.00000000000000
0.16083769633508 0.19267015706806 1.56649214659686 0.00000000000000 -0.00000000000000 1.00000000000000
0.18225721784777 0.19317585301837 1.57060367454068 -0.00000000000000 0.00000000000000 1.00000000000000
0.19360000000000 0.18400000000000 1.49600000000000 0.00000000000000 0.00000000000000 -1.00000000000000
0.21200992555831 0.18263027295285 1.48486352357320 0.00000000000000 0.00000000000000 -1.00000000000000
0.24524934383202 0.19317585301837 1.57060367454068 -0.00000000000000 0.00000000000000 1.00000000000000
0.26624671916011 0.19317585301837 1.57060367454068 0.00000000000000 -0.00000000000000 1.00000000000000
0.28649214659686 0.19267015706806 1.56649214659686 0.00000000000000 -0.00000000000000 1.00000000000000
-0.26817480719794 0.18961439588689 1.53830334190231 0.77617741771272 -0.28224633371371 -0.56381346502011
-0.24824742268041 0.19010309278351 1.54226804123711 -0.00000000000000 0.00000000000000 -1.00000000000000
-0.22762886597938 0.19010309278351 1.54226804123711 0.89516012366626 0.40338153072711 0.18966205120179
-0.20754521963824 0.19059431524548 1.54625322997416 -0.00000000000000 0.00000000000000 1.00000000000000
-0.18784415584416 0.19158441558442 1.55428571428571 -0.00000000000000 0.00000000000000 -1.00000000000000
-0.16750000000000 0.19208333333333 1.55833333333333 0.00000000000000 0.00000000000000 1.00000000000000
-0.14666666666667 0.19208333333333 1.55833333333333 0.00000000000000 -0.00000000000000 1.00000000000000
-0.11930864197531 0.18212345679012 1.47753086419753 0.00000000000000 -0.00000000000000 1.00000000000000
-0.09980198019802 0.18257425742574 1.48118811881188 nan nan nan
-0.08416666666667 0.19208333333333 1.55833333333333 0.00000000000000 0.00000000000000 -1.00000000000000
-0.06349869451697 0.19258485639687 1.56240208877285 0.00000000000000 -0.00000000000000 1.00000000000000
-0.04250000000000 0.19208333333333 1.55833333333333 0.00000000000000 0.00000000000000 1.00000000000000
-0.02064516129032 0.18302729528536 1.48486352357320 0.00000000000000 -0.00000000000000 -1.00000000000000
-0.00083550913838 0.19258485639687 1.56240208877285 nan nan nan
0.02005221932115 0.19258485639687 1.56240208877285 0.00000000000000 -0.00000000000000 1.00000000000000
0.04343490304709 0.20432132963989 1.65761772853186 0.99832742346184 -0.04643383364939 -0.03444204780016
0.05934837092732 0.18486215538847 1.49974937343358 -0.00000000000000 0.00000000000000 1.00000000000000
0.08293193717277 0.19308900523560 1.56649214659686 nan nan nan
0.10387434554974 0.19308900523560 1.56649214659686 nan nan nan
0.12481675392670 0.19308900523560 1.56649214659686 0.00000000000000 0.00000000000000 1.00000000000000
0.14575916230366 0.19308900523560 1.56649214659686 -0.00000000000000 0.00000000000000 1.00000000000000
0.16670157068063 0.19308900523560 1.56649214659686 0.00000000000000 -0.00000000000000 1.00000000000000
0.18813648293963 0.19359580052493 1.57060367454068 0.00000000000000 -0.00000000000000 1.00000000000000
0.19771712158809 0.18302729528536 1.48486352357320 0.83241102958979 0.23783172273995 0.50052767103908
0.22424552429668 0.18864450127877 1.53043478260870 0.93114807988921 0.20083586036826 -0.30434883030624
0.25112860892388 0.19359580052493 1.57060367454068 -0.00000000000000 0.00000000000000 -1.00000000000000
0.27212598425197 0.19359580052493 1.57060367454068 -0.00000000000000 0.00000000000000 1.00000000000000
-0.28081632653061 0.18857142857143 1.52653061224490 0.00000000000000 0.00000000000000 1.00000000000000
-0.26309278350515 0.19051546391753 1.54226804123711 0.00000000000000 -0.00000000000000 1.00000000000000
-0.24310077519380 0.19100775193798 1.54625322997416 -0.00000000000000 0.00000000000000 -1.00000000000000
-0.22185567010309 0.19051546391753 1.54226804123711 0.00000000000000 0.00000000000000 -1.00000000000000
-0.20175710594315 0.19100775193798 1.54625322997416 -0.00000000000000 0.00000000000000 -1.00000000000000
-0.18250000000000 0.19250000000000 1.55833333333333 0.00000000000000 0.00000000000000 -1.00000000000000
-0.16124675324675 0.19200000000000 1.55428571428571 0.00000000000000 0.00000000000000 -1.00000000000000
-0.13938144329897 0.19051546391753 1.54226804123711 -0.33756112009223 -0.90016298691263 0.27524368692964
-0.11377777777778 0.18251851851852 1.47753086419753 0.00000000000000 -0.00000000000000 1.00000000000000
-0.09425742574257 0.18297029702970 1.48118811881188 -0.00000000000000 0.00000000000000 -1.00000000000000
-0.07833333333333 0.19250000000000 1.55833333333333 -0.00000000000000 0.00000000000000 -1.00000000000000
-0.05765013054830 0.19300261096606 1.56240208877285 0.00000000000000 -0.00000000000000 -1.00000000000000
-0.03546599496222 0.18619647355164 1.50730478589421 0.77713846191962 -0.51809230794640 0.35726204871492
-0.01508684863524 0.18342431761787 1.48486352357320 0.00000000000000 0.00000000000000 1.00000000000000
0.00501305483029 0.19300261096606 1.56240208877285 0.00000000000000 -0.00000000000000 -1.00000000000000
0.02596858638743 0.19350785340314 1.56649214659686 0.00000000000000 -0.00000000000000 1.00000000000000
0.04548223350254 0.18761421319797 1.51878172588832 0.55265213197994 -0.82897819796990 0.08585317879153
0.06496240601504 0.18526315789474 1.49974937343358 -0.00000000000000 -0.00000000000000 1.00000000000000
0.08856396866841 0.19300261096606 1.56240208877285 0.00000000000000 -0.00000000000000 1.00000000000000
0.10973821989529 0.19350785340314 1.56649214659686 nan nan nan
0.13068062827225 0.19350785340314 1.56649214659686 -0.00000000000000 0.00000000000000 1.00000000000000
0.15162303664921 0.19350785340314 1.56649214659686 nan nan nan
0.17301837270341 0.19401574803150 1.57060367454068 0.00000000000000 0.00000000000000 1.00000000000000
0.19401574803150 0.19401574803150 1.57060367454068 0.00000000000000 -0.00000000000000 1.00000000000000
0.20277227722772 0.18297029702970 1.48118811881188 0.00000000000000 0.00000000000000 1.00000000000000
0.23601049868766 0.19401574803150 1.57060367454068 0.00000000000000 -0.00000000000000 1.00000000000000
0.25700787401575 0.19401574803150 1.57060367454068 0.00000000000000 -0.00000000000000 1.00000000000000
0.27800524934383 0.19401574803150 1.57060367454068 0.00000000000000 0.00000000000000 1.00000000000000
-0.27580562659847 0.18946291560102 1.53043478260870 0.00000000000000 0.00000000000000 1.00000000000000
-0.25731958762887 0.19092783505155 1.54226804123711 0.00000000000000 -0.00000000000000 -1.00000000000000
-0.23609254498715 0.19043701799486 1.53830334190231 0.00000000000000 0.00000000000000 -1.00000000000000
-0.21608247422680 0.19092783505155 1.54226804123711 0.00000000000000 -0.00000000000000 -1.00000000000000
-0.19647668393782 0.19191709844560 1.55025906735751 0.00000000000000 -0.00000000000000 1.00000000000000
-0.17666666666667 0.19291666666667 1.55833333333333 -0.00000000000000 0.00000000000000 -1.00000000000000
-0.15542857142857 0.19241558441558 1.55428571428571 -0.00000000000000 0.00000000000000 1.00000000000000
-0.12863523573201 0.18382133995037 1.48486352357320 0.00000000000000 0.00000000000000 1.00000000000000
-0.10824691358025 0.18291358024691 1.47753086419753 0.00000000000000 -0.00000000000000 -1.00000000000000
-0.08893300248139 0.18382133995037 1.48486352357320 0.00000000000000 0.00000000000000 1.00000000000000
-0.07268929503916 0.19342036553525 1.56240208877285 0.00000000000000 0.00000000000000 1.00000000000000
-0.05180156657963 0.19342036553525 1.56240208877285 0.00000000000000 0.00000000000000 1.00000000000000
-0.02945273631841 0.18427860696517 1.48855721393035 0.00000000000000 0.00000000000000 -1.00000000000000
-0.00955223880597 0.18427860696517 1.48855721393035 -0.00000000000000 -0.00000000000000 -1.00000000000000
0.01086161879896 0.19342036553525 1.56240208877285 0.00000000000000 -0.00000000000000 1.00000000000000
0.03183246073298 0.19392670157068 1.56649214659686 0.00000000000000 -0.00000000000000 1.00000000000000
0.05065326633166 0.18613065326633 1.50351758793970 0.00000000000000 0.00000000000000 -1.00000000000000
0.07075376884422 0.18613065326633 1.50351758793970 -0.28019822929608 -0.74719527812289 0.60265095092450
0.09441253263708 0.19342036553525 1.56240208877285 0.00000000000000 -0.00000000000000 1.00000000000000
0.11560209424084 0.19392670157068 1.56649214659686 -0.00000000000000 0.00000000000000 1.00000000000000
0.13654450261780 0.19392670157068 1.56649214659686 0.00000000000000 0.00000000000000 1.00000000000000
0.15748691099476 0.19392670157068 1.56649214659686 0.00000000000000 -0.00000000000000 1.00000000000000
0.17889763779528 0.19443569553806 1.57060367454068 -0.00000000000000 0.00000000000000 1.00000000000000
0.19087719298246 0.18566416040100 1.49974937343358 0.83307314207560 0.23802089773589 0.49933474963525
0.20831683168317 0.18336633663366 1.48118811881188 0.00000000000000 0.00000000000000 1.00000000000000
0.24188976377953 0.19443569553806 1.57060367454068 -0.00000000000000 0.00000000000000 -1.00000000000000
0.26288713910761 0.19443569553806 1.57060367454068 0.00000000000000 -0.00000000000000 1.00000000000000
0.28314136125654 0.19392670157068 1.56649214659686 0.00000000000000 -0.00000000000000 1.00000000000000
-0.27076923076923 0.19035897435897 1.53435897435897 -0.00000000000000 -0.00000000000000 -1.00000000000000
-0.25154639175258 0.19134020618557 1.54226804123711 0.00000000000000 0.00000000000000 1.00000000000000
-0.23033419023136 0.19084832904884 1.53830334190231 0.00000000000000 -0.00000000000000 -1.00000000000000
-0.21030927835052 0.19134020618557 1.54226804123711 -0.00000000000000 0.00000000000000 -1.00000000000000
-0.19116883116883 0.19283116883117 1.55428571428571 0.00000000000000 0.00000000000000 -1.00000000000000
-0.17083333333333 0.19333333333333 1.55833333333333 0.00000000000000 0.00000000000000 1.00000000000000
-0.14961038961039 0.19283116883117 1.55428571428571 0.00000000000000 -0.00000000000000 1.00000000000000
-0.12277227722772 0.18376237623762 1.48118811881188 0.00000000000000 0.00000000000000 1.00000000000000
-0.10297029702970 0.18376237623762 1.48118811881188 nan nan nan
-0.08750000000000 0.19333333333333 1.55833333333333 0.00000000000000 -0.00000000000000 1.00000000000000
-0.06684073107050 0.19383812010444 1.56240208877285 0.00000000000000 0.00000000000000 1.00000000000000
-0.04583333333333 0.19333333333333 1.55833333333333 0.00000000000000 -0.00000000000000 -1.00000000000000
-0.02382133995037 0.18421836228288 1.48486352357320 0.00000000000000 0.00000000000000 1.00000000000000
-0.00417754569191 0.19383812010444 1.56240208877285 0.00000000000000 0.00000000000000 -1.00000000000000
0.01671018276762 0.19383812010444 1.56240208877285 -0.00000000000000 0.00000000000000 -1.00000000000000
0.03779527559055 0.19485564304462 1.57060367454068 0.47218536711240 -0.70827805066861 -0.52476964663174
0.05614035087719 0.18606516290727 1.49974937343358 0.00000000000000 0.00000000000000 1.00000000000000
0.07958115183246 0.19434554973822 1.56649214659686 0.00000000000000 -0.00000000000000 1.00000000000000
0.10052356020942 0.19434554973822 1.56649214659686 0.00000000000000 0.00000000000000 1.00000000000000
0.12114882506527 0.19383812010444 1.56240208877285 0.00000000000000 -0.00000000000000 1.00000000000000
0.14240837696335 0.19434554973822 1.56649214659686 -0.00000000000000 0.00000000000000 1.00000000000000
0.16335078534031 0.19434554973822 1.56649214659686 -0.00000000000000 0.00000000000000 1.00000000000000
0.18477690288714 0.19485564304462 1.57060367454068 -0.00000000000000 0.00000000000000 -1.00000000000000
0.19502487562189 0.18467661691542 1.48855721393035 0.00000000000000 -0.00000000000000 1.00000000000000
0.21439205955335 0.18421836228288 1.48486352357320 0.00000000000000 0.00000000000000 1.00000000000000
0.24776902887139 0.19485564304462 1.57060367454068 0.00000000000000 -0.00000000000000 1.00000000000000
0.26876640419948 0.19485564304462 1.57060367454068 0.00000000000000 0.00000000000000 1.00000000000000
0.28900523560209 0.19434554973822 1.56649214659686 -0.00000000000000 0.00000000000000 -1.00000000000000
-0.26639175257732 0.19175257731959 1.54226804123711 0.00000000000000 0.00000000000000 1.00000000000000
-0.24640826873385 0.19224806201550 1.54625322997416 0.00000000000000 0.00000000000000 1.00000000000000
-0.22457583547558 0.19125964010283 1.53830334190231 0.00000000000000 -0.00000000000000 1.00000000000000
-0.20506459948320 0.19224806201550 1.54625322997416 0.00000000000000 -0.00000000000000 1.00000000000000
-0.18535064935065 0.19324675324675 1.55428571428571 -0.00000000000000 0.00000000000000 -1.00000000000000
-0.16457142857143 0.19324675324675 1.55428571428571 0.00000000000000 -0.00000000000000 1.00000000000000
-0.14416666666667 0.19375000000000 1.55833333333333 0.00000000000000 0.00000000000000 1.00000000000000
-0.11693827160494 0.18370370370370 1.47753086419753 -0.00000000000000 0.00000000000000 1.00000000000000
-0.09742574257426 0.18415841584158 1.48118811881188 nan nan nan
-0.08166666666667 0.19375000000000 1.55833333333333 nan nan nan
-0.06099216710183 0.19425587467363 1.56240208877285 -0.00000000000000 0.00000000000000 -1.00000000000000
-0.03968992248062 0.19224806201550 1.54625322997416 -0.96148078368864 -0.27470879533961 0.00947524989273
-0.01826302729529 0.18461538461538 1.48486352357320 0.00000000000000 0.00000000000000 1.00000000000000
0.00167101827676 0.19425587467363 1.56240208877285 -0.00000000000000 0.00000000000000 -1.00000000000000
0.02255874673629 0.19425587467363 1.56240208877285 -0.00000000000000 0.00000000000000 -1.00000000000000
0.04244897959184 0.18979591836735 1.52653061224490 -0.80287933365914 -0.22939409533118 -0.55023915219680
0.06175438596491 0.18646616541353 1.49974937343358 0.00000000000000 0.00000000000000 1.00000000000000
0.08544502617801 0.19476439790576 1.56649214659686 0.00000000000000 0.00000000000000 1.00000000000000
0.10638743455497 0.19476439790576 1.56649214659686 nan nan nan
0.12699738903394 0.19425587467363 1.56240208877285 0.00000000000000 -0.00000000000000 1.00000000000000
0.14827225130890 0.19476439790576 1.56649214659686 0.00000000000000 -0.00000000000000 1.00000000000000
0.16921465968586 0.19476439790576 1.56649214659686 nan nan nan
0.19065616797900 0.19527559055118 1.57060367454068 0.00000000000000 -0.00000000000000 1.00000000000000
0.19960396039604 0.18415841584158 1.48118811881188 -0.00000000000000 -0.00000000000000 1.00000000000000
0.23265091863517 0.19527559055118 1.57060367454068 0.00000000000000 0.00000000000000 -1.00000000000000
0.25364829396325 0.19527559055118 1.57060367454068 0.00000000000000 -0.00000000000000 1.00000000000000
0.27464566929134 0.19527559055118 1.57060367454068 0.00000000000000 0.00000000000000 1.00000000000000
-0.27907928388747 0.19069053708440 1.53043478260870 0.00000000000000 0.00000000000000 -1.00000000000000
-0.26061855670103 0.19216494845361 1.54226804123711 0.00000000000000 0.00000000000000 1.00000000000000
-0.23938303341902 0.19167095115681 1.53830334190231 0.30809462154937 0.82158565746500 0.47966103825530
-0.21938144329897 0.19216494845361 1.54226804123711 0.00000000000000 0.00000000000000 1.00000000000000
-0.19927648578811 0.19266149870801 1.54625322997416 -0.00000000000000 0.00000000000000 -1.00000000000000
-0.18000000000000 0.19416666666667 1.55833333333333 -0.00000000000000 0.00000000000000 1.00000000000000
-0.15875324675325 0.19366233766234 1.55428571428571 -0.00000000000000 0.00000000000000 -1.00000000000000
-0.13213930348259 0.18547263681592 1.48855721393035 -0.81112582425949 0.29495484518527 -0.50505102368086
-0.11140740740741 0.18409876543210 1.47753086419753 -0.00000000000000 0.00000000000000 1.00000000000000
-0.09210918114144 0.18501240694789 1.48486352357320 0.00000000000000 -0.00000000000000 1.00000000000000
-0.07583333333333 0.19416666666667 1.55833333333333 0.00000000000000 -0.00000000000000 -1.00000000000000
-0.05514360313316 0.19467362924282 1.56240208877285 0.00000000000000 0.00000000000000 1.00000000000000
-0.03280000000000 0.18640000000000 1.49600000000000 -0.83377946733748 0.30319253357727 -0.46139580343717
-0.01273631840796 0.18547263681592 1.48855721393035 0.00000000000000 0.00000000000000 1.00000000000000
0.00751958224543 0.19467362924282 1.56240208877285 -0.00000000000000 0.00000000000000 -1.00000000000000
0.02848167539267 0.19518324607330 1.56649214659686 0.00000000000000 0.00000000000000 1.00000000000000
0.04779746835443 0.18875949367089 1.51493670886076 -0.72658916094863 0.64182042550462 -0.24522384182016
0.06753768844221 0.18733668341709 1.50351758793970 -0.00000000000000 -0.00000000000000 -1.00000000000000
0.09107049608355 0.19467362924282 1.56240208877285 -0.00000000000000 0.00000000000000 -1.00000000000000
0.11225130890052 0.19518324607330 1.56649214659686 nan nan nan
0.13319371727749 0.19518324607330 1.56649214659686 0.00000000000000 0.00000000000000 1.00000000000000
0.15413612565445 0.19518324607330 1.56649214659686 0.00000000000000 -0.00000000000000 1.00000000000000
0.17507853403141 0.19518324607330 1.56649214659686 0.00000000000000 -0.00000000000000 1.00000000000000
0.19653543307087 0.19569553805774 1.57060367454068 -0.00000000000000 0.00000000000000 -1.00000000000000
0.20464197530864 0.18409876543210 1.47753086419753 0.00000000000000 0.00000000000000 1.00000000000000
0.23853018372703 0.19569553805774 1.57060367454068 -0.00000000000000 0.00000000000000 1.00000000000000
0.25952755905512 0.19569553805774 1.57060367454068 -0.00000000000000 0.00000000000000 1.00000000000000
0.27979057591623 0.19518324607330 1.56649214659686 0.00000000000000 -0.00000000000000 1.00000000000000
-0.27405128205128 0.19158974358974 1.53435897435897 -0.00000000000000 -0.00000000000000 1.00000000000000
-0.25484536082474 0.19257731958763 1.54226804123711 0.00000000000000 0.00000000000000 1.00000000000000
-0.23362467866324 0.19208226221080 1.53830334190231 0.00000000000000 0.00000000000000 1.00000000000000
-0.21360824742268 0.19257731958763 1.54226804123711 -0.00000000000000 0.00000000000000 -1.00000000000000
-0.19398963730570 0.19357512953368 1.55025906735751 0.00000000000000 0.00000000000000 1.00000000000000
-0.17416666666667 0.19458333333333 1.55833333333333 0.00000000000000 0.00000000000000 1.00000000000000
-0.15293506493506 0.19407792207792 1.55428571428571 -0.00000000000000 0.00000000000000 -1.00000000000000
-0.12594059405941 0.18495049504950 1.48118811881188 0.00000000000000 -0.00000000000000 1.00000000000000
-0.10587654320988 0.18449382716049 1.47753086419753 -0.00000000000000 0.00000000000000 -1.00000000000000
-0.08741854636591 0.18726817042607 1.49974937343358 -0.68825204405792 -0.68825204405792 0.22938667725086
-0.07000000000000 0.19458333333333 1.55833333333333 0.00000000000000 -0.00000000000000 1.00000000000000
-0.04916666666667 0.19458333333333 1.55833333333333 0.00000000000000 0.00000000000000 -1.00000000000000
-0.02706467661692 0.18587064676617 1.48855721393035 0.00000000000000 -0.00000000000000 -1.00000000000000
-0.00725440806045 0.18821158690176 1.50730478589421 -0.96853826167963 0.20038722655440 0.14757572665054
0.01336814621410 0.19509138381201 1.56240208877285 0.00000000000000 -0.00000000000000 -1.00000000000000
0.03434554973822 0.19560209424084 1.56649214659686 -0.00000000000000 0.00000000000000 1.00000000000000
0.05306532663317 0.18773869346734 1.50351758793970 nan nan nan
0.07544041450777 0.19357512953368 1.55025906735751 0.44882754485303 0.44882754485307 -0.77272742280986
0.09691906005222 0.19509138381201 1.56240208877285 -0.00000000000000 0.00000000000000 1.00000000000000
0.11811518324607 0.19560209424084 1.56649214659686 0.00000000000000 0.00000000000000 1.00000000000000
0.13869451697128 0.19509138381201 1.56240208877285 0.00000000000000 0.00000000000000 1.00000000000000
0.16000000000000 0.19560209424084 1.56649214659686 0.00000000000000 0.00000000000000 1.00000000000000
0.18141732283465 0.19611548556430 1.57060367454068 0.00000000000000 -0.00000000000000 1.00000000000000
0.19280000000000 0.18680000000000 1.49600000000000 -0.00000000000000 -0.00000000000000 1.00000000000000
0.21121588089330 0.18540942928040 1.48486352357320 0.00000000000000 -0.00000000000000 1.00000000000000
0.24440944881890 0.19611548556430 1.57060367454068 0.00000000000000 -0.00000000000000 -1.00000000000000
0.26540682414698 0.19611548556430 1.57060367454068 0.00000000000000 0.00000000000000 1.00000000000000
0.28565445026178 0.19560209424084 1.56649214659686 0.00000000000000 -0.00000000000000 1.00000000000000
-0.26969072164948 0.19298969072165 1.54226804123711 0.30748512459936 0.81996033226496 0.48282289885843
-0.24843187660668 0.19249357326478 1.53830334190231 0.49062782242523 -0.73594173363782 -0.46655557498806
-0.22786632390746 0.19249357326478 1.53830334190231 nan nan nan
-0.20837209302326 0.19348837209302 1.54625322997416 0.00000000000000 0.00000000000000 -1.00000000000000
-0.18867532467532 0.19449350649351 1.55428571428571 -0.00000000000000 0.00000000000000 -1.00000000000000
-0.16789610389610 0.19449350649351 1.55428571428571 0.00000000000000 -0.00000000000000 1.00000000000000
-0.14711688311688 0.19449350649351 1.55428571428571 -0.00000000000000 0.00000000000000 -1.00000000000000
-0.12009876543210 0.18488888888889 1.47753086419753 0.00000000000000 0.00000000000000 -1.00000000000000
-0.10059405940594 0.18534653465347 1.48118811881188 nan nan nan
-0.08500000000000 0.19500000000000 1.55833333333333 -0.00000000000000 0.00000000000000 -1.00000000000000
-0.06416666666667 0.19500000000000 1.55833333333333 0.00000000000000 -0.00000000000000 1.00000000000000
-0.04333333333333 0.19500000000000 1.55833333333333 0.00000000000000 0.00000000000000 1.00000000000000
-0.02149253731343 0.18626865671642 1.48855721393035 0.00000000000000 -0.00000000000000 1.00000000000000
-0.00167101827676 0.19550913838120 1.56240208877285 0.00000000000000 0.00000000000000 1.00000000000000
0.01921671018277 0.19550913838120 1.56240208877285 0.00000000000000 -0.00000000000000 -1.00000000000000
0.04129032258065 0.20129032258065 1.60860215053763 0.99493939813976 -0.06835461513937 -0.07364265488456
0.05869346733668 0.18814070351759 1.50351758793970 0.00000000000000 -0.00000000000000 1.00000000000000
