1.701125122706376256e-04 1.215089373361658546e-04 -1.028147548379771938e-04
2.806055010917109523e-05 4.676758351528527447e-06 -1.252533423210874870e-05
-0.000000000000000000e+00 0.000000000000000000e+00 -1.173114870615076475e-05
4.369158878504697530e-05 -2.912772585669801064e-05 -1.024922118380049900e-05
0.000000000000000000e+00 -0.000000000000000000e+00 1.151882460973370201e-05
0.000000000000000000e+00 -0.000000000000000000e+00 -1.175258214315341720e-20
-2.555116609921458245e-04 2.058288380214498905e-04 9.604555049497160791e-05
0.000000000000000000e+00 0.000000000000000000e+00 2.710505431213761085e-20
6.781299609716347307e-05 1.870703340611403864e-05 -7.879087352178287080e-05
-0.000000000000000000e+00 0.000000000000000000e+00 -6.577162629757783631e-05
-2.806055010917109862e-05 -4.676758351528528294e-06 1.252533423210874870e-05
-1.054556019331603922e-19 7.233661369551724896e-19 -4.891615270393584458e-20
-8.092282310303209843e-05 1.244966509277423428e-05 1.005626691050036968e-05
2.656168940156826099e-06 -1.062467576062734336e-05 3.132006691468189904e-07
-0.000000000000000000e+00 0.000000000000000000e+00 -2.594038400966294788e-20
4.403004403004314796e-06 -1.761201761201728290e-05 4.014504014504170326e-07
1.228814298930002851e-05 -4.915257195720010725e-05 9.561095213599815507e-07
-2.353989598108764531e-05 3.621522458628834628e-06 -8.379854373522468126e-06
-2.207774287546319591e-06 1.103887143773156788e-05 -3.745542207080714060e-07
-3.010881993703032743e-05 -2.509068328085777892e-06 9.361038747579103594e-06
-5.561055650343152374e-06 2.502475042654438389e-05 -1.114813228300787777e-06
-4.111358452194569511e-05 6.325166849530100685e-06 1.170494111379591610e-05
0.000000000000000000e+00 0.000000000000000000e+00 -2.336597876981725291e-07
0.000000000000000000e+00 0.000000000000000000e+00 -2.604626312806973543e-20
-4.403004403004314796e-06 1.761201761201728629e-05 -4.014504014504168209e-07
-6.446717152843468976e-05 9.918026388990008044e-06 2.352481606864465719e-05
1.805945374981133082e-06 -9.029726874905752654e-06 -2.052210653390200991e-08
-2.207774287546320014e-06 1.103887143773156788e-05 -3.745542207080716178e-07
3.019842952017629374e-05 2.516535793348027726e-06 -9.388898981946922293e-06
-3.367591713270640731e-05 -5.612652855451008029e-06 1.079235107218655622e-05
0.000000000000000000e+00 0.000000000000000000e+00 2.663891779396641767e-07
-0.000000000000000000e+00 0.000000000000000000e+00 2.336597876981722114e-07
0.000000000000000000e+00 0.000000000000000000e+00 2.350780532598709683e-07
0.000000000000000000e+00 -0.000000000000000000e+00 -4.132231404958535096e-07
-6.347791957059148275e-05 2.539116782823628224e-06 5.206309603369089340e-05
-1.805945374981133082e-06 9.029726874905752654e-06 2.052210653390200991e-08
-2.220390140618129676e-06 1.110195070309061407e-05 -3.766945305406786945e-07
-1.651714247145885661e-19 -2.546718928879541813e-06 2.924641122871615335e-07
5.561055650343152374e-06 -2.502475042654438389e-05 6.315664137655753188e-07
0.000000000000000000e+00 -0.000000000000000000e+00 2.663891779396646002e-07
0.000000000000000000e+00 -0.000000000000000000e+00 2.336597876981924344e-07
0.000000000000000000e+00 -0.000000000000000000e+00 2.350780532598709683e-07
0.000000000000000000e+00 -0.000000000000000000e+00 2.066115702479200844e-07
0.000000000000000000e+00 0.000000000000000000e+00 4.434774755543878977e-05
9.078014184397255006e-06 -3.994326241134764962e-05 8.558577009140256402e-07
-2.226734112448473739e-06 8.906936449793894956e-06 -1.131228559799969268e-07
-2.561968742825285059e-06 1.024787497130121478e-05 -4.041608444564193940e-07
1.108799439485607351e-05 -4.712397617813835984e-05 1.430099277063836531e-06
0.000000000000000000e+00 0.000000000000000000e+00 -2.663891779396646002e-07
0.000000000000000000e+00 0.000000000000000000e+00 -2.336597876981924344e-07
-0.000000000000000000e+00 0.000000000000000000e+00 1.058791184067875424e-22
0.000000000000000000e+00 0.000000000000000000e+00 -2.066115702479198727e-07
-5.107336354955894375e-05 -6.384170443694851028e-06 -3.868824358853534192e-05
4.312417799940563635e-05 1.499971408674962606e-05 2.587851741838355509e-05
-2.239494766387854880e-06 8.957979065551419518e-06 -1.137711244956398931e-07
-2.577355942482049139e-06 1.030942376992827109e-05 -4.065882369156249839e-07
0.000000000000000000e+00 0.000000000000000000e+00 -6.776263578034402713e-21
-2.538228245424268526e-05 1.078747004305319383e-04 -3.224533944137006411e-06
0.000000000000000000e+00 0.000000000000000000e+00 -1.185846126156020475e-20
0.000000000000000000e+00 -0.000000000000000000e+00 0.000000000000000000e+00
0.000000000000000000e+00 0.000000000000000000e+00 4.658681209898651865e-21
-1.869910448819876858e-05 -1.869910448819879907e-05 1.026200854599696470e-05
-4.014422133527163427e-06 1.605768853410853174e-05 -2.576099764830066226e-07
-2.045584567619135319e-19 7.487771253728014997e-19 -2.329340604949325932e-21
1.270549420881450509e-19 -5.319366908757006129e-19 2.286988957586610915e-20
0.000000000000000000e+00 -0.000000000000000000e+00 -6.670384459627615170e-21
-5.948134871061516098e-05 -4.248667765043945781e-05 3.841181902123712419e-05
0.000000000000000000e+00 -0.000000000000000000e+00 -1.175258214315341720e-20
0.000000000000000000e+00 0.000000000000000000e+00 0.000000000000000000e+00
0.000000000000000000e+00 -0.000000000000000000e+00 4.764560328305439407e-21
1.869910448819876858e-05 1.869910448819879907e-05 -1.026200854599696301e-05
3.378548138947299131e-05 -1.351419255578921008e-04 2.168052281677431174e-06
-2.265310054849793412e-06 9.061240219399243105e-06 -1.150825963693763933e-07
-9.529120656610878815e-20 3.760826285809093505e-19 -1.439956010332310576e-20
0.000000000000000000e+00 0.000000000000000000e+00 6.776263578034402713e-21
0.000000000000000000e+00 0.000000000000000000e+00 1.173114870615084267e-05
-0.000000000000000000e+00 0.000000000000000000e+00 1.694065894508600678e-21
-9.486769009248163798e-20 2.100641709190664841e-19 -2.043466985250999568e-20
-0.000000000000000000e+00 0.000000000000000000e+00 -9.529120656610878815e-21
-4.882382037827397029e-06 1.952952815130966943e-05 5.194515071315269688e-05
0.000000000000000000e+00 0.000000000000000000e+00 6.140988867593677458e-21
0.000000000000000000e+00 0.000000000000000000e+00 1.035803937111903901e-05
3.158629901172989188e-05 5.264383168621604318e-06 -1.016631214849443599e-05
-2.696782541036988067e-06 1.078713016414803020e-05 -3.893750192941217556e-07
3.216526085309626566e-05 5.360876808849364339e-06 1.243823756919535629e-05
0.000000000000000000e+00 0.000000000000000000e+00 1.694065894508600678e-21
2.624263296406291066e-06 -1.049705318562508464e-05 2.736531244915758044e-07
0.000000000000000000e+00 -0.000000000000000000e+00 -9.529120656610878815e-21
3.103734439833960731e-04 2.069156293222627725e-05 1.564619640387275817e-04
-0.000000000000000000e+00 0.000000000000000000e+00 -6.140988867593677458e-21
0.000000000000000000e+00 0.000000000000000000e+00 1.069197099802873508e-05
-3.505817303348115446e-05 5.393565082074054061e-06 9.954300261769178469e-06
5.543997197428056235e-06 -2.217598878971214701e-05 8.004701835858928443e-07
0.000000000000000000e+00 -0.000000000000000000e+00 1.175390266299358907e-05
4.278110848691639298e-05 -4.529764428026438302e-05 5.817302192885077103e-05
2.608501955286654679e-06 -1.043400782114653910e-05 2.720095621823049536e-07
-0.000000000000000000e+00 0.000000000000000000e+00 4.764560328305439407e-21
2.151768410852719063e-04 2.604772286821712963e-04 4.043271560077519846e-05
0.000000000000000000e+00 0.000000000000000000e+00 -6.140988867593677458e-21
-9.148876140317911492e-05 4.815197968588237607e-06 1.603242050904988493e-05
-1.046085689859060919e-19 6.166399856011306468e-19 -3.938703204732496577e-20
5.543997197428056235e-06 -2.217598878971214701e-05 8.004701835858928443e-07
0.000000000000000000e+00 0.000000000000000000e+00 1.151882460973370201e-05
7.286527514231431525e-06 -2.914611005692582774e-05 8.572385310860637721e-07
0.000000000000000000e+00 0.000000000000000000e+00 -4.235164736271501695e-22
0.000000000000000000e+00 -0.000000000000000000e+00 4.764560328305439407e-21
2.197007961321588150e-04 3.640756050190080916e-04 1.069283271259255537e-04
-5.901892464999941329e-05 3.256216532413773912e-05 1.153061970619094780e-05
2.435949405285784666e-04 6.231498478637976233e-05 -1.518378673419726744e-04
-3.275845905500654595e-05 -2.729871587917225150e-06 1.019358867942676254e-05
0.000000000000000000e+00 0.000000000000000000e+00 -2.075230720773035831e-20
2.648144260579299957e-06 -1.059257704231727606e-05 3.469493817336281506e-07
2.421719799451296581e-06 -9.686879197805257476e-06 2.849082117001543078e-07
-0.000000000000000000e+00 0.000000000000000000e+00 4.235164736271501695e-22
-0.000000000000000000e+00 0.000000000000000000e+00 -9.529120656610878815e-21
1.489639770195467583e-05 -5.958559080781873044e-05 1.155068271007179406e-06
9.905234843782287867e-05 1.238154355472779376e-05 -2.439726877715707283e-05
3.831866249148201678e-05 6.386443748580358436e-06 -1.570569956619481816e-05
2.405084277424700468e-05 3.741242209327308075e-05 3.546534703207815685e-05
-0.000000000000000000e+00 0.000000000000000000e+00 2.054054897091678322e-20
2.632191584310802159e-06 -1.052876633724328487e-05 3.448593252171875250e-07
-2.421719799451296581e-06 9.686879197805257476e-06 -2.849082117001648957e-07
-0.000000000000000000e+00 0.000000000000000000e+00 -1.334076891925523034e-20
0.000000000000000000e+00 -0.000000000000000000e+00 -2.212873574701859636e-20
0.000000000000000000e+00 0.000000000000000000e+00 -2.835538752362946001e-05
5.194474035360917107e-05 6.493092544201179418e-06 -2.041938715471201875e-05
3.010881993703032743e-05 2.509068328085777892e-06 -9.361038747579010421e-06
2.509068328085814738e-06 -1.003627331234340464e-05 3.958155918638321525e-07
0.000000000000000000e+00 -0.000000000000000000e+00 3.070494433796838729e-20
0.000000000000000000e+00 0.000000000000000000e+00 1.334076891925523034e-20
-7.286527514231431525e-06 2.914611005692582774e-05 -8.572385310860743600e-07
0.000000000000000000e+00 0.000000000000000000e+00 -1.334076891925523034e-20
-0.000000000000000000e+00 0.000000000000000000e+00 -6.246867986000465001e-21
8.448768698174055679e-05 -7.920720654538190159e-05 9.465825939439099081e-05
2.226734112448470351e-05 2.226734112448466963e-05 -2.460422117564973536e-05
-5.675120746603812272e-20 6.776263578034402713e-21 1.630538423464528153e-20
-2.509068328085814738e-06 1.003627331234340464e-05 -3.958155918638319407e-07
0.000000000000000000e+00 0.000000000000000000e+00 -3.049318610115481221e-20
-0.000000000000000000e+00 0.000000000000000000e+00 -1.334076891925523034e-20
4.278110848691639298e-05 -4.529764428026438302e-05 5.817302192885077103e-05
2.577355942482049139e-06 -1.030942376992824399e-05 2.687617159272714320e-07
0.000000000000000000e+00 0.000000000000000000e+00 -6.352747104407252543e-21
-7.540396811176933558e-06 3.016158724470779522e-05 -3.788343745508457002e-05
0.000000000000000000e+00 0.000000000000000000e+00 6.352747104407252543e-21
1.228197773518735492e-19 -4.116580123655899648e-19 1.164670302474662966e-20
-2.516535793348027726e-06 1.006614317339203636e-05 -3.969936144586469440e-07
-4.209489641588299728e-05 2.806326427725531797e-05 1.007351130807926040e-05
0.000000000000000000e+00 -0.000000000000000000e+00 -1.334076891925523034e-20
1.040267446432627038e-05 -4.161069785730511539e-05 1.223844054626588355e-06
-2.577355942482049139e-06 1.030942376992824399e-05 -2.687617159272715379e-07
4.616550418111940984e-05 1.405037083773202214e-05 -4.743824881220021542e-05
-0.000000000000000000e+00 0.000000000000000000e+00 -2.835538752362946001e-05
0.000000000000000000e+00 -0.000000000000000000e+00 6.352747104407252543e-21
-1.147729643529576959e-19 5.878408653944844353e-19 -3.494010907423988899e-20
-2.531559887636690002e-06 1.012623955054668716e-05 -3.993637255897197535e-07
-4.822278988436346165e-04 1.360129971097426445e-04 -1.292768162246909721e-04
0.000000000000000000e+00 -0.000000000000000000e+00 1.694065894508600678e-21
-2.632191584310840276e-06 1.052876633724328487e-05 -3.096695981542205763e-07
4.570450934864938003e-05 7.109590343123234032e-05 8.873409643298479132e-06
1.869910448819876858e-05 1.869910448819879907e-05 -1.026200854599696301e-05
-1.926071760979125997e-05 -2.996111628189761038e-05 5.236614890255642917e-05
0.000000000000000000e+00 0.000000000000000000e+00 -6.352747104407252543e-21
-2.585095750117143038e-06 1.034038300046857215e-05 -4.423693262232614738e-07
1.588186776101813136e-19 -3.472835083742631390e-19 -8.893845946170153560e-21
6.812685077683781898e-04 -8.023829091494161540e-04 1.444730462062212032e-03
-0.000000000000000000e+00 0.000000000000000000e+00 -1.175258214315341720e-20
2.632191584310840276e-06 -1.052876633724328487e-05 3.096695981542204704e-07
-6.538643458518550618e-05 2.906063759341579106e-05 1.025999796638670761e-04
-1.207952974910406159e-04 -6.039764874552040280e-05 -1.136089462365589024e-05
2.424348950176952687e-05 -3.729767615656861984e-06 -8.252360165657379084e-07
-1.596657105574356139e-19 8.673617379884035472e-19 -3.811648262644351526e-20
-2.600668616081567594e-06 1.040267446432627038e-05 -4.450342016824089716e-07
-1.634773588200799654e-19 6.166399856011306468e-19 -2.138758191817108356e-20
-5.519137250506373805e-04 3.142842045427241362e-04 1.140597103352228390e-06
0.000000000000000000e+00 0.000000000000000000e+00 -1.185846126156020475e-20
9.867933835512598950e-20 -3.184843881676169275e-19 1.619950511623849398e-20
1.328895601319287083e-04 2.702838511157770458e-05 7.819080553869603130e-05
1.506119238634593522e-04 -2.036050081857846913e-04 -2.637711009735548679e-04
0.000000000000000000e+00 -0.000000000000000000e+00 -1.821120836596745729e-20
-2.304782220900792674e-06 9.219128883603240154e-06 -1.479004633733293277e-07
-8.089164646278568238e-20 2.524158182817815010e-19 -5.293955920339377119e-21
0.000000000000000000e+00 0.000000000000000000e+00 1.334076891925523034e-20
0.000000000000000000e+00 0.000000000000000000e+00 -1.182546354893244692e-05
2.608501955286655103e-06 -1.043400782114654248e-05 3.417556037674997785e-07
2.600668616081567594e-06 -1.040267446432627885e-05 3.059610136566474065e-07
0.000000000000000000e+00 0.000000000000000000e+00 1.033057851239671869e-05
-2.100897219177827371e-03 -4.001708988910156976e-04 5.626467036947596688e-04
0.000000000000000000e+00 0.000000000000000000e+00 1.821120836596745729e-20
-2.318143277253756731e-06 9.272573109015096380e-06 -1.487578573638809851e-07
4.023406499457926611e-20 -1.355252715606880543e-19 4.023406499457926611e-21
0.000000000000000000e+00 -0.000000000000000000e+00 1.334076891925523034e-20
2.680438404424701651e-06 -1.072175361769872868e-05 3.870151706923453912e-07
7.329515877147251360e-06 -2.931806350858909353e-05 3.417827724530723467e-05
2.585095750117143038e-06 -1.034038300046857893e-05 3.041289117784931897e-07
-2.201502201502140457e-06 8.806008806008663474e-06 -2.295684113866021061e-07
2.151768410852719334e-04 2.604772286821712963e-04 4.043271560077520523e-05
0.000000000000000000e+00 0.000000000000000000e+00 6.577162629757783631e-05
2.789835039755830223e-05 4.649725066259653511e-06 -1.239823080836217783e-05
-8.046812998915853221e-21 3.726944967918921492e-20 -2.117582368135750848e-21
-0.000000000000000000e+00 0.000000000000000000e+00 1.334076891925523034e-20
-3.187402728188199451e-05 -5.312337880313652198e-06 -1.232561817016635626e-05
0.000000000000000000e+00 0.000000000000000000e+00 2.731681254895118593e-20
0.000000000000000000e+00 0.000000000000000000e+00 -1.207021949837377983e-20
-2.207774287546320014e-06 8.831097150185313938e-06 -2.302224524446765811e-07
-1.545260593148996080e-04 5.328484803961882070e-06 -1.198303571254653995e-04
-1.868613138685915975e-05 -3.877372262773696489e-04 -3.263609040165499180e-04
-5.661290936525588662e-05 -9.435484894209161406e-06 1.427937018749335560e-05
2.414043899674755966e-20 -6.098637220230962441e-20 0.000000000000000000e+00
0.000000000000000000e+00 -0.000000000000000000e+00 0.000000000000000000e+00
0.000000000000000000e+00 0.000000000000000000e+00 9.952637130238028984e-21
0.000000000000000000e+00 -0.000000000000000000e+00 2.742269166735797348e-20
0.000000000000000000e+00 -0.000000000000000000e+00 -1.207021949837377983e-20
2.207774287546320014e-06 -8.831097150185313938e-06 2.302224524446496879e-07
-8.354147629201059771e-05 1.518935932582006802e-05 -2.298974515179206114e-04
1.701125122706375985e-04 1.215089373361658546e-04 -1.028147548379771802e-04
8.476019298079602452e-05 9.686879197805330321e-06 -3.200296239788281830e-05
-2.705004439027983054e-06 1.082001775611200845e-05 -4.628884601545310066e-07
-0.000000000000000000e+00 0.000000000000000000e+00 -3.282252670610413814e-21
-0.000000000000000000e+00 0.000000000000000000e+00 -1.005851624864481653e-20
0.000000000000000000e+00 -0.000000000000000000e+00 -2.657565872010367314e-20
-0.000000000000000000e+00 0.000000000000000000e+00 8.470329472543003391e-22
6.604506604506523016e-06 -2.641802641802590572e-05 6.887052341597290266e-07
5.822686392608418960e-05 -3.807141102859353465e-05 -8.010175779194197358e-05
3.056062714655690055e-05 -1.222425085862385255e-04 2.733705297294536547e-04
-3.831866249148201678e-05 -6.386443748580358436e-06 1.570569956619481816e-05
2.705004439027983054e-06 -1.082001775611200845e-05 4.628884601545311125e-07
0.000000000000000000e+00 0.000000000000000000e+00 -3.388131789017201356e-21
0.000000000000000000e+00 0.000000000000000000e+00 -9.952637130238028984e-21
0.000000000000000000e+00 0.000000000000000000e+00 2.668153783851046068e-20
0.000000000000000000e+00 0.000000000000000000e+00 8.470329472543003391e-22
2.964615315390051187e-19 -1.212951180468158086e-18 3.642241673193491458e-20
0.000000000000000000e+00 0.000000000000000000e+00 -2.268431001890392851e-06
4.911459936390841674e-05 6.139324920488519906e-06 3.429239766081853630e-05
3.213889977036380287e-05 2.892500979332754456e-05 -1.585418800303038770e-05
3.300851817670757645e-05 -7.617350348470995210e-06 1.291724745144213599e-05
-2.600668616081568018e-06 1.040267446432630765e-05 -4.102659046759802535e-07
0.000000000000000000e+00 0.000000000000000000e+00 -1.672890070827243170e-20
2.407557695360950382e-06 -9.630230781443889618e-06 -1.069238858822079693e-05
0.000000000000000000e+00 0.000000000000000000e+00 1.337868480725621642e-05
-2.182827885626280323e-05 -1.964545097063651478e-05 -1.913505445032053306e-05
1.192573379639771708e-04 -4.209082516375667842e-05 4.310558168842802430e-05
-8.271314479601784653e-05 6.529985115475189352e-06 1.129041410406947773e-05
3.261788826511614089e-05 -5.018136656171702321e-06 -9.227870281502824451e-06
2.784715876400355403e-05 1.518935932582014086e-05 1.216028700037228339e-05
0.000000000000000000e+00 0.000000000000000000e+00 1.182546354893247064e-05
-0.000000000000000000e+00 0.000000000000000000e+00 1.662302158986564415e-20
-4.278110848691639298e-05 4.529764428026438302e-05 -5.817302192885077103e-05
7.165534522139594840e-05 2.773755298892705164e-05 -3.544696109908432980e-05
5.150837962692062666e-05 -1.119747383193927440e-05 -3.711244020817491818e-05
2.455353146236594411e-03 3.327916661014888432e-03 -3.837174287535786467e-04
2.944903071304752146e-05 -4.530620109699586824e-06 -1.184442195791085473e-05
2.710505431213761085e-20 3.896351557369781560e-20 -1.249373597200093000e-20
-2.577355942482064131e-05 -2.319620348233855279e-05 1.086934401144306085e-05
0.000000000000000000e+00 -0.000000000000000000e+00 -1.204411155858329253e-05
-0.000000000000000000e+00 0.000000000000000000e+00 -1.334076891925523034e-20
-2.656168940156826099e-06 1.062467576062732981e-05 1.113602379188756622e-05
0.000000000000000000e+00 -0.000000000000000000e+00 1.018173553786087507e-05
6.347791957059148275e-05 -2.539116782823628224e-06 -1.248420583648919210e-04
2.311603470831047509e-03 8.759760521043973708e-03 9.954273319368177764e-04
1.617832929255713648e-19 -7.132017415881208855e-19 2.075230720773035831e-20
9.783230540787168916e-20 -3.743885626864007499e-19 1.588186776101813136e-20
1.914294460794718766e-19 -4.540096597283049817e-19 -5.082197683525802034e-21
-2.771998598714028118e-06 1.108799439485607351e-05 -4.372938965885681669e-07
0.000000000000000000e+00 -0.000000000000000000e+00 -1.175258214315341720e-20
2.656168940156826099e-06 -1.062467576062732981e-05 -1.113602379188756622e-05
-0.000000000000000000e+00 0.000000000000000000e+00 0.000000000000000000e+00
3.916571272237700195e-06 1.860371354312908372e-04 7.311081396482796283e-05
-2.468103182088452092e-04 -1.121377315340179757e-03 -3.474690171856202668e-04
0.000000000000000000e+00 0.000000000000000000e+00 -6.352747104407252543e-21
-2.248872474960167400e-19 5.251604272976662102e-19 4.023406499457926611e-21
-2.340601754473407023e-05 -3.640936062514194802e-05 1.172734658027177849e-05
-5.561055650343191338e-06 2.224422260137280601e-05 -8.772788325407682034e-07
-0.000000000000000000e+00 0.000000000000000000e+00 1.694065894508600678e-21
-2.886689626046897599e-05 -1.574557977843762358e-05 -1.120223623719936882e-05
4.365655771252573521e-06 -1.746262308501024665e-05 5.136065613238156369e-07
-4.616550418111940984e-05 -1.405037083773202045e-05 4.743824881220021542e-05
1.437157387226762533e-04 1.241181379877658194e-04 -8.524598253005775169e-04
-0.000000000000000000e+00 0.000000000000000000e+00 6.458626222814040085e-21
1.732182377135044193e-19 -4.929731753020027973e-19 7.623296525288703052e-21
2.680543957350565868e-04 4.070455638939744054e-04 -4.266138710230432999e-05
5.595383154357360150e-06 -2.238153261742947787e-05 8.826941339761517203e-07
0.000000000000000000e+00 0.000000000000000000e+00 1.694065894508600678e-21
-2.561968742825285059e-06 1.024787497130119445e-05 -3.356590064129425082e-07
0.000000000000000000e+00 0.000000000000000000e+00 0.000000000000000000e+00
1.519234952706632012e-04 -7.596174763533157352e-05 8.143546180317231729e-05
-4.861802489273798453e-05 7.479696137344328638e-06 1.095455497120425303e-05
0.000000000000000000e+00 0.000000000000000000e+00 6.564505341220827628e-21
-6.606856988583542645e-20 3.540597719522975417e-19 -2.308164781267968424e-20
-4.150793579181979022e-04 -3.543360372472423086e-04 4.954433486424772535e-05
-5.595383154357360150e-06 2.238153261742948126e-05 -8.826941339761519320e-07
2.358851289878538543e-06 -9.435405159514286309e-06 1.115724045934529467e-05
2.561968742825285059e-06 -1.024787497130119445e-05 3.356590064129426141e-07
-4.365655771252573521e-06 1.746262308501024665e-05 -5.136065613238158487e-07
-5.701788863693646936e-04 -3.179843789367655890e-04 -2.541866739961976614e-04
3.082264104294213516e-05 -2.696981091257434878e-05 -9.830382759100219847e-06
0.000000000000000000e+00 0.000000000000000000e+00 -1.075404326822099398e-05
3.134021904840911255e-20 -2.574980159653073031e-19 2.181109839179823373e-20
0.000000000000000000e+00 0.000000000000000000e+00 -6.564505341220827628e-21
-2.939547450185743511e-05 -1.603389518283132516e-05 -1.201470354274998485e-05
0.000000000000000000e+00 0.000000000000000000e+00 -2.150808653643937910e-07
2.554321074936273636e-06 -1.021728429974507252e-05 3.346570392296273095e-07
-4.378058202420923976e-06 1.751223280968358071e-05 -5.150656708730251412e-07
-5.826225805195188283e-06 -9.904583868832031500e-05 3.384118082330484639e-05
-3.082264104294212838e-05 2.696981091257435217e-05 9.830382759100221541e-06
0.000000000000000000e+00 0.000000000000000000e+00 1.075404326822099398e-05
-2.541098841762901017e-20 1.236668102991278495e-19 -7.199780051661552882e-21
0.000000000000000000e+00 -0.000000000000000000e+00 -6.670384459627615170e-21
0.000000000000000000e+00 0.000000000000000000e+00 1.015790565340116311e-05
-0.000000000000000000e+00 0.000000000000000000e+00 2.150808653643937910e-07
2.539116782823665070e-06 -1.015646713129463826e-05 3.326650330437538131e-07
1.998351126556323273e-05 3.108546196865390101e-05 -3.251327969276694479e-05
3.200894505623451554e-04 2.478111875321384349e-04 -1.022607663345631221e-04
-3.866757132241339072e-05 -4.680811265344796102e-05 1.481377185330297078e-05
2.838874088810126943e-05 4.731456814683468954e-06 -1.822559695206910814e-05
-2.680438404424701651e-06 1.340219202212350783e-05 -8.202571534395880867e-07
-0.000000000000000000e+00 0.000000000000000000e+00 2.294811574455952633e-07
-0.000000000000000000e+00 0.000000000000000000e+00 -1.015790565340116311e-05
2.549957604979132404e-05 -0.000000000000000000e+00 9.695293353690686842e-06
0.000000000000000000e+00 0.000000000000000000e+00 1.247165532879821008e-05
4.378058202420923976e-06 -1.751223280968358071e-05 9.271182075715141602e-07
-2.070535994261977087e-04 -8.052084422129913153e-05 6.792446845703891626e-05
3.866757132241339072e-05 4.680811265344796102e-05 -1.481377185330297078e-05
-2.885878233532670556e-04 6.823618626951128644e-04 8.645075959672211385e-04
0.000000000000000000e+00 0.000000000000000000e+00 1.466357480067634030e-05
0.000000000000000000e+00 0.000000000000000000e+00 2.294811574455950515e-07
0.000000000000000000e+00 0.000000000000000000e+00 9.580051295625245005e-06
-4.676758351528527447e-06 2.104541258187832904e-05 -9.688017467504687828e-07
-0.000000000000000000e+00 0.000000000000000000e+00 -1.247165532879821008e-05
2.182827885626280323e-05 1.964545097063651478e-05 1.110002998470119500e-05
2.285354198392766049e-05 5.119193404400520196e-04 4.366884133038628313e-04
-1.887081031902853196e-05 -1.297368209433212224e-04 -1.470677554804660750e-04
3.245194100189472352e-05 2.920674690170468060e-05 -1.600861191215085608e-05
3.421849059604069700e-05 -2.105753267448656635e-05 4.651730020455134437e-05
0.000000000000000000e+00 0.000000000000000000e+00 2.985791139071408695e-20
-0.000000000000000000e+00 0.000000000000000000e+00 -9.580051295625245005e-06
-2.814212147576753759e-05 -2.345176789647291976e-06 1.043133381929912666e-05
-7.165534522139594840e-05 -2.773755298892705164e-05 3.544696109908432980e-05
9.093321332343537802e-05 -4.196917538004774182e-05 7.369293441731886922e-05
-4.636028386377024794e-05 -3.863356988647510497e-06 2.025834908632644993e-05
-9.063997787110028050e-05 -1.359599668066507189e-04 5.574722168395678857e-05
-3.245194100189471674e-05 -2.920674690170468060e-05 1.600861191215085608e-05
-2.561968742825299967e-05 -2.305771868542767734e-05 -1.161756922298046510e-05
0.000000000000000000e+00 -0.000000000000000000e+00 2.985791139071408695e-20
0.000000000000000000e+00 0.000000000000000000e+00 -1.016439536705160407e-20
1.793378119977706995e-05 5.380134359933127423e-05 5.432641018793580396e-05
-2.442429154679945735e-05 -1.110195070309067337e-05 -9.637027528765384189e-06
0.000000000000000000e+00 0.000000000000000000e+00 1.229080932784635932e-05
1.762377914318174276e-05 3.916395365151539612e-06 6.538495363638183811e-06
-1.822693277562008478e-05 -2.050529937257265510e-05 1.024929914717348319e-05
3.242488300910910956e-05 -7.482665309794367613e-06 -8.870159532345917624e-06
3.320617397417148145e-05 -7.662963224808820483e-06 1.299459623857649589e-05
-0.000000000000000000e+00 0.000000000000000000e+00 2.985791139071408695e-20
0.000000000000000000e+00 -0.000000000000000000e+00 -1.005851624864481653e-20
5.377220945461453396e-06 8.065831418192488414e-06 -5.688855341164644108e-06
1.598774687942491890e-19 -4.658681209898651865e-19 3.123433993000232500e-20
-0.000000000000000000e+00 0.000000000000000000e+00 -1.229080932784635932e-05
1.762377914318174276e-05 3.916395365151539612e-06 6.538495363638183811e-06
0.000000000000000000e+00 0.000000000000000000e+00 -6.352747104407252543e-21
-7.284483346386982916e-20 9.994988777600744001e-20 9.740878893424453899e-21
2.581335623033496787e-04 1.843811159309640020e-04 -1.491367149205222674e-04
0.000000000000000000e+00 -0.000000000000000000e+00 2.985791139071408695e-20
-0.000000000000000000e+00 0.000000000000000000e+00 -6.670384459627615170e-21
-2.656168940156826099e-06 1.062467576062732981e-05 1.113602379188756622e-05
2.428551716300955234e-05 1.103887143773162548e-05 9.582271690533815560e-06
5.208898782767532650e-04 -1.195484966536812901e-04 -4.441057693679806241e-05
2.099321396451633750e-04 5.088185757501409966e-04 -1.505168535985312210e-04
-0.000000000000000000e+00 0.000000000000000000e+00 6.458626222814040085e-21
-2.516535793348027726e-06 1.006614317339203636e-05 -4.972513238727606373e-07
-3.279333367838096949e-04 -5.465555613063505756e-05 -2.197304365563832861e-04
-0.000000000000000000e+00 0.000000000000000000e+00 1.662302158986564415e-20
0.000000000000000000e+00 -0.000000000000000000e+00 -2.181109839179823373e-20
-6.015662894768368627e-05 1.132038381106369260e-03 5.251210176472029560e-04
5.176750473100853126e-04 2.109046489041088712e-04 -3.612447007699778390e-04
2.772050926244627869e-05 1.386025463122308852e-05 -1.132167858245697171e-06
1.799576827927929119e-03 -3.559602516780478146e-04 4.041759807575951444e-04
0.000000000000000000e+00 0.000000000000000000e+00 6.564505341220827628e-21
-2.531559887636690002e-06 1.012623955054668716e-05 -5.002199884928946904e-07
1.088391146031032937e-03 7.730269270397132318e-04 8.797986105671605191e-04
0.000000000000000000e+00 -0.000000000000000000e+00 -2.318752693108647178e-20
-0.000000000000000000e+00 0.000000000000000000e+00 -2.509335106240864754e-20
-2.645676099212901800e-04 1.992422741382555811e-04 5.587407842861128945e-04
8.171669834339719007e-05 8.288407974830280323e-04 -4.905327299391682577e-04
1.608698138046606643e-05 9.192560788837770153e-06 3.960297746260497455e-06
-1.336260353647267967e-04 -3.597624029050435455e-05 1.091235772860476650e-04
0.000000000000000000e+00 -0.000000000000000000e+00 8.125897958501779772e-06
1.660184576618428665e-19 -5.014435047745458007e-19 1.228197773518735492e-20
-2.581335623033496787e-04 -1.843811159309640020e-04 1.491367149205222674e-04
-0.000000000000000000e+00 0.000000000000000000e+00 -2.646977960169688560e-20
0.000000000000000000e+00 0.000000000000000000e+00 -2.519923018081543509e-20
0.000000000000000000e+00 0.000000000000000000e+00 8.212073958565400725e-06
-5.352822152023767408e-04 1.119866739699712033e-03 4.886606483551454239e-04
1.594856617866758223e-05 2.278366596952515765e-05 -9.274292265242346797e-06
2.239494766387854541e-05 -2.015545289749069222e-05 -3.421247412432021866e-05
-0.000000000000000000e+00 0.000000000000000000e+00 -8.125897958501779772e-06
-1.914294460794718766e-19 -2.569662342652851618e-06 3.218948683243609530e-07
1.689057117171289198e-05 -1.013434270302765591e-04 3.594891618364493489e-06
0.000000000000000000e+00 0.000000000000000000e+00 -2.646977960169688560e-20
1.044420293605199430e-04 8.501095413065561535e-05 1.096540645963918248e-04
-0.000000000000000000e+00 0.000000000000000000e+00 -8.212073958565400725e-06
-2.421652421652378305e-05 -8.806008806008629592e-06 8.099644463280818060e-06
1.094746002393121411e-04 6.361361905797892910e-04 -2.111333722298583317e-04
4.597146875627906209e-04 1.082097649186262219e-03 -2.657561252349040118e-04
0.000000000000000000e+00 0.000000000000000000e+00 -9.734991887506786454e-06
-3.619134050163999914e-05 2.068076600093714430e-05 1.162463645065993642e-05
-2.755044478844040880e-05 1.377522239422028233e-05 1.763707284350963001e-05
-2.305771868542775188e-05 2.561968742825321905e-06 9.382354247622407323e-06
0.000000000000000000e+00 0.000000000000000000e+00 -1.881786895653045556e-05
0.000000000000000000e+00 0.000000000000000000e+00 1.655328798185939698e-05
0.000000000000000000e+00 0.000000000000000000e+00 8.850285085267595446e-05
-1.112396886255373810e-04 -2.016219356337871620e-04 9.101893807366104208e-05
-4.093214146910190794e-04 -1.736515092628616527e-04 -7.483298872911000200e-04
-1.324179441361806567e-04 -2.889118781153045224e-05 2.289922755863962113e-05
3.442587538753116329e-05 -2.118515408463455212e-05 -1.999561334726227937e-05
1.306971131532535168e-04 -1.392208379241171483e-04 -5.125136417818230153e-05
0.000000000000000000e+00 -0.000000000000000000e+00 -1.015790565340116311e-05
0.000000000000000000e+00 0.000000000000000000e+00 1.881786895653045556e-05
-0.000000000000000000e+00 0.000000000000000000e+00 -1.655328798185939698e-05
3.291027853927682307e-05 5.822587741564370700e-05 2.938877043354666866e-05
8.171669834339719007e-05 8.288407974830280323e-04 -5.271023570511332301e-04
-1.822693277562008478e-05 -2.050529937257265510e-05 1.533724508774790305e-05
8.023227417035239638e-04 -4.632458687216747155e-04 -5.158191287803213024e-04
5.344631727610428732e-06 -2.939547450185739784e-05 6.305665106438901012e-07
0.000000000000000000e+00 0.000000000000000000e+00 -1.619603475161504670e-05
0.000000000000000000e+00 0.000000000000000000e+00 -1.658984492657058986e-05
9.994249870562585370e-05 2.855499963017879501e-05 -8.734470475113408099e-06
-4.815115390721909233e-06 -8.667207703299502689e-05 -2.417638538545288933e-04
-2.214082214082279860e-05 1.549857549857522345e-05 1.293550893550898970e-05
8.041315213274061332e-05 4.020657606637033376e-05 1.555854738290228610e-04
0.000000000000000000e+00 0.000000000000000000e+00 -3.197549375884983780e-20
2.443171959049131079e-06 -9.772687836196451472e-06 5.075787733104492141e-07
8.041315213274027450e-06 -3.216526085309634019e-05 1.563111272740709912e-06
0.000000000000000000e+00 -0.000000000000000000e+00 6.843394965471182447e-07
0.000000000000000000e+00 -0.000000000000000000e+00 7.009793630945217165e-07
-4.626719249085944311e-05 -2.177279646628664509e-05 9.591819191915965397e-06
-7.649872814937393824e-05 3.245400588155260778e-05 -8.468846802166089555e-05
-2.239531434933660493e-06 2.239531434933707927e-05 -1.411982653361962864e-06
-1.762377914318174276e-05 -3.916395365151539612e-06 -6.538495363638183811e-06
-0.000000000000000000e+00 0.000000000000000000e+00 3.197549375884983780e-20
-2.443171959049131079e-06 9.772687836196451472e-06 -5.075787733104494259e-07
0.000000000000000000e+00 -0.000000000000000000e+00 7.052341597795777529e-07
0.000000000000000000e+00 -0.000000000000000000e+00 0.000000000000000000e+00
0.000000000000000000e+00 -0.000000000000000000e+00 6.670384459627615170e-21
-4.626719249085944311e-05 -2.177279646628664848e-05 9.591819191915965397e-06
-1.361089241254212251e-04 -7.249279654506114853e-04 1.117040180747414511e-04
2.278366596952502128e-06 -9.113466387810042392e-06 2.905831194509013502e-07
6.120581516943522974e-05 -1.974381134497891707e-05 -8.689388629367816771e-06
0.000000000000000000e+00 0.000000000000000000e+00 3.218725199566341288e-20
0.000000000000000000e+00 0.000000000000000000e+00 -4.455234465415136044e-07
-0.000000000000000000e+00 0.000000000000000000e+00 4.701561065196870911e-07
-0.000000000000000000e+00 0.000000000000000000e+00 3.282252670610413814e-21
-0.000000000000000000e+00 0.000000000000000000e+00 -7.944432781737993467e-06
9.879172470721780865e-04 -3.076950592443541011e-03 -9.604031023749339153e-04
1.319315605029895157e-05 -5.277262420119544037e-05 -3.969940593317214080e-05
-2.278366596952502128e-06 9.113466387810042392e-06 -2.905831194509015620e-07
2.239494766387854880e-05 -2.015545289749069222e-05 -3.421247412432022544e-05
0.000000000000000000e+00 -0.000000000000000000e+00 7.270540278659474325e-06
-0.000000000000000000e+00 0.000000000000000000e+00 4.455234465415137103e-07
-8.041315213274027450e-06 3.216526085309634019e-05 -1.563111272740730452e-06
-0.000000000000000000e+00 0.000000000000000000e+00 4.562263310314089161e-07
0.000000000000000000e+00 0.000000000000000000e+00 8.825664102191920364e-06
3.118615801542662901e-04 2.875606778045917142e-04 -1.995976381342235133e-03
-2.744868823457645142e-05 4.117303235186213603e-04 1.709928510249277933e-04
-1.599452746448510384e-05 -9.139729979705792256e-06 7.510340951906916389e-06
-1.865296683557626366e-05 4.663241708894394564e-06 1.041062477230260546e-05
0.000000000000000000e+00 0.000000000000000000e+00 8.125897958501722174e-06
0.000000000000000000e+00 0.000000000000000000e+00 4.455234465415136044e-07
-5.344631727610504965e-06 2.672315863805221989e-05 -1.711282484976858130e-06
0.000000000000000000e+00 -0.000000000000000000e+00 2.281131655156662357e-07
0.000000000000000000e+00 0.000000000000000000e+00 1.916010259125058488e-05
0.000000000000000000e+00 0.000000000000000000e+00 -1.003697928269101691e-05
8.926680092489180636e-05 -2.191094204520027959e-04 -1.628229486631812347e-04
7.482484418654608018e-05 3.206779036566265710e-05 1.473274887588232028e-04
1.865296683557626366e-05 -4.663241708894394564e-06 -1.041062477230260546e-05
3.472835083742631390e-20 -2.331620854446724638e-06 3.039211675247915270e-07
6.924494343803905272e-20 -6.776263578034402713e-21 3.483422995583310144e-20
2.746619266370444669e-06 -1.373309633185253463e-05 -9.929322404000992208e-06
0.000000000000000000e+00 0.000000000000000000e+00 1.003697928269101013e-05
0.000000000000000000e+00 0.000000000000000000e+00 2.150808653644509657e-07
-0.000000000000000000e+00 0.000000000000000000e+00 -6.628032812264900153e-20
2.214082214083274954e-06 -4.428164428164371339e-06 3.880563880563888475e-06
0.000000000000000000e+00 0.000000000000000000e+00 -1.229080932784635085e-05
1.368176297067490534e-04 9.772687836196365413e-05 -2.182889222320890570e-04
0.000000000000000000e+00 0.000000000000000000e+00 -9.734991887506786454e-06
2.421719799451260583e-06 -9.686879197805257476e-06 7.213357905317118042e-07
-2.746619266370444669e-06 1.373309633185253463e-05 -8.772290678288049351e-07
-0.000000000000000000e+00 0.000000000000000000e+00 -1.606368102119120722e-05
0.000000000000000000e+00 -0.000000000000000000e+00 2.150808653644508598e-07
0.000000000000000000e+00 0.000000000000000000e+00 -6.649208635946257662e-20
-2.626834921452537953e-05 4.378058202420894330e-05 2.762039660056657972e-05
6.285714285714316760e-04 4.190476190476186011e-05 3.840952380952385539e-04
-9.942524589375505541e-05 2.564124762523161457e-04 -8.057488527873063044e-05
0.000000000000000000e+00 0.000000000000000000e+00 9.734991887506786454e-06
2.407557695360919041e-06 -9.630230781443889618e-06 9.366300659759686872e-07
0.000000000000000000e+00 -0.000000000000000000e+00 -1.324852271444161873e-05
0.000000000000000000e+00 0.000000000000000000e+00 -8.128901146755680371e-06
-0.000000000000000000e+00 0.000000000000000000e+00 4.301617307288726029e-07
-0.000000000000000000e+00 0.000000000000000000e+00 1.859410430839001160e-05
-5.479625390218522546e-04 -6.849531737773151014e-04 -9.863508844953174700e-04
7.075229121986907491e-04 4.665549638411681656e-04 -1.626629610887549355e-04
-2.068326177488494981e-05 -6.894420591628364038e-06 -1.670053565504118600e-05
6.105081257607808615e-04 2.978088418345294460e-05 -1.458467044663419902e-05
2.400518052976878503e-05 -7.201554158930693277e-06 1.398173395909672137e-05
-0.000000000000000000e+00 0.000000000000000000e+00 -1.397116940795665579e-05
-2.656168940156826438e-05 7.968506820470478298e-06 -2.130581286637306558e-05
0.000000000000000000e+00 0.000000000000000000e+00 4.301617307288727088e-07
0.000000000000000000e+00 0.000000000000000000e+00 1.859410430839001160e-05
2.414792216491964231e-05 -3.292898477034390445e-05 -2.705488824468999480e-05
-1.655999677977699547e-04 3.010908505413991169e-05 9.069355552872013281e-05
0.000000000000000000e+00 0.000000000000000000e+00 8.291738989610394426e-06
-1.382963556981198433e-03 2.327155543675189960e-03 1.153028750482639093e-03
-7.618648653366056028e-05 -4.915257195719814552e-06 4.294344558790162404e-05
2.577355942482085985e-06 -1.288677971241028339e-05 1.742471791595188555e-06
0.000000000000000000e+00 0.000000000000000000e+00 -1.962742216664692358e-05
-3.219206056963831394e-04 4.207558793750973501e-04 -1.152948577013201075e-04
7.594679662909996739e-06 -5.063119775273369332e-05 3.506278133143860901e-07
1.010071322304502395e-04 8.735751976687443528e-05 4.597729622823963462e-05
-1.506119238634593522e-04 2.036050081857846642e-04 2.637711009735548137e-04
0.000000000000000000e+00 0.000000000000000000e+00 7.270540278659474325e-06
2.201502201502160617e-05 6.604506604506523016e-06 -1.203850862941778448e-05
-3.037871865164020718e-05 1.265779943818345044e-05 1.337902325109152434e-05
0.000000000000000000e+00 0.000000000000000000e+00 7.755847627533975927e-06
0.000000000000000000e+00 0.000000000000000000e+00 -1.168298938490885558e-05
-6.505132242508837289e-04 2.079319056087657134e-03 -3.901232849555083104e-03
2.340601754473411089e-05 3.120802339297883485e-05 -2.993967591818445575e-05
1.599452746448510384e-05 9.139729979705792256e-06 -7.510340951906916389e-06
-6.934388247231046320e-06 -2.311462749076870880e-06 1.411290157090293838e-06
0.000000000000000000e+00 0.000000000000000000e+00 2.101788983669975843e-07
-2.207774287546326791e-05 -1.103887143773163395e-05 1.266371066940873494e-05
-3.065185289923521417e-05 7.662963224808747639e-06 1.141556139225221777e-05
0.000000000000000000e+00 0.000000000000000000e+00 2.294811574455552410e-07
0.000000000000000000e+00 0.000000000000000000e+00 1.121566980951253720e-05
-5.835277523480150545e-03 4.869494456311666548e-04 -3.239255416539518610e-04
7.594679662909996739e-06 -5.063119775273369332e-05 3.506278133143860901e-07
-2.324862533129896212e-06 9.299450132519445936e-06 -1.511347132833855185e-05
0.000000000000000000e+00 0.000000000000000000e+00 -2.917162108600874644e-05
0.000000000000000000e+00 -0.000000000000000000e+00 2.101788983669975843e-07
2.484701114603171023e-05 4.517638390187670614e-06 -8.509225572105661220e-06
1.325606562452980031e-19 -2.569662342654283104e-06 3.328880762074400302e-07
0.000000000000000000e+00 -0.000000000000000000e+00 2.294811574455555586e-07
2.086801564229308497e-05 1.565101173171981627e-05 2.151456144778837108e-05
1.361089241254211980e-04 7.249279654506114853e-04 -1.117040180747414511e-04
2.311462749076313532e-06 2.542609023985101593e-05 3.081198385664994514e-05
-2.338379175764298876e-06 9.353516703057054895e-06 -3.176194174566983118e-07
0.000000000000000000e+00 0.000000000000000000e+00 2.541098841762901017e-20
0.000000000000000000e+00 0.000000000000000000e+00 -2.101788983669975843e-07
-2.491841060334793378e-05 -4.530620109699655434e-06 8.533677369726660770e-06
-2.843605325128857172e-05 -5.170191500234286075e-06 9.641577705449951586e-06
0.000000000000000000e+00 0.000000000000000000e+00 -2.294811574455552410e-07
4.690393215527180254e-06 -2.345196607763620620e-05 1.004860311214230925e-05
2.577355942482086408e-06 -1.030942376992825077e-05 4.189926238045825750e-07
-2.226734112448507620e-06 8.906936449793894956e-06 -7.417287051572768599e-06
1.482974321528538191e-04 6.355604235122315438e-05 -1.117753659265159285e-04
-0.000000000000000000e+00 0.000000000000000000e+00 -2.541098841762901017e-20
2.490276864927642997e-19 -7.148958074826294862e-19 -1.058791184067875424e-20
-2.513425744419082664e-05 -4.569864989852827518e-06 8.607597305085540416e-06
8.470329472543003391e-21 3.930232875259953573e-19 -5.336307567702092136e-20
5.595436128900778470e-06 -2.238174451560300546e-05 1.227704515341163190e-05
0.000000000000000000e+00 0.000000000000000000e+00 -1.694065894508600678e-21
-2.577355942482086408e-06 1.030942376992825077e-05 -4.189926238045825750e-07
2.226734112448507620e-06 -8.906936449793894956e-06 7.417287051572768599e-06
5.701788863693645851e-04 3.179843789367655890e-04 2.541866739961976614e-04
0.000000000000000000e+00 -0.000000000000000000e+00 -1.905824131322175763e-20
-3.095905422214467739e-19 8.063753657860939228e-19 2.392868075993398458e-20
2.363221922839497946e-19 -4.167402100491157668e-19 -1.948175778684890780e-20
-2.632191584310825114e-05 -1.579314950586488834e-05 1.035070631830447881e-05
2.051724137931075872e-05 5.275862068965598211e-05 -1.318573667711602719e-05
-0.000000000000000000e+00 0.000000000000000000e+00 1.694065894508600678e-21
0.000000000000000000e+00 0.000000000000000000e+00 -4.235164736271501695e-22
-6.223812621407485914e-05 -8.799183361300243005e-05 -3.599522461823169894e-05
-6.635597214222062963e-05 3.932205756576035956e-05 -9.980337739117193542e-06
-0.000000000000000000e+00 0.000000000000000000e+00 -1.905824131322175763e-20
-2.304782220900861708e-06 9.219128883603240154e-06 -2.514307877345916710e-07
2.098458769002380992e-05 2.331620854447066500e-05 -9.790937304569984078e-06
2.966460795140714191e-05 5.393565082073976981e-06 -1.002496461712250597e-05
0.000000000000000000e+00 -0.000000000000000000e+00 -8.128901146755682065e-06
-0.000000000000000000e+00 0.000000000000000000e+00 -2.721093343054439839e-20
-0.000000000000000000e+00 0.000000000000000000e+00 4.235164736271501695e-22
3.009612503169551323e-04 -2.758811461238799877e-04 -2.523467542346776154e-04
-1.169189587882128431e-05 4.676758351528517114e-05 -1.588097087283765150e-06
-0.000000000000000000e+00 0.000000000000000000e+00 0.000000000000000000e+00
2.304782220900861708e-06 -9.219128883603240154e-06 2.514307877345916710e-07
-2.379563076390571154e-05 -1.427737845834338322e-05 9.448901403068471152e-06
-1.753358200816401702e-19 5.251604272976662102e-19 -1.291725244562808017e-20
0.000000000000000000e+00 0.000000000000000000e+00 8.128901146755682065e-06
-0.000000000000000000e+00 0.000000000000000000e+00 1.588186776101813136e-21
0.000000000000000000e+00 -0.000000000000000000e+00 1.270549420881450509e-21
0.000000000000000000e+00 0.000000000000000000e+00 4.178875171467748447e-05
5.653944922922454763e-20 2.331620854446690756e-06 1.181396128122302095e-07
-0.000000000000000000e+00 0.000000000000000000e+00 2.089795918367667040e-07
6.217215202919733699e-05 9.450167108437991536e-05 -1.782512170531230452e-05
2.386520863163640410e-05 -7.159562589490977304e-06 -6.613661894721753319e-06
2.193815333388637878e-19 -2.738245427144671566e-06 3.539950973326618360e-07
-0.000000000000000000e+00 0.000000000000000000e+00 2.679889807162529546e-05
0.000000000000000000e+00 0.000000000000000000e+00 1.482307657695025593e-21
-0.000000000000000000e+00 0.000000000000000000e+00 2.308614921227551412e-07
4.382675081438895388e-04 -1.603417712721481869e-04 3.583009796672776207e-04
1.668654906090971668e-19 4.622925498154048385e-06 2.342364657487875543e-07
-0.000000000000000000e+00 0.000000000000000000e+00 4.179591836734315523e-07
9.175337065030789120e-05 1.966143656792250581e-05 -3.793588320326856512e-05
-2.648313464897067781e-05 -7.222673086082899426e-06 1.178254873717625435e-05
-3.030548926728449542e-05 2.204035583075231010e-05 9.329582439722231894e-06
-5.360876808849403303e-06 2.948482244867160339e-05 -1.587837241979382434e-06
-2.304782220900792674e-06 1.613347554630554999e-05 -1.122502891810336785e-06
0.000000000000000000e+00 0.000000000000000000e+00 2.308614921227548236e-07
-4.755799831611838210e-04 -2.169833673172886276e-03 -1.606914348017215175e-03
2.298140197209477267e-06 -9.192560788837771848e-06 9.493654023231735960e-07
-2.239494766387888761e-06 1.567646336471501634e-05 -1.183519092450688431e-06
-2.201502201502160617e-05 -6.604506604506523016e-06 7.894504485413673568e-06
2.479506597247508449e-05 -4.959013194495103972e-06 -7.177972708128071622e-06
-1.420620795144047341e-05 5.682483180576173779e-05 -2.864032298231563643e-06
5.344631727610428732e-06 -3.206779036566265032e-05 2.402226185591798272e-06
-0.000000000000000000e+00 0.000000000000000000e+00 -1.839019011660924523e-05
-2.608501955286579717e-06 1.043400782114654418e-05 2.734044830139752588e-07
3.336330489574856548e-03 2.520783036567666394e-03 7.041976707140068428e-04
2.284932494926482369e-06 -9.139729979705792256e-06 3.079160367494530981e-07
0.000000000000000000e+00 0.000000000000000000e+00 -9.458050426515368384e-06
2.207774287546326791e-05 1.103887143773163395e-05 -8.519706525404625722e-06
-5.886878983417387357e-20 1.253608761936364502e-19 2.117582368135750848e-21
-2.876757110166735668e-06 1.150702844066721542e-05 -5.799665403919392112e-07
0.000000000000000000e+00 -0.000000000000000000e+00 7.095278129359553449e-07
-0.000000000000000000e+00 0.000000000000000000e+00 1.457679285934131706e-04
2.608501955286579717e-06 -1.043400782114654418e-05 -2.734044830139752588e-07
-4.738597548724149877e-04 4.031344183242938041e-04 -5.155791937027975674e-04
-1.416662604282817317e-19 6.369687763352338550e-19 -1.545835128739098119e-20
0.000000000000000000e+00 0.000000000000000000e+00 9.458050426515368384e-06
1.372193374551966549e-19 -6.039344913923161418e-19 3.875175733688424051e-20
4.489274620447791797e-20 1.033380195650246414e-19 -2.816384549620548627e-20
2.051724137931075872e-05 5.275862068965598211e-05 -1.318573667711602719e-05
-2.696782541037027031e-06 1.078713016414804883e-05 -5.076296547834540344e-07
