-9.886567164179103917e-02 -1.504477611940298505e-02 1.786268656716417880e+00
-8.907801418439716123e-02 -1.787234042553191224e-02 2.121985815602836833e+00
-6.202898550724637167e-02 -1.826086956521738927e-02 2.168115942028985277e+00
-3.365313653136531302e-02 -1.859778597785977788e-02 2.208118081180811654e+00
-4.242424242424242854e-03 -1.909090909090908894e-02 2.266666666666666607e+00
2.047619047619047769e-02 -1.499999999999999771e-02 1.780952380952380842e+00
4.578461538461538888e-02 -1.550769230769230740e-02 1.841230769230769226e+00
7.149999999999999412e-02 -1.575000000000000011e-02 1.869999999999999885e+00
9.772151898734177111e-02 -1.594936708860759250e-02 1.893670886075949245e+00
-9.724550898203590532e-02 -1.461077844311377098e-02 1.791616766467065691e+00
-8.680851063829786440e-02 -1.730496453900709150e-02 2.121985815602836833e+00
-5.971014492753622810e-02 -1.768115942028985338e-02 2.168115942028985277e+00
-3.140740740740740472e-02 -1.807407407407407574e-02 2.216296296296296209e+00
-1.818181818181818180e-03 -1.848484848484848245e-02 2.266666666666666607e+00
2.231454005934718071e-02 -1.448071216617210534e-02 1.775667655786349997e+00
4.775384615384615367e-02 -1.501538461538461620e-02 1.841230769230769226e+00
7.327102803738318182e-02 -1.520249221183800521e-02 1.864174454828660288e+00
9.974683544303795946e-02 -1.544303797468354368e-02 1.893670886075949245e+00
-9.532934131736525707e-02 -1.413173652694610545e-02 1.791616766467065691e+00
-8.453900709219858145e-02 -1.673758865248226729e-02 2.121985815602836833e+00
-5.739130434782607759e-02 -1.710144927536231749e-02 2.168115942028985277e+00
-2.903703703703703828e-02 -1.748148148148147979e-02 2.216296296296296209e+00
6.060606060606060601e-04 -1.787878787878787595e-02 2.266666666666666607e+00
2.421364985163204642e-02 -1.400593471810088891e-02 1.775667655786349997e+00
4.972307692307692539e-02 -1.452307692307692154e-02 1.841230769230769226e+00
7.526479750778815314e-02 -1.470404984423675891e-02 1.864174454828660288e+00
1.017721518987341617e-01 -1.493670886075949313e-02 1.893670886075949245e+00
-9.369369369369369427e-02 -1.369369369369369260e-02 1.796996996996996998e+00
-8.256227758007117501e-02 -1.622775800711743696e-02 2.129537366548042598e+00
-5.527272727272726505e-02 -1.658181818181818021e-02 2.175999999999999712e+00
-2.676579925650557357e-02 -1.695167286245352969e-02 2.224535315985129991e+00
3.041825095057034030e-03 -1.733840304182509423e-02 2.275285171102661597e+00
2.603550295857987723e-02 -1.349112426035502937e-02 1.770414201183431846e+00
5.153374233128833748e-02 -1.398773006134969299e-02 1.835582822085889410e+00
7.725856697819313834e-02 -1.420560747663551261e-02 1.864174454828660288e+00
1.037974683544303778e-01 -1.443037974683544257e-02 1.893670886075949245e+00
-9.204819277108432229e-02 -1.325301204819276900e-02 1.802409638554216764e+00
-8.028469750889678791e-02 -1.565836298932384019e-02 2.129537366548042598e+00
-5.294545454545453861e-02 -1.599999999999999686e-02 2.175999999999999712e+00
-2.438661710037174496e-02 -1.635687732342007428e-02 2.224535315985129991e+00
4.864864864864863747e-03 -1.486486486486486396e-02 2.021621621621621401e+00
2.792899408284023680e-02 -1.301775147928993862e-02 1.770414201183431846e+00
5.349693251533741561e-02 -1.349693251533742346e-02 1.835582822085889410e+00
7.925233644859812354e-02 -1.370716510903426805e-02 1.864174454828660288e+00
1.058227848101265800e-01 -1.392405063291139201e-02 1.893670886075949245e+00
-9.039274924471299433e-02 -1.280966767371601034e-02 1.807854984894259776e+00
-7.828571428571427793e-02 -1.514285714285714193e-02 2.137142857142857011e+00
-5.080291970802919277e-02 -1.547445255474452427e-02 2.183941605839415878e+00
-2.208955223880596994e-02 -1.582089552238806138e-02 2.232835820895522350e+00
6.283987915407854979e-03 -1.280966767371601034e-02 1.807854984894259776e+00
2.982248520710058942e-02 -1.254437869822485133e-02 1.770414201183431846e+00
5.563076923076923364e-02 -1.304615384615384621e-02 1.841230769230769226e+00
8.124610591900310874e-02 -1.320872274143302001e-02 1.864174454828660288e+00
1.078481012658227822e-01 -1.341772151898733972e-02 1.893670886075949245e+00
-8.845921450151056353e-02 -1.232628398791540784e-02 1.807854984894259776e+00
-7.627240143369175274e-02 -1.462365591397849288e-02 2.144802867383512446e+00
-4.846715328467152833e-02 -1.489051094890510817e-02 2.183941605839415878e+00
-1.970149253731343086e-02 -1.522388059701492574e-02 2.232835820895522350e+00
8.217522658610271896e-03 -1.232628398791540784e-02 1.807854984894259776e+00
3.171597633136094552e-02 -1.207100591715976230e-02 1.770414201183431846e+00
5.759999999999999842e-02 -1.255384615384615328e-02 1.841230769230769226e+00
8.323987538940809394e-02 -1.271028037383177545e-02 1.864174454828660288e+00
1.098734177215189706e-01 -1.291139240506329090e-02 1.893670886075949245e+00
-9.150159744408943585e-02 -1.252396166134185293e-02 1.911821086261980662e+00
-7.397849462365591044e-02 -1.405017921146953404e-02 2.144802867383512446e+00
-4.630036630036629686e-02 -1.435897435897435723e-02 2.191941391941391704e+00
-1.731343283582089526e-02 -1.462686567164179011e-02 2.232835820895522350e+00
1.012048192771084279e-02 -1.180722891566264934e-02 1.802409638554216764e+00
3.351032448377581213e-02 -1.156342182890855545e-02 1.765191740412979327e+00
5.938650306748465696e-02 -1.202453987730061312e-02 1.835582822085889410e+00
8.549999999999999267e-02 -1.224999999999999874e-02 1.869999999999999885e+00
1.118987341772151867e-01 -1.240506329113923861e-02 1.893670886075949245e+00
-9.655172413793101927e-02 -1.296551724137930996e-02 2.063448275862068915e+00
-7.194244604316546443e-02 -1.352517985611510591e-02 2.152517985611510642e+00
-4.395604395604395254e-02 -1.377289377289377115e-02 2.191941391941391704e+00
-1.509433962264151129e-02 -1.418867924528301877e-02 2.258113207547169932e+00
1.204819277108433624e-02 -1.132530120481927555e-02 1.802409638554216764e+00
3.539823008849557473e-02 -1.109144542772861307e-02 1.765191740412979327e+00
6.134969325153373509e-02 -1.153374233128834359e-02 1.835582822085889410e+00
8.722741433021805046e-02 -1.171339563862928285e-02 1.864174454828660288e+00
-1.052380952380952417e-01 -1.071428571428571438e-02 1.780952380952380842e+00
-9.633802816901408661e-02 -1.267605633802816947e-02 2.107042253521126618e+00
-6.964028776978416213e-02 -1.294964028776978207e-02 2.152517985611510642e+00
-4.161172161172160822e-02 -1.318681318681318507e-02 2.191941391941391704e+00
-1.272727272727272770e-02 -1.363636363636363570e-02 2.266666666666666607e+00
1.393393393393393270e-02 -1.081081081081081141e-02 1.796996996996996998e+00
3.728613569321534427e-02 -1.061946902654867242e-02 1.765191740412979327e+00
6.331288343558282017e-02 -1.104294478527607232e-02 1.835582822085889410e+00
8.922118380062304954e-02 -1.121495327102803655e-02 1.864174454828660288e+00
-1.036417910447761104e-01 -1.026865671641791038e-02 1.786268656716417880e+00
-9.408450704225351791e-02 -1.211267605633802730e-02 2.107042253521126618e+00
-6.733812949640287371e-02 -1.237410071942445823e-02 2.152517985611510642e+00
-3.941176470588234754e-02 -1.264705882352941055e-02 2.199999999999999734e+00
-1.030303030303030172e-02 -1.303030303030303094e-02 2.266666666666666607e+00
1.580838323353293134e-02 -1.029940119760478986e-02 1.791616766467065691e+00
3.917404129793510686e-02 -1.014749262536873177e-02 1.765191740412979327e+00
6.588235294117647523e-02 -1.065015479876160916e-02 1.852631578947368407e+00
9.121495327102803474e-02 -1.071651090342679025e-02 1.864174454828660288e+00
-1.017313432835820902e-01 -9.791044776119401868e-03 1.786268656716417880e+00
-9.215547703180211603e-02 -1.159010600706713787e-02 2.114487632508833759e+00
-6.503597122302157141e-02 -1.179856115107913613e-02 2.152517985611510642e+00
-3.705882352941176211e-02 -1.205882352941176246e-02 2.199999999999999734e+00
-7.878787878787877480e-03 -1.242424242424242445e-02 2.266666666666666607e+00
1.772455089820359347e-02 -9.820359281437124332e-03 1.791616766467065691e+00
4.106194690265486252e-02 -9.675516224188789385e-03 1.765191740412979327e+00
6.828660436137071188e-02 -1.021806853582554395e-02 1.864174454828660288e+00
9.349999999999999978e-02 -1.025000000000000043e-02 1.869999999999999885e+00
-1.001197604790419055e-01 -9.341317365269460535e-03 1.791616766467065691e+00
-8.989399293286218229e-02 -1.102473498233215443e-02 2.114487632508833759e+00
-6.296028880866426369e-02 -1.126353790613718493e-02 2.160288808664259985e+00
-3.483394833948339625e-02 -1.151291512915129066e-02 2.208118081180811654e+00
-5.454545454545454107e-03 -1.181818181818181622e-02 2.266666666666666607e+00
1.964071856287424866e-02 -9.341317365269460535e-03 1.791616766467065691e+00
4.294985250737463206e-02 -9.203539823008848736e-03 1.765191740412979327e+00
7.049999999999999323e-02 -9.749999999999998251e-03 1.869999999999999885e+00
9.520249221183799126e-02 -9.719626168224299381e-03 1.864174454828660288e+00
-9.820359281437125720e-02 -8.862275449101796737e-03 1.791616766467065691e+00
-8.794326241134751976e-02 -1.049645390070922009e-02 2.121985815602836833e+00
-6.086956521739129294e-02 -1.072463768115941921e-02 2.168115942028985277e+00
-3.247232472324722979e-02 -1.092250922509224904e-02 2.208118081180811654e+00
-3.030303030303029867e-03 -1.121212121212121146e-02 2.266666666666666607e+00
2.149253731343283777e-02 -8.835820895522388321e-03 1.786268656716417880e+00
4.483775811209439466e-02 -8.731563421828909821e-03 1.765191740412979327e+00
7.160493827160492597e-02 -9.135802469135801546e-03 1.846913580246913433e+00
9.749999999999998945e-02 -9.249999999999999542e-03 1.869999999999999885e+00
-9.628742514970058120e-02 -8.383233532934131205e-03 1.791616766467065691e+00
-8.567375886524822293e-02 -9.929078014184395881e-03 2.121985815602836833e+00
-5.855072463768114938e-02 -1.014492753623188331e-02 2.168115942028985277e+00
-3.022222222222221977e-02 -1.037037037037037007e-02 2.216296296296296209e+00
-6.060606060606060601e-04 -1.060606060606060497e-02 2.266666666666666607e+00
2.333333333333333440e-02 -8.333333333333333218e-03 1.780952380952380842e+00
4.686390532544378734e-02 -8.284023668639053581e-03 1.770414201183431846e+00
7.335384615384614448e-02 -8.615384615384615030e-03 1.841230769230769226e+00
9.950000000000000511e-02 -8.750000000000000833e-03 1.869999999999999885e+00
-9.465465465465465467e-02 -7.927927927927928484e-03 1.796996996996996998e+00
-8.370106761565836162e-02 -9.395017793594306887e-03 2.129537366548042598e+00
-5.623188405797101275e-02 -9.565217391304347422e-03 2.168115942028985277e+00
-2.785185185185184986e-02 -9.777777777777777596e-03 2.216296296296296209e+00
1.818181818181818180e-03 -1.000000000000000021e-02 2.266666666666666607e+00
2.523809523809523656e-02 -7.857142857142855943e-03 1.780952380952380842e+00
4.890207715133530753e-02 -7.833827893175073637e-03 1.775667655786349997e+00
7.532307692307692315e-02 -8.123076923076923833e-03 1.841230769230769226e+00
1.014999999999999930e-01 -8.249999999999998654e-03 1.869999999999999885e+00
-9.273273273273273387e-02 -7.447447447447447418e-03 1.796996996996996998e+00
-8.142348754448397452e-02 -8.825622775800710113e-03 2.129537366548042598e+00
-5.410909090909089836e-02 -9.018181818181817549e-03 2.175999999999999712e+00
-2.567164179104477334e-02 -9.253731343283583266e-03 2.232835820895522350e+00
3.708609271523178805e-03 -8.211920529801323629e-03 1.981456953642384056e+00
2.706231454005934497e-02 -7.359050445103857210e-03 1.775667655786349997e+00
5.095238095238095039e-02 -7.380952380952381271e-03 1.780952380952380842e+00
7.729230769230768794e-02 -7.630769230769230901e-03 1.841230769230769226e+00
1.034999999999999948e-01 -7.749999999999999944e-03 1.869999999999999885e+00
-9.108433734939759552e-02 -6.987951807228915714e-03 1.802409638554216764e+00
-7.914590747330961518e-02 -8.256227758007116807e-03 2.129537366548042598e+00
-5.178181818181817886e-02 -8.436363636363635940e-03 2.175999999999999712e+00
-2.328358208955223774e-02 -8.656716417910447631e-03 2.232835820895522350e+00
5.317220543806645654e-03 -7.009063444108760456e-03 1.807854984894259776e+00
2.896142433234421068e-02 -6.884272997032640784e-03 1.775667655786349997e+00
5.317365269461076654e-02 -6.946107784431137210e-03 1.791616766467065691e+00
7.926153846153846660e-02 -7.138461538461538837e-03 1.841230769230769226e+00
1.054999999999999966e-01 -7.249999999999999500e-03 1.869999999999999885e+00
-8.942598187311179281e-02 -6.525679758308157094e-03 1.807854984894259776e+00
-7.714285714285713802e-02 -7.714285714285714322e-03 2.137142857142857011e+00
-4.963503649635036402e-02 -7.883211678832116598e-03 2.183941605839415878e+00
-2.074074074074074014e-02 -8.000000000000000167e-03 2.216296296296296209e+00
7.272727272727272721e-03 -6.545454545454545275e-03 1.813333333333333242e+00
3.076923076923076747e-02 -6.390532544378697485e-03 1.770414201183431846e+00
5.542168674698794845e-02 -6.506024096385541917e-03 1.802409638554216764e+00
8.123076923076923139e-02 -6.646153846153845905e-03 1.841230769230769226e+00
1.074999999999999845e-01 -6.749999999999999056e-03 1.869999999999999885e+00
-8.775757575757575646e-02 -6.060606060606059733e-03 1.813333333333333242e+00
-7.485714285714285821e-02 -7.142857142857141767e-03 2.137142857142857011e+00
-4.729927007299269959e-02 -7.299270072992699622e-03 2.183941605839415878e+00
-1.797101449275361959e-02 -7.246376811594202119e-03 2.168115942028985277e+00
9.212121212121211419e-03 -6.060606060606059733e-03 1.813333333333333242e+00
3.266272189349112010e-02 -5.917159763313609329e-03 1.770414201183431846e+00
5.752265861027189980e-02 -6.042296072507552865e-03 1.807854984894259776e+00
8.319999999999999618e-02 -6.153846153846153841e-03 1.841230769230769226e+00
1.094999999999999862e-01 -6.250000000000000347e-03 1.869999999999999885e+00
-8.607902735562308894e-02 -5.592705167173252570e-03 1.818844984802431508e+00
-7.283154121863798236e-02 -6.594982078853045722e-03 2.144802867383512446e+00
-4.512820512820511776e-02 -6.739926739926739054e-03 2.191941391941391704e+00
-1.531914893617021198e-02 -6.524822695035461043e-03 2.121985815602836833e+00
1.111782477341389727e-02 -5.558912386706948636e-03 1.807854984894259776e+00
3.455621301775147619e-02 -5.443786982248520305e-03 1.770414201183431846e+00
5.981762917933130391e-02 -5.592705167173252570e-03 1.818844984802431508e+00
8.516923076923076097e-02 -5.661538461538461776e-03 1.841230769230769226e+00
-1.065074626865671614e-01 -5.014925373134328061e-03 1.786268656716417880e+00
-8.596273291925465854e-02 -5.217391304347825630e-03 1.858385093167701729e+00
-7.053763440860215395e-02 -6.021505376344086016e-03 2.144802867383512446e+00
-4.278388278388277344e-02 -6.153846153846152973e-03 2.191941391941391704e+00
-1.187096774193548143e-02 -5.419354838709676721e-03 1.930322580645161157e+00
1.305135951661631419e-02 -5.075528700906344406e-03 1.807854984894259776e+00
3.634218289085545256e-02 -4.955752212389381156e-03 1.765191740412979327e+00
6.157575757575757536e-02 -5.090909090909090384e-03 1.813333333333333242e+00
8.713846153846153963e-02 -5.169230769230768845e-03 1.841230769230769226e+00
-1.045970149253731413e-01 -4.537313432835821288e-03 1.786268656716417880e+00
-9.073825503355704980e-02 -5.100671140939596997e-03 2.008053691275167640e+00
-6.848920863309353180e-02 -5.467625899280574749e-03 2.152517985611510642e+00
-4.043956043956043606e-02 -5.567765567765566893e-03 2.191941391941391704e+00
-9.806451612903225451e-03 -4.903225806451612726e-03 1.930322580645161157e+00
1.493975903614457729e-02 -4.578313253012048466e-03 1.802409638554216764e+00
3.811764705882352694e-02 -4.470588235294117689e-03 1.760000000000000009e+00
6.370820668693008559e-02 -4.620060790273556282e-03 1.818844984802431508e+00
8.910769230769230442e-02 -4.676923076923076780e-03 1.841230769230769226e+00
-1.029940119760478917e-01 -4.071856287425149219e-03 1.791616766467065691e+00
-9.295774647887324049e-02 -4.788732394366197222e-03 2.107042253521126618e+00
-6.618705035971222950e-02 -4.892086330935251776e-03 2.152517985611510642e+00
-3.823529411764704788e-02 -5.000000000000000104e-03 2.199999999999999734e+00
-7.920792079207920888e-03 -4.488448844884487809e-03 1.974917491749174747e+00
1.686746987951807247e-02 -4.096385542168674669e-03 1.802409638554216764e+00
4.000000000000000083e-02 -4.000000000000000083e-03 1.760000000000000009e+00
6.565349544072947297e-02 -4.133738601823707705e-03 1.818844984802431508e+00
9.107692307692308309e-02 -4.184615384615384716e-03 1.841230769230769226e+00
-1.010778443113772435e-01 -3.592814371257484554e-03 1.791616766467065691e+00
-9.102473498233214222e-02 -4.240282685512367089e-03 2.114487632508833759e+00
-6.411552346570396910e-02 -4.332129963898916948e-03 2.160288808664259985e+00
-3.601476014760147254e-02 -4.428044280442803432e-03 2.208118081180811654e+00
-5.552050473186119842e-03 -3.785488958990535901e-03 1.887697160883280656e+00
1.873873873873873816e-02 -3.603603603603603659e-03 1.796996996996996998e+00
4.175953079178885974e-02 -3.519061583577712607e-03 1.754838709677419395e+00
6.759878419452887421e-02 -3.647416413373859995e-03 1.818844984802431508e+00
9.333333333333333759e-02 -3.703703703703703411e-03 1.846913580246913433e+00
-9.916167664670658133e-02 -3.113772455089820323e-03 1.791616766467065691e+00
-8.876325088339222236e-02 -3.674911660777384955e-03 2.114487632508833759e+00
-6.180505415162455135e-02 -3.754512635379061644e-03 2.160288808664259985e+00
-3.188811188811188635e-02 -3.636363636363636794e-03 2.092307692307692424e+00
-3.489096573208722366e-03 -3.239875389408099216e-03 1.864174454828660288e+00
2.066066066066065895e-02 -3.123123123123123027e-03 1.796996996996996998e+00
4.363636363636363980e-02 -3.049853372434017593e-03 1.754838709677419395e+00
6.954407294832827546e-02 -3.161094224924011851e-03 1.818844984802431508e+00
9.530864197530863891e-02 -3.209876543209876348e-03 1.846913580246913433e+00
-9.753753753753753586e-02 -2.642642642642642828e-03 1.796996996996996998e+00
-8.680851063829786440e-02 -3.120567375886524903e-03 2.121985815602836833e+00
-5.949458483754512667e-02 -3.176895306859205906e-03 2.160288808664259985e+00
-2.617283950617283958e-02 -2.716049382716049284e-03 1.846913580246913433e+00
-1.490683229813664652e-03 -2.732919254658384544e-03 1.858385093167701729e+00
2.251497005988023839e-02 -2.634730538922155224e-03 1.791616766467065691e+00
4.538011695906433302e-02 -2.573099415204678497e-03 1.749707602339181323e+00
7.148936170212764896e-02 -2.674772036474164141e-03 1.818844984802431508e+00
9.728395061728395410e-02 -2.716049382716049284e-03 1.846913580246913433e+00
-9.561561561561561506e-02 -2.162162162162161762e-03 1.796996996996996998e+00
-8.453900709219858145e-02 -2.553191489361701996e-03 2.121985815602836833e+00
-5.739130434782607759e-02 -2.608695652173912815e-03 2.168115942028985277e+00
-2.412307692307692417e-02 -2.215384615384615591e-03 1.841230769230769226e+00
4.953560371517027943e-04 -2.229102167182662412e-03 1.852631578947368407e+00
2.443113772455089705e-02 -2.155688622754490559e-03 1.791616766467065691e+00
4.725146198830409289e-02 -2.105263157894736795e-03 1.749707602339181323e+00
7.343465045592703633e-02 -2.188449848024315997e-03 1.818844984802431508e+00
9.895384615384615612e-02 -2.215384615384615591e-03 1.841230769230769226e+00
-9.369369369369369427e-02 -1.681681681681681780e-03 1.796996996996996998e+00
-8.256227758007117501e-02 -1.992882562277580039e-03 2.129537366548042598e+00
-5.507246376811593402e-02 -2.028985507246376489e-03 2.168115942028985277e+00
-2.215384615384615591e-02 -1.723076923076923093e-03 1.841230769230769226e+00
2.453987730061349404e-03 -1.717791411042944669e-03 1.835582822085889410e+00
2.626865671641790898e-02 -1.671641791044776093e-03 1.786268656716417880e+00
4.912280701754385970e-02 -1.637426900584795309e-03 1.749707602339181323e+00
7.537993920972643758e-02 -1.702127659574467853e-03 1.818844984802431508e+00
1.012345679012345567e-01 -1.728395061728394940e-03 1.846913580246913433e+00
-9.204819277108432229e-02 -1.204819277108433841e-03 1.802409638554216764e+00
-8.028469750889678791e-02 -1.423487544483985649e-03 2.129537366548042598e+00
-5.294545454545453861e-02 -1.454545454545454457e-03 2.175999999999999712e+00
-2.018461538461538765e-02 -1.230769230769230812e-03 1.841230769230769226e+00
4.403669724770642620e-03 -1.223241590214067418e-03 1.829969418960244676e+00
2.817910447761193954e-02 -1.194029850746268669e-03 1.786268656716417880e+00
5.084548104956267828e-02 -1.166180758017492693e-03 1.744606413994169047e+00
7.732522796352582495e-02 -1.215805471124620143e-03 1.818844984802431508e+00
1.032098765432098580e-01 -1.234567901234567659e-03 1.846913580246913433e+00
-9.012048192771084099e-02 -7.228915662650602612e-04 1.802409638554216764e+00
-7.828571428571427793e-02 -8.571428571428570987e-04 2.137142857142857011e+00
-5.061818181818181217e-02 -8.727272727272725227e-04 2.175999999999999712e+00
-1.821538461538461592e-02 -7.384615384615384219e-04 1.841230769230769226e+00
6.341463414634145902e-03 -7.317073170731706227e-04 1.824390243902438868e+00
2.999999999999999542e-02 -7.142857142857142851e-04 1.780952380952380842e+00
5.271137026239066520e-02 -6.997084548104956373e-04 1.744606413994169047e+00
7.927051671732522620e-02 -7.294832826747718905e-04 1.818844984802431508e+00
1.051851851851851732e-01 -7.407407407407407040e-04 1.846913580246913433e+00
-8.845921450151056353e-02 -2.416918429003021146e-04 1.807854984894259776e+00
-7.599999999999999811e-02 -2.857142857142856815e-04 2.137142857142857011e+00
-4.846715328467152833e-02 -2.919708029197080001e-04 2.183941605839415878e+00
-1.624615384615384767e-02 -2.461538461538461406e-04 1.841230769230769226e+00
8.292682926829266984e-03 -2.439024390243902166e-04 1.824390243902438868e+00
3.190476190476190105e-02 -2.380952380952380679e-04 1.780952380952380842e+00
5.457725947521865906e-02 -2.332361516034985277e-04 1.744606413994169047e+00
8.121580547112461357e-02 -2.431610942249239906e-04 1.818844984802431508e+00
1.071604938271604884e-01 -2.469135802469135861e-04 1.846913580246913433e+00
-8.678787878787878884e-02 2.424242424242424186e-04 1.813333333333333242e+00
-7.397849462365591044e-02 2.867383512544802865e-04 2.144802867383512446e+00
-4.613138686131386390e-02 2.919708029197080001e-04 2.183941605839415878e+00
-1.427692307692307767e-02 2.461538461538461406e-04 1.841230769230769226e+00
1.021276595744680799e-02 2.431610942249239906e-04 1.818844984802431508e+00
3.370919881305637494e-02 2.373887240356082945e-04 1.775667655786349997e+00
5.644314868804664598e-02 2.332361516034985277e-04 1.744606413994169047e+00
8.316109422492401482e-02 2.431610942249239906e-04 1.818844984802431508e+00
1.091358024691357897e-01 2.469135802469135861e-04 1.846913580246913433e+00
-8.510638297872340219e-02 7.294832826747718905e-04 1.818844984802431508e+00
-7.168458781362006815e-02 8.602150537634407510e-04 2.144802867383512446e+00
-4.395604395604395254e-02 8.791208791208791201e-04 2.191941391941391704e+00
-1.230769230769230768e-02 7.384615384615384219e-04 1.841230769230769226e+00
1.212121212121211947e-02 7.272727272727272287e-04 1.813333333333333242e+00
3.560830860534124065e-02 7.121661721068248563e-04 1.775667655786349997e+00
5.813953488372092943e-02 6.976744186046510664e-04 1.739534883720930125e+00
8.510638297872340219e-02 7.294832826747718905e-04 1.818844984802431508e+00
-1.052380952380952417e-01 1.190476190476190584e-03 1.780952380952380842e+00
-8.366972477064220370e-02 1.223241590214067418e-03 1.829969418960244676e+00
-6.939068100358422586e-02 1.433691756272401432e-03 2.144802867383512446e+00
-4.161172161172160822e-02 1.465201465201464983e-03 2.191941391941391704e+00
-1.033846153846153769e-02 1.230769230769230812e-03 1.841230769230769226e+00
1.406060606060605990e-02 1.212121212121212120e-03 1.813333333333333242e+00
3.739644970414200686e-02 1.183431952662721692e-03 1.770414201183431846e+00
6.088495575221238715e-02 1.179941002949852491e-03 1.765191740412979327e+00
8.705167173252278956e-02 1.215805471124620143e-03 1.818844984802431508e+00
-1.036417910447761104e-01 1.671641791044776093e-03 1.786268656716417880e+00
-8.196319018404907286e-02 1.717791411042944669e-03 1.835582822085889410e+00
-6.733812949640287371e-02 2.014388489208633008e-03 2.152517985611510642e+00
-3.926739926739926390e-02 2.051282051282051280e-03 2.191941391941391704e+00
-8.369230769230769432e-03 1.723076923076923093e-03 1.841230769230769226e+00
1.595166163141993956e-02 1.691842900302114802e-03 1.807854984894259776e+00
3.928994082840236990e-02 1.656804733727810716e-03 1.770414201183431846e+00
6.390390390390390807e-02 1.681681681681681780e-03 1.796996996996996998e+00
8.899696048632217693e-02 1.702127659574467853e-03 1.818844984802431508e+00
-1.020359281437125676e-01 2.155688622754490559e-03 1.791616766467065691e+00
-8.412903225806450669e-02 2.322580645161290147e-03 1.930322580645161157e+00
-6.503597122302157141e-02 2.589928057553956414e-03 2.152517985611510642e+00
-3.747211895910780577e-02 2.676579925650557183e-03 2.224535315985129991e+00
-6.400000000000000307e-03 2.215384615384615591e-03 1.841230769230769226e+00
1.788519637462235648e-02 2.175226586102719031e-03 1.807854984894259776e+00
4.106194690265486252e-02 2.123893805309734224e-03 1.765191740412979327e+00
6.582582582582582886e-02 2.162162162162161762e-03 1.796996996996996998e+00
9.094224924012157818e-02 2.188449848024315997e-03 1.818844984802431508e+00
-1.004204204204204309e-01 2.642642642642642828e-03 1.796996996996996998e+00
-8.864111498257838673e-02 3.066202090592334492e-03 2.085017421602787469e+00
-6.273381294964028299e-02 3.165467625899280255e-03 2.152517985611510642e+00
-3.323943661971830860e-02 3.098591549295774596e-03 2.107042253521126618e+00
-4.430769230769231182e-03 2.707692307692307655e-03 1.841230769230769226e+00
1.975903614457831178e-02 2.650602409638554147e-03 1.802409638554216764e+00
4.294985250737463206e-02 2.595870206489675740e-03 1.765191740412979327e+00
6.774774774774774966e-02 2.642642642642642828e-03 1.796996996996996998e+00
9.317073170731707266e-02 2.682926829268292464e-03 1.824390243902438868e+00
-9.849849849849849626e-02 3.123123123123123027e-03 1.796996996996996998e+00
-8.763250883392226243e-02 3.674911660777384955e-03 2.114487632508833759e+00
-6.064981949458483901e-02 3.754512635379061644e-03 2.160288808664259985e+00
-2.724458204334365141e-02 3.219814241486068217e-03 1.852631578947368407e+00
-2.461538461538461623e-03 3.200000000000000153e-03 1.841230769230769226e+00
2.168674698795180350e-02 3.132530120481927510e-03 1.802409638554216764e+00
4.470588235294117169e-02 3.058823529411764438e-03 1.760000000000000009e+00
6.966966966966967045e-02 3.123123123123123027e-03 1.796996996996996998e+00
9.483282674772036680e-02 3.161094224924011851e-03 1.818844984802431508e+00
-9.686746987951806720e-02 3.614457831325300873e-03 1.802409638554216764e+00
-8.537102473498232869e-02 4.240282685512367089e-03 2.114487632508833759e+00
-5.833935018050541432e-02 4.332129963898916948e-03 2.160288808664259985e+00
-2.495412844036697109e-02 3.669724770642201605e-03 1.829969418960244676e+00
-4.923076923076922812e-04 3.692307692307692218e-03 1.841230769230769226e+00
2.354354354354354362e-02 3.603603603603603659e-03 1.796996996996996998e+00
4.645161290322580294e-02 3.519061583577712607e-03 1.754838709677419395e+00
7.159159159159159125e-02 3.603603603603603659e-03 1.796996996996996998e+00
9.677811550151975417e-02 3.647416413373859995e-03 1.818844984802431508e+00
-9.493975903614457201e-02 4.096385542168674669e-03 1.802409638554216764e+00
-8.340425531914893997e-02 4.822695035460992756e-03 2.121985815602836833e+00
-5.623188405797101275e-02 4.927536231884056817e-03 2.168115942028985277e+00
-2.292682926829267900e-02 4.146341463414633492e-03 1.824390243902438868e+00
1.476923076923076844e-03 4.184615384615384716e-03 1.841230769230769226e+00
2.546546546546546788e-02 4.084084084084083424e-03 1.796996996996996998e+00
4.832844574780058994e-02 3.988269794721407621e-03 1.754838709677419395e+00
7.351351351351351204e-02 4.084084084084083424e-03 1.796996996996996998e+00
9.872340425531915542e-02 4.133738601823707705e-03 1.818844984802431508e+00
-9.301204819277107683e-02 4.578313253012048466e-03 1.802409638554216764e+00
-8.113475177304964314e-02 5.390070921985815229e-03 2.121985815602836833e+00
-5.391304347826086918e-02 5.507246376811593576e-03 2.168115942028985277e+00
-2.103975535168195465e-02 4.648318042813456147e-03 1.829969418960244676e+00
3.435582822085889339e-03 4.662576687116564041e-03 1.835582822085889410e+00
2.730538922155688331e-02 4.550898203592813884e-03 1.791616766467065691e+00
5.020527859237536999e-02 4.457478005865102635e-03 1.754838709677419395e+00
7.566265060240962015e-02 4.578313253012048466e-03 1.802409638554216764e+00
1.009756097560975535e-01 4.634146341463413546e-03 1.824390243902438868e+00
-9.135951661631419585e-02 5.075528700906344406e-03 1.807854984894259776e+00
-7.914590747330961518e-02 5.978647686832740116e-03 2.129537366548042598e+00
-5.159420289855071867e-02 6.086956521739130335e-03 2.168115942028985277e+00
-1.908256880733944991e-02 5.137614678899082334e-03 1.829969418960244676e+00
5.398773006134968341e-03 5.153374233128833574e-03 1.835582822085889410e+00
2.922155688622754197e-02 5.029940119760478549e-03 1.791616766467065691e+00
5.192982456140351338e-02 4.912280701754386143e-03 1.749707602339181323e+00
7.759036144578312921e-02 5.060240963855421395e-03 1.802409638554216764e+00
1.029268292682926772e-01 5.121951219512195334e-03 1.824390243902438868e+00
-8.942598187311179281e-02 5.558912386706948636e-03 1.807854984894259776e+00
-7.686832740213522808e-02 6.548042704626334289e-03 2.129537366548042598e+00
-4.945454545454545242e-02 6.690909090909090244e-03 2.175999999999999712e+00
-1.712538226299694169e-02 5.626911314984709388e-03 1.829969418960244676e+00
7.339449541284403210e-03 5.626911314984709388e-03 1.829969418960244676e+00
3.104477611940298365e-02 5.492537313432835702e-03 1.786268656716417880e+00
5.364431486880466560e-02 5.364431486880466733e-03 1.744606413994169047e+00
7.951807228915662440e-02 5.542168674698795192e-03 1.802409638554216764e+00
1.048780487804877870e-01 5.609756097560974521e-03 1.824390243902438868e+00
-8.775757575757575646e-02 6.060606060606059733e-03 1.813333333333333242e+00
-7.485714285714285821e-02 7.142857142857141767e-03 2.137142857142857011e+00
-4.729927007299269959e-02 7.299270072992699622e-03 2.183941605839415878e+00
-1.521472392638036596e-02 6.134969325153373509e-03 1.835582822085889410e+00
9.296636085626912294e-03 6.116207951070337309e-03 1.829969418960244676e+00
3.295522388059701768e-02 5.970149253731343343e-03 1.786268656716417880e+00
5.717717717717717141e-02 6.006006006006005954e-03 1.796996996996996998e+00
8.144578313253011959e-02 6.024096385542168121e-03 1.802409638554216764e+00
1.068292682926829107e-01 6.097560975609756309e-03 1.824390243902438868e+00
-8.581818181818180735e-02 6.545454545454545275e-03 1.813333333333333242e+00
-7.257142857142856451e-02 7.714285714285714322e-03 2.137142857142857011e+00
-4.496350364963503515e-02 7.883211678832116598e-03 2.183941605839415878e+00
-1.329230769230769181e-02 6.646153846153845905e-03 1.841230769230769226e+00
1.121951219512194904e-02 6.585365853658535495e-03 1.824390243902438868e+00
3.476190476190476469e-02 6.428571428571428457e-03 1.780952380952380842e+00
5.999999999999999084e-02 6.585365853658535495e-03 1.824390243902438868e+00
8.362537764350452818e-02 6.525679758308157094e-03 1.807854984894259776e+00
-1.061904761904761962e-01 6.904761904761904864e-03 1.780952380952380842e+00
-8.439024390243901608e-02 7.073170731707317284e-03 1.824390243902438868e+00
-7.053763440860215395e-02 8.315412186379928308e-03 2.144802867383512446e+00
-4.262773722627737072e-02 8.467153284671532706e-03 2.183941605839415878e+00
-1.132307692307692355e-02 7.138461538461538837e-03 1.841230769230769226e+00
1.317073170731707099e-02 7.073170731707317284e-03 1.824390243902438868e+00
3.666666666666666685e-02 6.904761904761904864e-03 1.780952380952380842e+00
6.065671641791044177e-02 6.925373134328357758e-03 1.786268656716417880e+00
8.555891238670694510e-02 7.009063444108760456e-03 1.807854984894259776e+00
-1.042857142857142871e-01 7.380952380952381271e-03 1.780952380952380842e+00
-8.294478527607360152e-02 7.607361963190182978e-03 1.835582822085889410e+00
-6.824372759856629778e-02 8.888888888888887146e-03 2.144802867383512446e+00
-4.043956043956043606e-02 9.084249084249082506e-03 2.191941391941391704e+00
-9.353846153846153560e-03 7.630769230769230901e-03 1.841230769230769226e+00
1.507598784194528856e-02 7.537993920972644278e-03 1.818844984802431508e+00
3.845697329376854268e-02 7.359050445103857210e-03 1.775667655786349997e+00
6.275449101796407025e-02 7.425149700598801875e-03 1.791616766467065691e+00
8.775757575757575646e-02 7.515151515151514625e-03 1.813333333333333242e+00
-1.026865671641790934e-01 7.880597014925373039e-03 1.786268656716417880e+00
-8.123076923076923139e-02 8.123076923076923833e-03 1.841230769230769226e+00
-6.618705035971222950e-02 9.496402877697840764e-03 2.152517985611510642e+00
-3.809523809523809174e-02 9.670329670329670321e-03 2.191941391941391704e+00
-7.407407407407406823e-03 8.148148148148147418e-03 1.846913580246913433e+00
1.702127659574468113e-02 8.024316109422491988e-03 1.818844984802431508e+00
4.035608308605340838e-02 7.833827893175073637e-03 1.775667655786349997e+00
6.486486486486486847e-02 7.927927927927928484e-03 1.796996996996996998e+00
8.969696969696969169e-02 8.000000000000000167e-03 1.813333333333333242e+00
-1.010778443113772435e-01 8.383233532934131205e-03 1.791616766467065691e+00
-7.950617283950617287e-02 8.641975308641974482e-03 1.846913580246913433e+00
-6.388489208633092720e-02 1.007194244604316460e-02 2.152517985611510642e+00
-3.588235294117646940e-02 1.029411764705882165e-02 2.199999999999999734e+00
-5.432098765432098568e-03 8.641975308641974482e-03 1.846913580246913433e+00
1.890909090909091012e-02 8.484848484848483974e-03 1.813333333333333242e+00
4.213017751479290057e-02 8.284023668639053581e-03 1.770414201183431846e+00
6.678678678678678926e-02 8.408408408408408682e-03 1.796996996996996998e+00
9.163636363636362692e-02 8.484848484848483974e-03 1.813333333333333242e+00
-9.975903614457830304e-02 8.915662650602408298e-03 1.802409638554216764e+00
-7.849999999999998646e-02 9.249999999999999542e-03 1.869999999999999885e+00
-6.158273381294963184e-02 1.064748201438848844e-02 2.152517985611510642e+00
-3.340659340659340309e-02 1.084249084249084248e-02 2.191941391941391704e+00
-3.456790123456789880e-03 9.135802469135801546e-03 1.846913580246913433e+00
2.084848484848484881e-02 8.969696969696969516e-03 1.813333333333333242e+00
4.402366863905324973e-02 8.757396449704140870e-03 1.770414201183431846e+00
6.870870870870869618e-02 8.888888888888888881e-03 1.796996996996996998e+00
9.386018237082066618e-02 8.996960486322187409e-03 1.818844984802431508e+00
-9.783132530120482173e-02 9.397590361445782095e-03 1.802409638554216764e+00
-8.270270270270269064e-02 1.054054054054054043e-02 2.021621621621621401e+00
-5.949458483754512667e-02 1.126353790613718493e-02 2.160288808664259985e+00
-2.817275747508305589e-02 1.036544850498338777e-02 1.988039867109634429e+00
-1.486068111455108275e-03 9.659442724458204219e-03 1.852631578947368407e+00
2.271903323262839877e-02 9.425981873111780734e-03 1.807854984894259776e+00
4.578171091445427249e-02 9.203539823008848736e-03 1.765191740412979327e+00
7.084337349397590300e-02 9.397590361445782095e-03 1.802409638554216764e+00
9.580547112462005355e-02 9.483282674772035986e-03 1.818844984802431508e+00
-9.619335347432023120e-02 9.909365558912386698e-03 1.807854984894259776e+00
-8.424028268551236875e-02 1.159010600706713787e-02 2.114487632508833759e+00
-5.718411552346570198e-02 1.184115523465704110e-02 2.160288808664259985e+00
-2.529032258064516092e-02 1.058064516129032274e-02 1.930322580645161157e+00
4.953560371517027943e-04 1.015479876160990669e-02 1.852631578947368407e+00
2.457831325301204628e-02 9.879518072289155892e-03 1.802409638554216764e+00
4.766961651917403509e-02 9.675516224188789385e-03 1.765191740412979327e+00
7.277108433734938431e-02 9.879518072289155892e-03 1.802409638554216764e+00
9.804878048780486799e-02 1.000000000000000021e-02 1.824390243902438868e+00
-9.425981873111782816e-02 1.039274924471299093e-02 1.807854984894259776e+00
-8.226950354609929850e-02 1.219858156028368751e-02 2.121985815602836833e+00
-5.507246376811593402e-02 1.246376811594202688e-02 2.168115942028985277e+00
-2.368421052631579024e-02 1.131578947368420962e-02 1.968421052631578849e+00
2.469135802469135318e-03 1.061728395061728274e-02 1.846913580246913433e+00
2.650602409638553800e-02 1.036144578313252969e-02 1.802409638554216764e+00
4.941176470588235642e-02 1.011764705882352983e-02 1.760000000000000009e+00
7.492447129909365899e-02 1.039274924471299093e-02 1.807854984894259776e+00
9.999999999999999167e-02 1.048780487804877939e-02 1.824390243902438868e+00
-9.232628398791541124e-02 1.087613293051359516e-02 1.807854984894259776e+00
-8.000000000000000167e-02 1.276595744680850998e-02 2.121985815602836833e+00
-5.275362318840579046e-02 1.304347826086956451e-02 2.168115942028985277e+00
-2.193979933110367861e-02 1.204013377926421366e-02 2.001337792642140290e+00
4.430769230769231182e-03 1.107692307692307795e-02 1.841230769230769226e+00
2.843373493975903318e-02 1.084337349397590175e-02 1.802409638554216764e+00
5.129411764705882337e-02 1.058823529411764830e-02 1.760000000000000009e+00
7.685800604229607591e-02 1.087613293051359516e-02 1.807854984894259776e+00
1.019512195121951154e-01 1.097560975609756032e-02 1.824390243902438868e+00
-9.039274924471299433e-02 1.135951661631419939e-02 1.807854984894259776e+00
-7.800711743772241469e-02 1.338078291814946523e-02 2.129537366548042598e+00
-5.061818181818181217e-02 1.367272727272727216e-02 2.175999999999999712e+00
-2.069930069930070102e-02 1.314685314685314771e-02 2.092307692307692424e+00
6.400000000000000307e-03 1.156923076923076742e-02 1.841230769230769226e+00
3.027027027027026987e-02 1.129129129129129161e-02 1.796996996996996998e+00
5.302052785923754008e-02 1.102639296187683284e-02 1.754838709677419395e+00
7.903030303030303405e-02 1.139393939393939376e-02 1.813333333333333242e+00
1.042201834862385434e-01 1.149847094801223317e-02 1.829969418960244676e+00
-8.872727272727272407e-02 1.187878787878787756e-02 1.813333333333333242e+00
-7.572953736654802759e-02 1.395017793594306027e-02 2.129537366548042598e+00
-4.829090909090908573e-02 1.425454545454545204e-02 2.175999999999999712e+00
-1.879003558718861377e-02 1.395017793594306027e-02 2.129537366548042598e+00
8.343558282208589014e-03 1.202453987730061312e-02 1.835582822085889410e+00
3.219219219219219413e-02 1.177177177177177181e-02 1.796996996996996998e+00
5.621621621621621101e-02 1.177177177177177181e-02 1.796996996996996998e+00
8.096969696969696928e-02 1.187878787878787756e-02 1.813333333333333242e+00
1.061773700305810447e-01 1.198776758409786022e-02 1.829969418960244676e+00
-8.678787878787878884e-02 1.236363636363636311e-02 1.813333333333333242e+00
-7.371428571428570442e-02 1.457142857142857024e-02 2.137142857142857011e+00
-4.596363636363635236e-02 1.483636363636363364e-02 2.175999999999999712e+00
-1.669064748201438617e-02 1.467625899280575533e-02 2.152517985611510642e+00
1.030674846625766715e-02 1.251533742331288265e-02 1.835582822085889410e+00
3.401197604790418688e-02 1.221556886227544853e-02 1.791616766467065691e+00
6.607508532423209124e-02 1.392491467576791909e-02 2.042320819112628083e+00
8.316109422492401482e-02 1.240121580547112398e-02 1.818844984802431508e+00
1.084662576687116520e-01 1.251533742331288265e-02 1.835582822085889410e+00
-8.510638297872340219e-02 1.288753799392097256e-02 1.818844984802431508e+00
-7.142857142857142461e-02 1.514285714285714193e-02 2.137142857142857011e+00
-4.379562043795619947e-02 1.547445255474452427e-02 2.183941605839415878e+00
-1.526717557251908337e-02 1.618320610687023001e-02 2.283969465648854946e+00
1.223241590214067462e-02 1.296636085626911260e-02 1.829969418960244676e+00
3.582089552238805485e-02 1.265671641791044771e-02 1.786268656716417880e+00
6.172839506172839164e-02 1.308641975308641979e-02 1.846913580246913433e+00
8.510638297872340219e-02 1.288753799392097256e-02 1.818844984802431508e+00
-1.049258160237388771e-01 1.305637982195845606e-02 1.775667655786349997e+00
-8.341463414634145423e-02 1.341463414634146145e-02 1.824390243902438868e+00
-6.939068100358422586e-02 1.577060931899641402e-02 2.144802867383512446e+00
-4.145985401459853503e-02 1.605839416058394212e-02 2.183941605839415878e+00
-1.493333333333333145e-02 1.955555555555555519e-02 2.659555555555555451e+00
1.418960244648318110e-02 1.345565749235473965e-02 1.829969418960244676e+00
3.773134328358208889e-02 1.313432835820895449e-02 1.786268656716417880e+00
6.216867469879518160e-02 1.325301204819276900e-02 1.802409638554216764e+00
8.705167173252278956e-02 1.337386018237082114e-02 1.818844984802431508e+00
-1.033333333333333326e-01 1.357142857142857109e-02 1.780952380952380842e+00
-8.171253822629970243e-02 1.394495412844036844e-02 1.829969418960244676e+00
-6.709677419354838357e-02 1.634408602150537460e-02 2.144802867383512446e+00
-3.926739926739926390e-02 1.670329670329670155e-02 2.191941391941391704e+00
-1.066666666666666631e-02 1.788235294117647076e-02 2.346666666666666679e+00
1.609756097560975652e-02 1.390243902439024237e-02 1.824390243902438868e+00
3.952380952380952356e-02 1.357142857142857109e-02 1.780952380952380842e+00
6.429003021148035901e-02 1.377643504531722053e-02 1.807854984894259776e+00
8.926829268292681141e-02 1.390243902439024237e-02 1.824390243902438868e+00
-1.017313432835820902e-01 1.408955223880596977e-02 1.786268656716417880e+00
-8.024615384615385594e-02 1.452307692307692154e-02 1.841230769230769226e+00
-6.480286738351254128e-02 1.691756272401433517e-02 2.144802867383512446e+00
-3.692307692307691958e-02 1.728937728937728763e-02 2.191941391941391704e+00
-7.849056603773585036e-03 1.781132075471698190e-02 2.258113207547169932e+00
1.804878048780487673e-02 1.439024390243902329e-02 1.824390243902438868e+00
4.142857142857142572e-02 1.404761904761904837e-02 1.780952380952380842e+00
6.622356495468277593e-02 1.425981873111782476e-02 1.807854984894259776e+00
9.121951219512194897e-02 1.439024390243902329e-02 1.824390243902438868e+00
-1.001197604790419055e-01 1.461077844311377098e-02 1.791616766467065691e+00
-7.851851851851850139e-02 1.506172839506172631e-02 1.846913580246913433e+00
-6.273381294964028299e-02 1.755395683453237279e-02 2.152517985611510642e+00
-3.470588235294116974e-02 1.794117647058823470e-02 2.199999999999999734e+00
-5.454545454545454107e-03 1.848484848484848245e-02 2.266666666666666607e+00
1.993920972644376566e-02 1.483282674772036513e-02 1.818844984802431508e+00
4.320474777448071041e-02 1.448071216617210534e-02 1.775667655786349997e+00
6.815709969788519285e-02 1.474320241691842899e-02 1.807854984894259776e+00
9.317073170731707266e-02 1.487804878048780421e-02 1.824390243902438868e+00
-9.879518072289156239e-02 1.518072289156626245e-02 1.802409638554216764e+00
-7.701863354037265241e-02 1.565217391304347602e-02 1.858385093167701729e+00
-6.043165467625898762e-02 1.812949640287769490e-02 2.152517985611510642e+00
-3.235294117647058432e-02 1.852941176470588105e-02 2.199999999999999734e+00
-2.572347266881028997e-03 1.620578778135048012e-02 1.924115755627009650e+00
2.188449848024315997e-02 1.531914893617021198e-02 1.818844984802431508e+00
4.510385756676557611e-02 1.495548961424332177e-02 1.775667655786349997e+00
7.030303030303029777e-02 1.527272727272727289e-02 1.813333333333333242e+00
9.541284403669725300e-02 1.541284403669724787e-02 1.829969418960244676e+00
-9.716012084592144660e-02 1.570996978851963918e-02 1.807854984894259776e+00
-7.526479750778815314e-02 1.619937694704049608e-02 1.864174454828660288e+00
-5.833935018050541432e-02 1.877256317689530649e-02 2.160288808664259985e+00
-3.011070110701106681e-02 1.918819188191881603e-02 2.208118081180811654e+00
-4.953560371517027943e-04 1.609907120743033979e-02 1.852631578947368407e+00
2.375757575757575513e-02 1.575757575757575496e-02 1.813333333333333242e+00
4.686390532544378734e-02 1.538461538461538373e-02 1.770414201183431846e+00
7.224242424242424687e-02 1.575757575757575496e-02 1.813333333333333242e+00
9.737003058103975428e-02 1.590214067278287666e-02 1.829969418960244676e+00
-9.522658610271902968e-02 1.619335347432023994e-02 1.807854984894259776e+00
-7.686274509803921184e-02 1.751633986928104528e-02 1.955555555555555491e+00
-5.602888086642598964e-02 1.935018050541516266e-02 2.160288808664259985e+00
-2.774907749077490729e-02 1.977859778597785764e-02 2.208118081180811654e+00
1.490683229813664652e-03 1.664596273291925332e-02 1.858385093167701729e+00
2.569696969696969382e-02 1.624242424242424224e-02 1.813333333333333242e+00
4.875739644970413650e-02 1.585798816568047276e-02 1.770414201183431846e+00
7.440729483282673695e-02 1.629179331306990566e-02 1.818844984802431508e+00
9.963190184049079690e-02 1.644171779141103892e-02 1.835582822085889410e+00
-9.357575757575756215e-02 1.672727272727272604e-02 1.813333333333333242e+00
-7.972125435540070026e-02 1.923344947735191809e-02 2.085017421602787469e+00
-5.391304347826086918e-02 2.000000000000000042e-02 2.168115942028985277e+00
-2.538745387453874083e-02 2.036900369003689926e-02 2.208118081180811654e+00
3.467492260061919452e-03 1.708978328173374472e-02 1.852631578947368407e+00
2.755287009063444106e-02 1.667673716012084417e-02 1.807854984894259776e+00
5.065088757396449259e-02 1.633136094674556005e-02 1.770414201183431846e+00
7.635258358662613820e-02 1.677811550151975598e-02 1.818844984802431508e+00
1.015950920245398681e-01 1.693251533742331019e-02 1.835582822085889410e+00
-9.163636363636362692e-02 1.721212121212121332e-02 1.813333333333333242e+00
-7.886524822695034631e-02 2.014184397163120560e-02 2.121985815602836833e+00
-5.140794223826714721e-02 2.050541516245487153e-02 2.160288808664259985e+00
-2.311111111111111005e-02 2.103703703703703465e-02 2.216296296296296209e+00
5.448916408668730629e-03 1.758513931888544893e-02 1.852631578947368407e+00
2.948640483383685798e-02 1.716012084592145187e-02 1.807854984894259776e+00
5.238938053097344505e-02 1.675516224188790607e-02 1.765191740412979327e+00
7.853658536585364502e-02 1.731707317073170882e-02 1.824390243902438868e+00
1.038769230769230889e-01 1.747692307692307739e-02 1.841230769230769226e+00
-8.969696969696969169e-02 1.769696969696969713e-02 1.813333333333333242e+00
-7.686832740213522808e-02 2.078291814946619381e-02 2.129537366548042598e+00
-4.892086330935251776e-02 2.100719424460431584e-02 2.152517985611510642e+00
-2.074074074074074014e-02 2.162962962962962712e-02 2.216296296296296209e+00
7.407407407407406823e-03 1.802469135802469216e-02 1.846913580246913433e+00
3.132530120481927943e-02 1.759036144578313143e-02 1.802409638554216764e+00
5.575757575757575579e-02 1.769696969696969713e-02 1.813333333333333242e+00
8.024316109422492682e-02 1.775075987841945313e-02 1.818844984802431508e+00
1.058461538461538398e-01 1.796923076923076859e-02 1.841230769230769226e+00
-8.802431610942247631e-02 1.823708206686929997e-02 1.818844984802431508e+00
-7.459074733096085486e-02 2.135231316725978365e-02 2.129537366548042598e+00
-4.712727272727271904e-02 2.181818181818181643e-02 2.175999999999999712e+00
-1.843866171003717344e-02 2.230483271375464580e-02 2.224535315985129991e+00
9.353846153846153560e-03 1.846153846153845979e-02 1.841230769230769226e+00
3.325301204819276768e-02 1.807228915662650523e-02 1.802409638554216764e+00
6.006309148264983577e-02 1.892744479495267820e-02 1.887697160883280656e+00
8.144578313253011959e-02 1.807228915662650523e-02 1.802409638554216764e+00
1.078153846153846185e-01 1.846153846153845979e-02 1.841230769230769226e+00
-8.607902735562308894e-02 1.872340425531915029e-02 1.818844984802431508e+00
-7.257142857142856451e-02 2.199999999999999872e-02 2.137142857142857011e+00
-4.479999999999999261e-02 2.239999999999999630e-02 2.175999999999999712e+00
-1.594095940959409582e-02 2.273062730627305877e-02 2.208118081180811654e+00
1.132307692307692355e-02 1.895384615384615445e-02 1.841230769230769226e+00
3.507507507507507533e-02 1.849849849849849806e-02 1.796996996996996998e+00
