3.046940139388390969e-05 2.539116782823665070e-06 -9.480953441746483711e-06
0.000000000000000000e+00 0.000000000000000000e+00 1.219326322206977137e-05
-0.000000000000000000e+00 0.000000000000000000e+00 2.663891779396466008e-07
-0.000000000000000000e+00 0.000000000000000000e+00 2.336597876981890462e-07
-0.000000000000000000e+00 0.000000000000000000e+00 2.350780532598874854e-07
-0.000000000000000000e+00 0.000000000000000000e+00 2.066115702479176492e-07
0.000000000000000000e+00 0.000000000000000000e+00 4.203577967340170728e-05
-5.103561256345437609e-05 1.512166298176436324e-05 -7.833243801950678215e-06
0.000000000000000000e+00 0.000000000000000000e+00 -1.024000000000000530e-05
1.376428539288238051e-19 -2.569662342654332232e-06 2.947553863632423158e-07
-1.041850525122789417e-19 2.789109701175950388e-06 1.715227891097059560e-07
0.000000000000000000e+00 0.000000000000000000e+00 2.663891779396468125e-07
0.000000000000000000e+00 0.000000000000000000e+00 2.336597876981888345e-07
0.000000000000000000e+00 -0.000000000000000000e+00 2.350780532598705447e-07
0.000000000000000000e+00 0.000000000000000000e+00 2.066115702479175433e-07
-8.682051773117540781e-06 3.906923297902920457e-05 -2.337537976722121264e-05
1.942219694372224697e-06 -7.768878777489052946e-06 9.652416432967046933e-06
-2.239494766387854880e-06 8.957979065551419518e-06 -1.119747383193966403e-07
-2.585095750117143038e-06 1.034038300046857215e-05 -4.057356163953902261e-07
8.315995796142044966e-06 -3.326398318456833572e-05 1.194034690515525611e-06
2.837231391929772065e-05 -1.197942143259236251e-04 4.119295844432775661e-06
0.000000000000000000e+00 0.000000000000000000e+00 0.000000000000000000e+00
0.000000000000000000e+00 -0.000000000000000000e+00 1.058791184067875424e-22
-4.415548575092640029e-06 1.766219430037059400e-05 -3.978716229428489001e-07
0.000000000000000000e+00 0.000000000000000000e+00 2.034917331483395846e-06
-1.942219694372224697e-06 7.768878777489052946e-06 -9.652416432967046933e-06
-2.245911656835966776e-06 8.983646627343799343e-06 -1.122955828417940825e-07
-2.600668616081567594e-06 1.040267446432627038e-05 -4.081798068555805459e-07
8.214736281431727710e-06 -3.285894512572669400e-05 1.179495556986336694e-06
0.000000000000000000e+00 0.000000000000000000e+00 -9.754610577655849625e-05
0.000000000000000000e+00 -0.000000000000000000e+00 0.000000000000000000e+00
0.000000000000000000e+00 0.000000000000000000e+00 0.000000000000000000e+00
-4.440780281236259351e-06 1.776312112494507129e-05 -4.001451750739453016e-07
-0.000000000000000000e+00 -0.000000000000000000e+00 -2.060491493383741375e-05
-1.963562607733495508e-06 7.854250430933919352e-06 9.457126538263114661e-06
-2.258819195093801002e-06 9.035276780375136246e-06 -1.129409597546856455e-07
3.130202346343959188e-05 5.217003910573233973e-06 -1.008248777155728524e-05
1.198551620364834980e-19 -8.470329472543003391e-19 5.886878983417387357e-20
-2.705004439027982970e-05 -2.434503995125184876e-05 -1.167346835452192508e-05
0.000000000000000000e+00 -0.000000000000000000e+00 1.503483481376383102e-20
2.648144260579338073e-06 -1.059257704231727606e-05 2.740192055733163044e-07
0.000000000000000000e+00 -0.000000000000000000e+00 -3.176373552203626272e-21
-7.288464782283866948e-04 4.719149859032620059e-05 -1.534901388642442366e-04
1.963562607733495508e-06 -7.854250430933919352e-06 -9.457126538263112967e-06
-2.265310054849793412e-06 9.061240219399243105e-06 -1.132655027425017196e-07
-3.474010622946789942e-05 5.344631727610428732e-06 9.873992759872793256e-06
-1.207021949837377983e-19 8.300922883092143323e-19 -5.675120746603812272e-20
3.216526085309626566e-05 5.360876808849364339e-06 1.243035392682938202e-05
0.000000000000000000e+00 0.000000000000000000e+00 -1.503483481376383102e-20
2.632191584310840276e-06 -1.052876633724328487e-05 2.723684874674753268e-07
0.000000000000000000e+00 -0.000000000000000000e+00 1.429368098491631822e-20
-9.429367621942858347e-05 -2.321075106939783769e-04 6.528450406486321260e-04
8.046812998915853221e-20 -3.422013106907373370e-19 8.046812998915853221e-21
0.000000000000000000e+00 0.000000000000000000e+00 1.035803937111905934e-05
3.484569925752096858e-05 -5.360876808849403303e-06 -9.904004895921027238e-06
-2.780527825171615574e-06 1.112211130068638268e-05 -3.992362144698308565e-07
0.000000000000000000e+00 -0.000000000000000000e+00 1.175390266299360093e-05
5.108733466942473524e-05 -7.663100200413625583e-05 5.975442393352846333e-05
2.624263296406291066e-06 -1.049705318562508464e-05 2.715481004570315121e-07
0.000000000000000000e+00 0.000000000000000000e+00 -1.418780186650953068e-20
0.000000000000000000e+00 0.000000000000000000e+00 -9.984412792260143575e-04
-7.962109704190423187e-20 3.438953765852459377e-19 -8.046812998915853221e-21
-1.958810211825522845e-04 1.735654618073246495e-04 9.052121692020853052e-05
-3.295943119644611022e-05 -2.746619266370522596e-06 1.022858640160689307e-05
2.780527825171615574e-06 -1.112211130068638268e-05 3.992362144698376328e-07
0.000000000000000000e+00 0.000000000000000000e+00 1.151882460973370201e-05
-2.428842504743822790e-06 9.715370018975272526e-06 -2.837979076398504533e-07
2.608501955286654679e-06 -1.043400782114653910e-05 2.699171809347525382e-07
0.000000000000000000e+00 0.000000000000000000e+00 -1.029876601998342055e-05
-2.101464412187568735e-04 8.200836730488075658e-05 8.929784768078986932e-05
2.865018296227992106e-05 -1.227864984097716856e-05 -1.079689477104061576e-05
-2.041678706819494973e-04 -7.521974183019181092e-05 9.920692866338486461e-05
-3.030548926728445476e-05 -1.377522239422020440e-05 1.069237182096862215e-05
0.000000000000000000e+00 0.000000000000000000e+00 -1.016439536705160407e-20
2.648144260579299957e-06 -1.059257704231731333e-05 3.448252018454639315e-07
2.428842504743822790e-06 -9.715370018975272526e-06 2.837979076398503474e-07
2.600668616081567594e-06 -1.040267446432628054e-05 2.691066188298354979e-07
0.000000000000000000e+00 0.000000000000000000e+00 1.029876601998342055e-05
-5.119288227305281364e-05 1.181374206301187527e-05 2.021708211692497764e-05
2.134051340803174129e-06 -8.536205363212647388e-06 -1.997506291109526263e-05
-4.600511253339556743e-04 1.281570992001718721e-03 -6.024244720664020860e-04
-2.118515408463455212e-05 -4.766659669042769992e-05 4.719502875525550563e-05
0.000000000000000000e+00 -0.000000000000000000e+00 -1.037615360386517915e-20
2.632191584310802159e-06 -1.052876633724332214e-05 3.427479415934003305e-07
2.428842504743822367e-06 -9.715370018975272526e-06 2.837979076398504533e-07
-0.000000000000000000e+00 0.000000000000000000e+00 -1.154307460613766664e-05
0.000000000000000000e+00 -0.000000000000000000e+00 4.743384504624081899e-20
-7.601811607363983683e-06 3.040724642945593473e-05 -3.808426312491349647e-05
-2.207774287546287827e-06 8.831097150185347820e-06 1.004183112445224272e-05
3.010881993703032743e-05 2.509068328085924852e-06 -9.368753797251049543e-06
2.509068328085888006e-06 -1.003627331234347918e-05 3.938029702102618667e-07
0.000000000000000000e+00 0.000000000000000000e+00 1.016439536705160407e-20
0.000000000000000000e+00 0.000000000000000000e+00 -1.990527426047605797e-20
-2.443171959049095927e-06 9.772687836196363380e-06 -2.854722315787249060e-07
0.000000000000000000e+00 0.000000000000000000e+00 0.000000000000000000e+00
2.207774287546353896e-06 -8.831097150185313938e-06 1.989358114714258265e-07
5.119288227305281364e-05 -1.181374206301187189e-05 -2.021708211692497764e-05
-2.265310054849759107e-06 9.061240219399309173e-06 -1.435503965239456154e-07
-8.555032767268433425e-20 9.486769009248163798e-20 1.461131834013668085e-20
-2.509068328085888006e-06 1.003627331234347918e-05 -3.938029702102618667e-07
2.245061142180430994e-05 5.051387569905962791e-05 -4.933882030178332845e-05
-0.000000000000000000e+00 0.000000000000000000e+00 2.001115337888284551e-20
-5.602781643535986744e-05 9.677531929743852666e-05 -6.017066081057492836e-05
0.000000000000000000e+00 -0.000000000000000000e+00 0.000000000000000000e+00
2.207774287546353896e-06 -8.831097150185312244e-06 1.989358114714258265e-07
3.583224950359293519e-06 -1.433289980143730283e-05 -8.597823717787483601e-06
0.000000000000000000e+00 0.000000000000000000e+00 3.197549375884983780e-20
1.139259314057033956e-19 -4.302927372051845722e-19 1.651714247145885661e-20
-2.516535793348027726e-06 1.006614317339203636e-05 -3.949750028596939544e-07
-9.864977537577467818e-05 9.248416441478879467e-05 7.120950948122817693e-06
0.000000000000000000e+00 -0.000000000000000000e+00 5.082197683525802034e-21
-7.872789889218835506e-06 3.149115955687524038e-05 -9.198955030985782943e-07
0.000000000000000000e+00 0.000000000000000000e+00 0.000000000000000000e+00
1.724376412006066307e-05 2.682363307564993764e-05 -5.941516693049721601e-05
-1.869910448819861272e-06 7.479641795279506076e-06 -1.434931280244216946e-07
0.000000000000000000e+00 -0.000000000000000000e+00 3.186961464044305026e-20
-9.317362419797303730e-20 6.318865786517080529e-19 -4.637505386217294356e-20
-2.531559887636690002e-06 1.012623955054668716e-05 -3.973330625782663904e-07
8.558511145868822213e-04 2.567553343760646013e-04 4.742650895671926114e-05
-0.000000000000000000e+00 0.000000000000000000e+00 -1.175258214315341720e-20
-2.632191584310802159e-06 1.052876633724328487e-05 -3.075582145304507459e-07
2.539116782823665070e-06 -1.015646713129464165e-05 2.627374852814861656e-07
-2.051372188611269665e-05 -1.118930284697055503e-05 1.009380826788009545e-05
7.601811607363983683e-06 -3.040724642945593473e-05 3.808426312491348969e-05
0.000000000000000000e+00 0.000000000000000000e+00 -3.176373552203626272e-20
9.783230540787168916e-20 -5.217722955086490089e-19 3.197549375884983780e-20
7.580944877925988035e-20 -4.404571325722361763e-19 2.816384549620548627e-20
-2.572165440825287686e-03 -2.667430827522520274e-03 -4.914242047951092839e-03
0.000000000000000000e+00 0.000000000000000000e+00 -1.185846126156020475e-20
2.632191584310802159e-06 -1.052876633724328487e-05 3.075582145304219468e-07
4.116923659067236503e-05 7.507331378299075179e-05 1.284942509954334691e-04
2.889512599969845118e-05 6.320808812434039394e-05 1.541524068205822780e-05
-1.869910448819861696e-06 7.479641795279506923e-06 -1.434931280244216946e-07
-2.151463686025922861e-19 6.166399856011306468e-19 1.588186776101813136e-20
-2.608501955286579717e-06 1.043400782114654418e-05 -4.442822848977698291e-07
-1.041850525122789417e-19 5.844527336054672340e-19 -3.599890025830776441e-20
2.228366615463401343e-04 7.864823348694308732e-05 -4.614450276689363264e-05
2.600668616081567594e-06 -1.040267446432627038e-05 3.386432128427001339e-07
5.399835038746164662e-20 -3.167903222731083268e-19 3.176373552203626272e-22
2.672080934938168487e-05 4.453468224896964419e-06 3.077775219489505497e-05
1.442526694604189994e-04 3.709354357553629303e-05 -6.383704076778845625e-05
1.869910448819861696e-06 -7.479641795279506923e-06 -9.131062707700014338e-06
-2.304782220900792674e-06 9.219128883603240154e-06 -1.460517075811488939e-07
-2.624263296406215680e-06 1.049705318562508803e-05 -4.469667700029092083e-07
0.000000000000000000e+00 0.000000000000000000e+00 1.334076891925523034e-20
0.000000000000000000e+00 0.000000000000000000e+00 -1.182546354893244184e-05
-2.600668616081567594e-06 1.040267446432627038e-05 -3.386432128427000280e-07
2.600668616081567594e-06 -1.040267446432627885e-05 3.038749158362704629e-07
0.000000000000000000e+00 0.000000000000000000e+00 9.317362419797303730e-21
-2.530470868869078840e-04 -2.300428062608218501e-05 8.606922427828084840e-05
2.545656987348470001e-05 -3.916395365151477779e-06 -1.050777253786452864e-05
-2.318143277253756731e-06 9.272573109015096380e-06 -1.468983841468468061e-07
7.030373462210692814e-20 -2.270048298641524909e-19 5.717472393966527289e-21
0.000000000000000000e+00 -0.000000000000000000e+00 1.334076891925523034e-20
2.680438404424663111e-06 -1.072175361769872868e-05 3.848650864106954585e-07
2.428842504743818979e-05 2.428842504743818979e-05 1.059858547524581699e-05
2.585095750117143038e-06 -1.034038300046857893e-05 3.020553055618127160e-07
-0.000000000000000000e+00 0.000000000000000000e+00 -9.529120656610878815e-21
2.081436552968528211e-04 -5.847845553578250250e-04 -1.317077079315392139e-04
0.000000000000000000e+00 0.000000000000000000e+00 -1.078482275662640791e-04
2.557348786442840814e-05 1.394917519877909860e-05 -1.255239281590666848e-05
-8.682087709356578475e-20 1.101142831430590441e-19 1.334076891925523034e-20
-0.000000000000000000e+00 0.000000000000000000e+00 6.670384459627615170e-21
-3.187402728188202839e-05 -5.312337880313652198e-06 -1.231780590857769328e-05
0.000000000000000000e+00 0.000000000000000000e+00 -8.470329472543003391e-22
0.000000000000000000e+00 0.000000000000000000e+00 0.000000000000000000e+00
-4.403004403004314796e-06 1.761201761201729307e-05 -4.556050010595357879e-07
-2.428477167846273947e-04 5.082859188515528989e-05 6.372751737187417839e-05
3.568386401266475990e-04 4.460483001583068560e-05 -2.481173485693416404e-04
-2.358851289878575812e-06 9.435405159514301555e-06 1.066717964323954523e-05
5.802175688691957323e-20 -7.115076756936122848e-20 -8.893845946170153560e-21
0.000000000000000000e+00 -0.000000000000000000e+00 -1.334076891925523034e-20
2.648144260579338073e-06 -1.059257704231723710e-05 3.802281999815985196e-07
-0.000000000000000000e+00 0.000000000000000000e+00 8.470329472543003391e-22
-0.000000000000000000e+00 0.000000000000000000e+00 0.000000000000000000e+00
0.000000000000000000e+00 0.000000000000000000e+00 1.418780186650953068e-20
-9.686879197805257815e-05 -2.179547819506181280e-05 -2.513913506682848346e-04
-1.290550199215306424e-04 5.261473889108550473e-04 -1.881552469246743282e-04
1.319415580552826242e-04 -3.909379497934270412e-05 -1.747722599076511192e-05
3.505817303348119512e-05 -5.393565082074054061e-06 -9.964395169676686570e-06
0.000000000000000000e+00 0.000000000000000000e+00 1.334076891925523034e-20
2.632191584310840276e-06 -1.052876633724324760e-05 3.779376686564102662e-07
0.000000000000000000e+00 0.000000000000000000e+00 8.470329472543003391e-22
-0.000000000000000000e+00 0.000000000000000000e+00 -1.418780186650953068e-20
0.000000000000000000e+00 -0.000000000000000000e+00 1.418780186650953068e-20
-2.110207378831635764e-05 8.440829515326533569e-05 -1.731159967842612224e-04
-2.258819195093787619e-05 -2.258819195093794395e-05 3.332664256290677205e-05
4.852139088707682147e-05 -3.558235331718910348e-05 1.142371712721033392e-05
-8.016947591415643945e-06 3.206779036566265032e-05 -1.365453373190289387e-06
-1.317136232980437027e-19 3.659182332138577465e-19 -1.270549420881450509e-21
0.000000000000000000e+00 0.000000000000000000e+00 -1.672890070827243170e-20
-3.430483436379916373e-20 4.743384504624081899e-20 6.352747104407252543e-21
0.000000000000000000e+00 0.000000000000000000e+00 -1.418780186650953068e-20
0.000000000000000000e+00 0.000000000000000000e+00 -1.418780186650953068e-20
-1.308937314173915257e-05 -4.113802987403731730e-05 2.024453047678262616e-05
0.000000000000000000e+00 0.000000000000000000e+00 3.950617283950620033e-05
0.000000000000000000e+00 0.000000000000000000e+00 -1.127068125985087364e-05
0.000000000000000000e+00 0.000000000000000000e+00 1.111111111111104388e-05
-1.312901068244165526e-19 3.659182332138577465e-19 -1.270549420881450509e-21
-0.000000000000000000e+00 0.000000000000000000e+00 1.662302158986564415e-20
2.855475691668676644e-05 2.379563076390563023e-06 -1.056042458340372265e-05
-3.360624475152285779e-05 5.170191500234295392e-06 1.159076754912113161e-05
2.189029101210461988e-06 -8.756116404841780189e-06 2.265118348043986195e-07
-3.520276100086284447e-04 -1.240478244792326482e-04 -3.377188126799860585e-04
-4.390531302711580500e-06 1.536685955949427902e-05 1.775758602954068661e-05
-2.509068328085851160e-06 1.003627331234347918e-05 -4.608903586617841630e-07
-0.000000000000000000e+00 0.000000000000000000e+00 -1.111111111111104388e-05
-5.493289905988011103e-06 2.197315962395196310e-05 -8.621821323034630660e-07
0.000000000000000000e+00 -0.000000000000000000e+00 3.282252670610413814e-21
0.000000000000000000e+00 0.000000000000000000e+00 4.404571325722361763e-20
1.838512157767547593e-05 1.838512157767549287e-05 2.648637301083197644e-05
1.034859614601864796e-04 4.543286112886207330e-05 1.552957552213496872e-04
-2.378057166985184621e-04 -1.981714305821185955e-05 1.956598461410297921e-04
-2.734039916343019663e-05 -2.278366596952570737e-06 1.178232308867919140e-05
-7.496241583200558001e-20 -2.032879073410320814e-20 2.519923018081543509e-20
-2.319620348233859006e-05 -3.350562725226690350e-05 1.131211171011805691e-05
2.771998598714028118e-06 -1.108799439485607351e-05 4.350703683008213712e-07
-0.000000000000000000e+00 0.000000000000000000e+00 -8.364450354136215848e-21
2.672315863805214366e-06 -1.068926345522088118e-05 1.190180891534856884e-05
0.000000000000000000e+00 -0.000000000000000000e+00 1.018173553786088693e-05
5.327783558792895254e-05 -9.444707217860128369e-05 1.900026963081825416e-04
6.641025278346825026e-04 -7.422322369917044773e-04 2.696589115067421949e-05
0.000000000000000000e+00 0.000000000000000000e+00 1.926999955003533271e-20
1.262079091408907505e-19 -3.913292216314867566e-19 9.529120656610878815e-21
-2.326586175105424837e-05 -3.619134050163999914e-05 1.165850535219897671e-05
-2.771998598714028118e-06 1.108799439485607351e-05 -4.350703683008215830e-07
0.000000000000000000e+00 -0.000000000000000000e+00 -1.164670302474662966e-20
2.656168940156826099e-06 -1.062467576062732981e-05 1.206426250974451412e-05
-0.000000000000000000e+00 0.000000000000000000e+00 -1.018173553786088693e-05
-2.051372188611269326e-05 -1.118930284697055503e-05 1.009380826788009545e-05
-2.081436552968528211e-04 5.847845553578250250e-04 1.317077079315391868e-04
-0.000000000000000000e+00 0.000000000000000000e+00 -1.916412043162854517e-20
-1.287490079826536515e-19 5.675120746603812272e-19 -2.985791139071408695e-20
-2.895463439270076642e-05 1.158185375708028353e-04 -4.931578103783589557e-06
1.931235119739804773e-19 -5.471832839262780190e-19 3.388131789017201356e-21
0.000000000000000000e+00 -0.000000000000000000e+00 1.503483481376383102e-20
0.000000000000000000e+00 -0.000000000000000000e+00 -3.483814777181010229e-05
0.000000000000000000e+00 0.000000000000000000e+00 2.519923018081543509e-20
2.531263702534424908e-04 1.131865883247114545e-04 -1.993002873340867192e-04
-2.867795250010337759e-05 -1.749355102506349618e-04 -1.894638836736173650e-04
0.000000000000000000e+00 -0.000000000000000000e+00 -2.551686753603579771e-20
1.122318655111947949e-19 -5.387129544537350156e-19 3.176373552203626272e-20
-5.639346864274003923e-05 -6.529770053369968825e-05 -1.256036347042828855e-05
-4.490122284360853857e-05 3.928856998815748988e-05 9.648060215961462224e-06
0.000000000000000000e+00 0.000000000000000000e+00 -1.503483481376383102e-20
-2.561968742825321905e-06 1.024787497130119614e-05 -3.336039512716488742e-07
-0.000000000000000000e+00 0.000000000000000000e+00 -2.519923018081543509e-20
1.308191312923289736e-05 7.849147877539338616e-05 -5.063469905314621711e-05
1.869910448819862966e-06 -7.479641795279506923e-06 -9.131062707700016032e-06
0.000000000000000000e+00 0.000000000000000000e+00 2.562274665444258526e-20
-7.326834993749697933e-20 4.167402100491157668e-19 -2.837560373301906136e-20
1.963831579772354937e-04 8.793275730323985018e-05 4.232292952448121558e-05
-8.315995796142044966e-06 3.326398318456826118e-05 -1.305211104902481690e-06
2.906063759341580800e-05 2.421719799451332157e-06 -1.316729201118790584e-05
2.561968742825321905e-06 -1.024787497130119614e-05 3.336039512716487683e-07
0.000000000000000000e+00 0.000000000000000000e+00 -2.519923018081543509e-20
1.350618572698132559e-04 6.957732041171976799e-05 -9.542751642879997154e-05
5.586686420439885566e-05 -3.082309749208233195e-05 -1.072781837345569998e-05
-2.572217093340679805e-05 -1.169189587882128431e-05 1.233338706447235727e-05
6.183340514956392475e-20 -3.472835083742631390e-19 2.371692252312040949e-20
0.000000000000000000e+00 0.000000000000000000e+00 1.334076891925523034e-20
-2.939547450185739784e-05 -1.603389518283132516e-05 -1.200898735908407407e-05
0.000000000000000000e+00 0.000000000000000000e+00 -1.524659305057740610e-20
2.554321074936273636e-06 -1.021728429974507252e-05 3.326081185812795504e-07
-4.378058202420890942e-06 1.751223280968356377e-05 -5.115538594807332521e-07
3.179645451466020750e-04 -2.510246409052117151e-05 -7.155544643557347451e-05
5.049808697729434807e-05 -7.768936458045256301e-06 -1.134077769858234966e-05
0.000000000000000000e+00 -0.000000000000000000e+00 1.038399134667391357e-05
1.016439536705160407e-20 1.948175778684890780e-19 -2.668153783851046068e-20
0.000000000000000000e+00 -0.000000000000000000e+00 1.334076891925523034e-20
-2.585095750117143038e-06 1.034038300046860942e-05 1.064243830603004489e-05
-0.000000000000000000e+00 0.000000000000000000e+00 1.545835128739098119e-20
-0.000000000000000000e+00 0.000000000000000000e+00 -4.235164736271501695e-22
-3.340101168672710778e-05 2.226734112448472045e-05 -3.146899238327813741e-05
5.036555714816579911e-04 2.587588257153473252e-04 -7.897802680411378055e-05
-7.829699232299734322e-05 -7.829699232299732966e-05 -6.881342614056115887e-05
-0.000000000000000000e+00 0.000000000000000000e+00 -1.016765819361819211e-05
-2.680438404424663111e-06 1.072175361769880661e-05 -4.923693004919451515e-07
-0.000000000000000000e+00 0.000000000000000000e+00 6.670384459627615170e-21
2.585095750117143038e-06 -1.034038300046860942e-05 -1.041226801597952663e-05
2.549957604979132404e-05 6.954429831761271040e-06 -1.005975010423219637e-05
2.784715876400355403e-05 7.594679662910051796e-06 1.033878227908078725e-05
0.000000000000000000e+00 0.000000000000000000e+00 2.066115702479336623e-05
-2.530470868869078298e-04 -2.300428062608216468e-05 8.606922427828086195e-05
0.000000000000000000e+00 0.000000000000000000e+00 -3.950617283950620033e-05
9.649578255928879019e-05 1.072175361769873037e-05 3.763450190973956374e-04
0.000000000000000000e+00 0.000000000000000000e+00 1.182546354893253840e-05
-0.000000000000000000e+00 0.000000000000000000e+00 2.294811574455720757e-07
0.000000000000000000e+00 0.000000000000000000e+00 1.238396874800340599e-05
4.649725066259688240e-06 -1.859890026503884783e-05 6.676209520271460868e-07
5.078233565647330140e-06 -2.031293426258926974e-05 6.612566167032995954e-07
-2.597257743347932232e-05 -1.125478355450771289e-04 -3.683152224100658416e-05
-1.697829479358754063e-04 1.749278857521186653e-04 -1.549300352080890033e-04
-4.045173811555521107e-05 2.966460795140714191e-05 -1.073593455975948262e-04
9.798800367455188490e-05 -0.000000000000000000e+00 2.656680099625482406e-05
-2.305771868542771461e-05 -3.330559365672896665e-05 -1.117744491355123855e-05
0.000000000000000000e+00 -0.000000000000000000e+00 2.294811574455754639e-07
-0.000000000000000000e+00 0.000000000000000000e+00 -1.238396874800340599e-05
2.838874088810123555e-05 2.365728407341769629e-06 -5.508857941053275513e-06
4.453504580036211399e-06 -1.781401832014487948e-05 5.787174400795652073e-07
4.275057005820419580e-05 1.111514821513310744e-04 -2.128315412143701635e-04
1.942219694372255613e-06 -7.768878777489022453e-06 -1.866763939935782408e-05
1.267391794302985075e-04 1.956191682511131949e-04 -3.288485370023896514e-05
4.852139088707682147e-05 -3.558235331718910348e-05 1.142371712721033223e-05
-1.461131834013668085e-19 4.573977915173221831e-19 -3.388131789017201356e-20
-0.000000000000000000e+00 0.000000000000000000e+00 3.282252670610413814e-21
0.000000000000000000e+00 0.000000000000000000e+00 -3.388131789017201356e-21
2.086801564229308836e-05 4.434453323987278396e-05 7.942958199889546230e-05
0.000000000000000000e+00 0.000000000000000000e+00 -1.018173553786088693e-05
7.876750270115904704e-05 2.494304252203366186e-04 2.669109137877151232e-05
1.931664152554953594e-06 -7.726656610219814376e-06 9.487363320396391018e-06
0.000000000000000000e+00 0.000000000000000000e+00 -1.035803937111898649e-05
0.000000000000000000e+00 0.000000000000000000e+00 -1.104526763465385783e-05
-3.037871865164016991e-05 -2.531559887636690002e-06 -1.243781094527359752e-05
-0.000000000000000000e+00 0.000000000000000000e+00 -3.324604317973128831e-20
-0.000000000000000000e+00 0.000000000000000000e+00 3.282252670610413814e-21
5.377220945461575369e-06 2.688610472730775826e-06 -3.004917587169607520e-07
0.000000000000000000e+00 0.000000000000000000e+00 1.018173553786088693e-05
-1.350618572698132559e-04 -6.957732041171975444e-05 9.542751642879997154e-05
-8.932457757672630132e-05 4.466228878836208679e-05 6.024632271050613005e-05
-2.278366596952536433e-06 9.113466387810008511e-06 -2.046874803679138752e-07
-2.509068328085851160e-06 1.003627331234347918e-05 -4.937631790030069536e-07
5.639346864274004601e-05 6.529770053369968825e-05 1.256036347042829024e-05
0.000000000000000000e+00 0.000000000000000000e+00 1.642414791713072352e-05
0.000000000000000000e+00 -0.000000000000000000e+00 -2.668153783851046068e-20
-2.738245427143799123e-05 1.467061064644448187e-18 1.903593077693583840e-05
1.838512157767547254e-05 1.838512157767548948e-05 2.648637301083197305e-05
-1.308191312923289397e-05 -7.849147877539338616e-05 5.063469905314622389e-05
1.697829479358754063e-04 -1.749278857521186653e-04 1.549300352080889762e-04
0.000000000000000000e+00 -0.000000000000000000e+00 7.653912913486545297e-06
-2.879912020664621153e-20 3.049318610115481221e-20 5.082197683525802034e-21
5.465985729359054517e-04 5.979881823572302628e-04 1.036086476383646371e-04
5.123937485650643810e-06 -2.049574994260235501e-05 8.713433799127872093e-07
-0.000000000000000000e+00 0.000000000000000000e+00 -2.837560373301906136e-20
-7.564981144316989051e-04 1.189462444075003241e-04 -3.303169011004912481e-04
8.544484462151213868e-05 -4.394306294820627063e-04 -8.381297211155385504e-04
-4.184752559633743641e-05 2.324862533129861484e-06 1.999008805892774749e-05
-9.429367621942861058e-05 -2.321075106939783769e-04 6.528450406486321260e-04
-0.000000000000000000e+00 0.000000000000000000e+00 -7.653912913486545297e-06
1.020674701441431909e-19 -3.726944967918921492e-19 1.567010952420455627e-20
-4.392837413995929249e-06 1.757134965598379831e-05 8.075538597911114877e-05
0.000000000000000000e+00 -0.000000000000000000e+00 -6.564505341220827628e-21
-0.000000000000000000e+00 0.000000000000000000e+00 1.588186776101813136e-21
2.738245427143798784e-05 -1.463672932855430986e-18 -1.903593077693583840e-05
6.509322682076982463e-04 1.099851073868179365e-03 -1.525594746265857612e-03
-2.189029101210428530e-06 8.756116404841781883e-06 -1.035047877695318008e-05
-1.398077445820042461e-04 -6.990387229100210949e-05 -4.740005885828401695e-05
0.000000000000000000e+00 0.000000000000000000e+00 -7.698219118580620272e-06
-2.561968742825321905e-06 1.024787497130121478e-05 -5.041735279998423266e-07
-1.144196440738013461e-03 -1.482571607663583100e-03 -5.002958643265096629e-04
0.000000000000000000e+00 -0.000000000000000000e+00 3.282252670610413814e-21
0.000000000000000000e+00 0.000000000000000000e+00 1.482307657695025593e-21
0.000000000000000000e+00 0.000000000000000000e+00 7.983960793049667997e-06
0.000000000000000000e+00 -0.000000000000000000e+00 3.101562500000002104e-04
2.189029101210428530e-06 -8.756116404841781883e-06 1.035047877695318008e-05
0.000000000000000000e+00 0.000000000000000000e+00 -6.914885756274585446e-05
-2.092376279816875209e-05 0.000000000000000000e+00 8.817072237944938753e-06
2.561968742825321905e-06 -1.024787497130121478e-05 5.041735279998425384e-07
-1.341153187201869063e-04 -9.579665622870499114e-05 5.062878895766373009e-05
0.000000000000000000e+00 0.000000000000000000e+00 -3.388131789017201356e-21
-0.000000000000000000e+00 0.000000000000000000e+00 5.569955538738067391e-05
-0.000000000000000000e+00 0.000000000000000000e+00 -7.983960793049667997e-06
0.000000000000000000e+00 -0.000000000000000000e+00 -9.861245977417370343e-06
-1.308191312923289736e-05 -7.849147877539339971e-05 5.063469905314622389e-05
6.641025278346825026e-04 -7.422322369917044773e-04 2.696589115067419239e-05
0.000000000000000000e+00 0.000000000000000000e+00 9.734991887506786454e-06
3.411542285328151832e-05 -1.049705318562501349e-05 -1.205266594715780315e-05
0.000000000000000000e+00 -0.000000000000000000e+00 1.053409271572729172e-05
0.000000000000000000e+00 0.000000000000000000e+00 1.009717092760586209e-05
0.000000000000000000e+00 0.000000000000000000e+00 -1.240268635771323247e-05
0.000000000000000000e+00 0.000000000000000000e+00 1.020408163265308668e-05
1.788024752455384049e-05 2.554321074936268299e-05 -4.237304495486629542e-05
-7.856098953237591344e-05 -1.005580666014439865e-04 8.526934183640489870e-05
-1.271468121303676133e-04 -1.155880110276046296e-05 -2.973084354233596202e-04
-0.000000000000000000e+00 0.000000000000000000e+00 -9.734991887506786454e-06
-3.421849059604069700e-05 1.316095792155416284e-05 1.176040678444745122e-05
-2.746619266370522596e-06 1.373309633185261256e-05 -1.140875141793248268e-05
-0.000000000000000000e+00 0.000000000000000000e+00 -1.009717092760586209e-05
0.000000000000000000e+00 0.000000000000000000e+00 1.240268635771323416e-05
-0.000000000000000000e+00 0.000000000000000000e+00 -1.020408163265308498e-05
4.381192683429791960e-05 -1.095298170857587276e-04 -2.859548235263965378e-04
1.271468121303676133e-04 1.155880110276050870e-05 -2.033792688150443671e-04
6.776457585281335244e-06 -4.291756470678205048e-05 -3.773315188039426057e-05
-1.208040609589369719e-03 1.899539717147425430e-03 -9.023370562502956715e-04
-2.656168940156864216e-06 1.859318258109782335e-05 -3.408986875067039933e-07
0.000000000000000000e+00 0.000000000000000000e+00 1.528358208955223098e-05
0.000000000000000000e+00 0.000000000000000000e+00 1.612252535117422744e-05
-2.352014039762049592e-06 4.704028079526225236e-06 4.783895935956341941e-06
2.305981624643998877e-04 -1.487730080415483911e-05 6.162941747560749862e-05
-5.535205535205567682e-05 3.542531542531546538e-05 -9.003737003737008823e-06
-1.143555621432706994e-05 -7.719000444670793301e-05 1.772121364713429579e-04
0.000000000000000000e+00 0.000000000000000000e+00 1.637086928717950863e-05
-2.515197869815723186e-04 1.720395342953956897e-03 -4.082892456534269014e-04
-2.672315863805252483e-06 1.870621104663654037e-05 -1.286141324826023393e-06
-0.000000000000000000e+00 0.000000000000000000e+00 2.281131655157524213e-07
-0.000000000000000000e+00 0.000000000000000000e+00 -1.565520577577792261e-05
-4.612570260556672728e-05 -3.255931948628219483e-05 1.042362527582218939e-05
-0.000000000000000000e+00 0.000000000000000000e+00 5.102608608991018001e-05
-2.245948430449302367e-06 2.021353587404308772e-05 -9.097892706231168179e-07
-5.858673693463493557e-06 2.343469477385395051e-05 -8.078390437751620994e-06
0.000000000000000000e+00 0.000000000000000000e+00 1.445739105880785283e-05
-2.472170778912427601e-06 9.888683115649710403e-06 -5.102983532942472463e-07
-5.410008878055966109e-06 2.164003551222378651e-05 -1.044392088223618605e-06
0.000000000000000000e+00 -0.000000000000000000e+00 9.124526620629037003e-07
0.000000000000000000e+00 0.000000000000000000e+00 -2.519923018081543509e-20
-3.156007172743591303e-04 1.542936840007986361e-04 -1.133030952966960537e-04
-2.939525665755523642e-04 6.841999394430996195e-04 -1.391857000993054630e-04
1.594883032836466927e-05 3.645446932197474995e-05 -1.697715827314163280e-05
-2.110207378831635425e-05 8.440829515326533569e-05 -1.731159967842611953e-04
0.000000000000000000e+00 0.000000000000000000e+00 1.926999955003533271e-20
0.000000000000000000e+00 0.000000000000000000e+00 -6.564505341220827628e-21
5.410008878055966956e-06 -2.164003551222378651e-05 1.044392088223618605e-06
0.000000000000000000e+00 -0.000000000000000000e+00 -5.293955920339377119e-20
0.000000000000000000e+00 -0.000000000000000000e+00 -2.509335106240864754e-20
-0.000000000000000000e+00 0.000000000000000000e+00 3.101562500000002646e-04
-7.876750270115904704e-05 -2.494304252203366186e-04 -2.669109137877151232e-05
-7.025391318640413234e-05 -4.265416157745965904e-05 -1.294618878642687454e-04
0.000000000000000000e+00 -0.000000000000000000e+00 7.742911153119091272e-06
-0.000000000000000000e+00 0.000000000000000000e+00 -1.926999955003533271e-20
-0.000000000000000000e+00 0.000000000000000000e+00 6.564505341220827628e-21
5.410008878055966109e-06 -2.164003551222378651e-05 1.044392088223618393e-06
-0.000000000000000000e+00 0.000000000000000000e+00 -2.318752693108647178e-20
0.000000000000000000e+00 0.000000000000000000e+00 2.498747194400186000e-20
2.319620348233863072e-05 -5.154711884964124536e-06 8.046312295299384395e-06
7.876750270115903349e-05 2.494304252203366186e-04 2.669109137877151232e-05
1.143555621432706994e-05 7.719000444670793301e-05 -1.159233646697161715e-04
-0.000000000000000000e+00 0.000000000000000000e+00 -7.742911153119091272e-06
0.000000000000000000e+00 0.000000000000000000e+00 -1.926999955003533271e-20
-0.000000000000000000e+00 0.000000000000000000e+00 2.240817898532885072e-07
1.910910111542049982e-05 2.456884429125487219e-05 -8.977190015987403341e-06
-0.000000000000000000e+00 0.000000000000000000e+00 2.281131655157028699e-07
6.223029142283888269e-05 3.111514571141955654e-05 8.078290504221508094e-06
0.000000000000000000e+00 0.000000000000000000e+00 -7.802359353150015758e-06
0.000000000000000000e+00 0.000000000000000000e+00 -4.790376475829863817e-06
-1.633971124256954836e-04 -4.299924011202514067e-04 4.765787436159547722e-05
5.914943040007870803e-05 1.290533026910808175e-04 6.016448868550579391e-05
2.092376279816875209e-05 0.000000000000000000e+00 -8.817072237944938753e-06
0.000000000000000000e+00 0.000000000000000000e+00 2.240817898532887190e-07
0.000000000000000000e+00 0.000000000000000000e+00 2.408822311717424054e-07
0.000000000000000000e+00 0.000000000000000000e+00 1.003697928269100336e-05
0.000000000000000000e+00 0.000000000000000000e+00 2.150808653644509657e-07
0.000000000000000000e+00 -0.000000000000000000e+00 -1.003697928269101013e-05
-1.781387289958778991e-05 -6.680202337345438158e-06 -6.795111343682746379e-06
-2.378057166985184079e-04 -1.981714305821196797e-05 1.956598461410297921e-04
3.928931622398532054e-05 8.699777163882368677e-05 -2.946773753690009760e-05
-2.358851289878564970e-05 1.179425644939287737e-05 -8.918223860663784312e-06
8.364450354136215848e-20 2.457628597860182562e-06 1.281383894606652349e-07
0.000000000000000000e+00 -0.000000000000000000e+00 2.408822311717424054e-07
0.000000000000000000e+00 -0.000000000000000000e+00 -1.009717092760586209e-05
0.000000000000000000e+00 -0.000000000000000000e+00 2.150808653644508598e-07
0.000000000000000000e+00 0.000000000000000000e+00 1.003697928269100844e-05
9.219128883603170698e-06 -6.453390218522222707e-05 -4.370951694225785075e-05
-1.910051390085842438e-04 -4.701664960211310133e-04 1.194744608706115458e-04
-7.410241306508595009e-05 6.555213463449853528e-05 2.690441889410559578e-05
0.000000000000000000e+00 -0.000000000000000000e+00 -9.734991887506786454e-06
-4.857685009487645580e-06 2.428842504743808137e-05 -7.468365990522827716e-07
0.000000000000000000e+00 -0.000000000000000000e+00 -5.463362509790237187e-20
1.836984307484396250e-05 2.099410637125017606e-05 -1.714471908673531050e-05
-0.000000000000000000e+00 0.000000000000000000e+00 2.890499932505299907e-20
0.000000000000000000e+00 0.000000000000000000e+00 -1.224489795918369622e-05
0.000000000000000000e+00 0.000000000000000000e+00 -3.101562500000002646e-04
-1.297239543848956753e-04 -1.087210284368611470e-03 -5.358421859122204298e-04
-7.056161723358922216e-06 2.822464689343612255e-05 -3.622414574559218740e-07
-3.204678190478041410e-04 -2.855653833099209074e-05 7.504363036446679448e-05
-4.857685009487644733e-06 2.428842504743808137e-05 -7.468365990522829834e-07
0.000000000000000000e+00 0.000000000000000000e+00 5.463362509790237187e-20
0.000000000000000000e+00 0.000000000000000000e+00 -8.462809917355378574e-06
0.000000000000000000e+00 0.000000000000000000e+00 2.901087844345978661e-20
-0.000000000000000000e+00 0.000000000000000000e+00 6.802721088435399022e-07
1.788024752455384049e-05 2.554321074936268299e-05 -4.237304495486629542e-05
-7.856098953237589989e-05 -1.005580666014439865e-04 8.526934183640489870e-05
0.000000000000000000e+00 0.000000000000000000e+00 -1.849695620759244974e-05
-2.041678706819494160e-04 -7.521974183019181092e-05 9.920692866338485106e-05
4.857685009487645580e-06 -2.428842504743808137e-05 7.468365990522827716e-07
1.887747778725918794e-05 2.696782541037019153e-05 -9.418549077814425305e-06
0.000000000000000000e+00 -0.000000000000000000e+00 -2.079572110513772291e-05
6.241400299460612533e-05 -9.602154306862500314e-05 9.751449834387563469e-05
0.000000000000000000e+00 0.000000000000000000e+00 6.802721088435399022e-07
7.035530368941831882e-06 -4.455835900329857465e-05 2.473095523627975029e-06
2.268093560819128330e-04 -6.185709711324900251e-05 2.072433277704219636e-04
0.000000000000000000e+00 0.000000000000000000e+00 1.828434751555121018e-05
-2.414792216491891047e-05 1.756212521085084854e-05 1.667991016432942655e-05
5.206963854219746939e-05 -1.239753298623739655e-05 -1.303862466525863303e-05
0.000000000000000000e+00 0.000000000000000000e+00 -1.961773223435069033e-05
-0.000000000000000000e+00 0.000000000000000000e+00 5.082197683525802034e-21
4.125700696449797512e-03 8.968914557499560870e-05 4.572867434726565934e-04
3.083594811184329961e-05 -1.541797405592239858e-05 1.272188982261373873e-05
4.184752559633743641e-05 -2.324862533129861908e-06 -1.999008805892774749e-05
0.000000000000000000e+00 0.000000000000000000e+00 7.742911153119091272e-06
0.000000000000000000e+00 0.000000000000000000e+00 -7.698219118580576227e-06
0.000000000000000000e+00 0.000000000000000000e+00 -8.934992410775949306e-06
-3.065185289923513963e-05 1.277160537468136860e-05 1.074727177411724280e-05
0.000000000000000000e+00 0.000000000000000000e+00 -1.003697928269101013e-05
0.000000000000000000e+00 -0.000000000000000000e+00 9.346391507926134599e-07
-1.355206726209844397e-04 3.862339169698081765e-03 -7.243471245169780769e-04
-1.788024752455391503e-05 -1.788024752455387776e-05 -8.710644649662603118e-06
1.270549420881450509e-21 -3.269547176401599309e-19 4.256340559952859204e-20
1.827945995941158451e-05 3.427398742389658332e-05 1.300700877459530069e-05
0.000000000000000000e+00 -0.000000000000000000e+00 1.134966051181847560e-05
2.442429154679952850e-05 -2.220390140618163133e-06 -9.779809301176808507e-06
3.065185289923513963e-05 -1.277160537468136860e-05 -1.074727177411724280e-05
0.000000000000000000e+00 0.000000000000000000e+00 9.808866117175280792e-06
-0.000000000000000000e+00 0.000000000000000000e+00 -1.308494811109797164e-05
0.000000000000000000e+00 0.000000000000000000e+00 -1.365482789161001848e-04
2.757768236651324609e-05 -4.136652354976986574e-05 -5.239759649637300661e-05
9.380707158589203479e-06 -3.752282863435670550e-05 4.063300961740429735e-07
0.000000000000000000e+00 0.000000000000000000e+00 9.458050426515331115e-06
-2.258819195093835307e-06 1.129409597546897198e-05 -5.465859282245168544e-07
-2.499022158491204313e-05 -2.271838325900542565e-06 8.254548398575127676e-06
-3.149115955687534202e-05 7.872789889218872775e-06 8.885306449837525290e-06
1.793378119977718176e-05 2.049574994260239228e-05 -1.017663305973637049e-05
-7.526444927241416922e-05 7.056042119288679710e-06 -1.427370659371649745e-05
0.000000000000000000e+00 0.000000000000000000e+00 2.625802136488331051e-20
1.781387289958778991e-05 6.680202337345438158e-06 6.795111343682746379e-06
4.843439598902593163e-06 -1.937375839561055222e-05 2.052763665299637603e-05
0.000000000000000000e+00 0.000000000000000000e+00 3.176373552203626272e-20
-2.265310054849807388e-05 -1.132655027424910470e-05 1.114181242218204279e-05
0.000000000000000000e+00 0.000000000000000000e+00 9.567391141858104541e-06
5.929230630780102373e-21 -1.473837328222482590e-19 1.715241718189958187e-20
-1.836984307484396250e-05 -2.099410637125017606e-05 1.714471908673531050e-05
2.298140197209339200e-06 -9.192560788837754907e-06 4.030962484944439932e-07
-0.000000000000000000e+00 0.000000000000000000e+00 -2.646977960169688560e-20
2.442429154679946074e-05 2.220390140618146616e-06 8.947459842046714826e-06
8.765600681372377918e-04 5.710921656045644989e-04 6.299698431678268169e-05
0.000000000000000000e+00 -0.000000000000000000e+00 3.176373552203626272e-20
-1.931235119739804773e-19 8.063753657860939228e-19 -2.562274665444258526e-20
-1.312901068244165526e-20 -4.167402100491157668e-19 5.992758101824174899e-20
-2.921785834172512775e-05 -2.656168940156788406e-06 9.530248932610891894e-06
-3.096516219323214460e-05 -1.379357224971263895e-04 2.022821424266206671e-05
0.000000000000000000e+00 0.000000000000000000e+00 5.293955920339377119e-20
0.000000000000000000e+00 0.000000000000000000e+00 -2.668153783851046068e-20
-1.583659003471727040e-04 -7.918295017358639265e-05 -3.207544639384582468e-05
-0.000000000000000000e+00 0.000000000000000000e+00 -1.981407108642003188e-05
-0.000000000000000000e+00 0.000000000000000000e+00 3.176373552203626272e-20
-2.304782220900792674e-06 9.219128883603240154e-06 -2.501982838732102580e-07
-2.324862533129861569e-05 -1.162431266564927227e-05 8.948234268557282822e-06
-2.948482244867156273e-05 -2.680438404424701651e-06 9.617326991704546325e-06
1.853700982405525089e-05 2.648144260579318846e-05 -9.550312777190982994e-06
-0.000000000000000000e+00 0.000000000000000000e+00 -5.272780096658019611e-20
0.000000000000000000e+00 0.000000000000000000e+00 1.270549420881450509e-21
1.633971124256954565e-04 4.299924011202514067e-04 -4.765787436159547722e-05
-9.380707158589203479e-06 3.752282863435670550e-05 -1.269154497926769307e-06
-0.000000000000000000e+00 0.000000000000000000e+00 -2.541098841762901017e-20
2.304782220900792674e-06 -9.219128883603240154e-06 2.501982838732104697e-07
-2.365728407341769629e-06 9.462913629367147972e-06 9.253540339840243457e-06
-1.067261513540418427e-19 5.251604272976662102e-19 -3.409307612698558865e-20
0.000000000000000000e+00 0.000000000000000000e+00 -2.350516428630683441e-20
-0.000000000000000000e+00 0.000000000000000000e+00 1.588186776101813136e-21
0.000000000000000000e+00 -0.000000000000000000e+00 1.270549420881450509e-21
1.633971124256954836e-04 4.299924011202514067e-04 -4.765787436159547722e-05
-1.236668102991278495e-19 3.286487835346685316e-19 -2.519923018081543509e-20
-0.000000000000000000e+00 0.000000000000000000e+00 5.717472393966527289e-20
9.202693987164415170e-05 -4.116994678468281760e-05 6.376873795778054615e-06
2.365728407341769629e-06 -9.462913629367147972e-06 -9.253540339840243457e-06
2.049819732355406821e-19 -7.470830594782928991e-19 3.218725199566341288e-20
0.000000000000000000e+00 -0.000000000000000000e+00 -2.361104340471362195e-20
0.000000000000000000e+00 0.000000000000000000e+00 1.482307657695025593e-21
-0.000000000000000000e+00 0.000000000000000000e+00 2.117582368135750848e-21
2.939525665755523642e-04 -6.841999394430996195e-04 1.391857000993054630e-04
2.117582368135750848e-22 4.622925498154153417e-06 2.348545039169144803e-07
-0.000000000000000000e+00 0.000000000000000000e+00 4.179591836733936476e-07
9.798800367455188490e-05 0.000000000000000000e+00 2.656680099625482406e-05
0.000000000000000000e+00 0.000000000000000000e+00 3.764673506419801178e-05
-1.829591166069288732e-19 -5.527043077557156319e-06 7.137865792674821712e-07
-0.000000000000000000e+00 0.000000000000000000e+00 4.701561065197104904e-07
2.765738665080958155e-05 -6.914346662702386917e-06 -9.097727253250580953e-06
-0.000000000000000000e+00 0.000000000000000000e+00 4.617229842455053061e-07
4.239224796138668216e-04 -1.040536995415864644e-03 -7.365627322323525100e-04
-1.499248316640111600e-19 2.291536346069110607e-06 1.164149480622520219e-07
0.000000000000000000e+00 0.000000000000000000e+00 4.179591836733936476e-07
-4.610057867848245421e-05 1.097632825678179050e-05 1.151105740340864973e-05
0.000000000000000000e+00 0.000000000000000000e+00 1.046980099372601715e-05
-3.049198458585419537e-05 2.217598878971222155e-05 1.203966450200771931e-05
0.000000000000000000e+00 0.000000000000000000e+00 4.701561065197105963e-07
-4.596280394418816467e-06 2.298140197209436948e-05 -1.424355341478936533e-06
-0.000000000000000000e+00 0.000000000000000000e+00 2.308614921227531295e-07
1.271468121303676404e-04 1.155880110276046296e-05 -2.033792688150443942e-04
-2.426749393883570471e-19 6.815514977704427985e-06 3.462427395089288855e-07
0.000000000000000000e+00 0.000000000000000000e+00 -9.247871528148389223e-06
0.000000000000000000e+00 0.000000000000000000e+00 -8.934992410775949306e-06
2.501645049008676484e-05 -5.003290098017459356e-06 -7.249419529720807680e-06
-1.389134033497052556e-19 -1.704793976313858243e-05 1.460926388793057539e-06
-2.680438404424777884e-06 1.072175361769872868e-05 2.049747015149138380e-07
-2.014376195325504537e-04 1.622691935123338029e-04 -1.744266660043218282e-04
0.000000000000000000e+00 0.000000000000000000e+00 2.308614921227531295e-07
-1.910051390085842438e-04 -4.701664960211309591e-04 1.194744608706115323e-04
0.000000000000000000e+00 0.000000000000000000e+00 -2.223461486542538390e-20
0.000000000000000000e+00 0.000000000000000000e+00 9.247871528148390917e-06
0.000000000000000000e+00 0.000000000000000000e+00 8.934992410775949306e-06
-2.409808734938484465e-19 1.202786785101106481e-19 6.013933925505532407e-20
-8.657156910968981617e-06 3.462862764387545890e-05 -1.738375625705236817e-06
-2.696782541037103687e-06 1.078713016414803020e-05 -5.054664602317368413e-07
3.156007172743590761e-04 -1.542936840007986361e-04 1.133030952966960537e-04
2.434804156115877652e-03 -2.023233785334831170e-03 -1.764230775874987183e-03
5.036555714816579911e-04 2.587588257153473252e-04 -7.897802680411380766e-05
0.000000000000000000e+00 -0.000000000000000000e+00 -2.234049398383217144e-20
-2.265310054849793412e-06 9.061240219399173648e-06 -2.731697419083710669e-07
4.729967394526239926e-05 1.126182712982418249e-05 -9.426811768082384561e-06
-3.046940139388383515e-05 1.269558391411832535e-05 7.954088830898807129e-06
-8.765710602642824223e-06 3.506284241057083611e-05 -1.760173439193756668e-06
-2.696782541037103687e-06 1.078713016414803189e-05 -5.054664602317367355e-07
-6.509322682076982463e-04 -1.099851073868179365e-03 1.525594746265857829e-03
-8.544484462151212512e-05 4.394306294820626521e-04 8.381297211155385504e-04
-5.036555714816579911e-04 -2.587588257153473252e-04 7.897802680411380766e-05
0.000000000000000000e+00 0.000000000000000000e+00 2.244637310223895899e-20
0.000000000000000000e+00 0.000000000000000000e+00 9.512485136741922359e-06
0.000000000000000000e+00 0.000000000000000000e+00 -9.567391141858104541e-06
3.130202346343970707e-05 -7.825505865859964038e-06 -8.831941245934609903e-06
8.765710602642824223e-06 -3.506284241057084288e-05 1.760173439193756456e-06
0.000000000000000000e+00 0.000000000000000000e+00 -1.308494811109797164e-05
1.355206726209844397e-04 -3.862339169698081765e-03 7.243471245169780769e-04
0.000000000000000000e+00 0.000000000000000000e+00 6.776263578034402713e-21
3.970789745223179674e-05 -4.963487181528975813e-04 1.062770196515605212e-03
-4.517638390187534242e-06 1.807055356075034025e-05 -6.051702763326648916e-07
0.000000000000000000e+00 0.000000000000000000e+00 9.622773898225848185e-06
0.000000000000000000e+00 0.000000000000000000e+00 9.567391141858106235e-06
-3.130202346343970707e-05 7.825505865859964038e-06 8.831941245934609903e-06
-1.217659844959610558e-05 4.870639379838518805e-05 -2.445087014878862970e-06
7.291243523265122516e-05 4.704028079526223542e-06 2.606144754594024896e-05
-3.156007172743590761e-04 1.542936840007986632e-04 -1.133030952966960537e-04
-2.442429154679946074e-05 -2.220390140618146616e-06 -8.947459842046714826e-06
6.966159592721712836e-04 4.059416741082432336e-04 5.804668458227899225e-04
0.000000000000000000e+00 -0.000000000000000000e+00 1.082084590117368683e-19
-1.384524707322649982e-04 1.087840841467786773e-04 -3.716216622748759972e-05
-2.338379175764263639e-05 -1.169189587882128431e-05 9.000258886397721967e-06
0.000000000000000000e+00 0.000000000000000000e+00 -2.115702479338843288e-05
-7.020160766865078065e-04 3.882116553105080065e-05 -7.673321686929630999e-05
2.258819195093766697e-06 -9.035276780375171821e-06 4.233776084921590991e-07
2.844253053084820905e-05 8.343142289048824161e-04 9.858822433170587665e-04
