ply
            format ascii 1.0
            element vertex 3316
            property float x
            property float y
            property float z
            property float nx
            property float ny
            property float nz
end_header
0.01900383141762 -0.11340996168582 2.29272030651341 0.00000000000000 0.00000000000000 -1.00000000000000
0.04984615384615 -0.11384615384615 2.30153846153846 0.00000000000000 0.00000000000000 -1.00000000000000
0.08061538461538 -0.11384615384615 2.30153846153846 0.00000000000000 0.00000000000000 -1.00000000000000
0.11138461538462 -0.11384615384615 2.30153846153846 0.00000000000000 0.00000000000000 1.00000000000000
-0.12070175438596 -0.10329824561404 2.09964912280702 -0.24239731387046 0.96958925548184 0.03376711244024
-0.09428571428571 -0.10514285714286 2.13714285714286 -0.00000000000000 0.00000000000000 -1.00000000000000
-0.06715328467153 -0.10744525547445 2.18394160583942 -0.00000000000000 0.00000000000000 -1.00000000000000
-0.03880597014925 -0.10985074626866 2.23283582089552 -0.00000000000000 0.00000000000000 -1.00000000000000
-0.00919540229885 -0.11279693486590 2.29272030651341 0.00000000000000 -0.00000000000000 -1.00000000000000
0.02145593869732 -0.11279693486590 2.29272030651341 0.00000000000000 -0.00000000000000 -1.00000000000000
0.05230769230769 -0.11323076923077 2.30153846153846 -0.00000000000000 0.00000000000000 1.00000000000000
0.08307692307692 -0.11323076923077 2.30153846153846 -0.00000000000000 0.00000000000000 1.00000000000000
0.11384615384615 -0.11323076923077 2.30153846153846 0.00000000000000 -0.00000000000000 1.00000000000000
-0.11845614035088 -0.10273684210526 2.09964912280702 -0.00000000000000 0.00000000000000 -1.00000000000000
-0.09232974910394 -0.10494623655914 2.14480286738351 0.00000000000000 0.00000000000000 1.00000000000000
-0.06505494505495 -0.10725274725275 2.19194139194139 0.00000000000000 0.00000000000000 1.00000000000000
-0.03655430711610 -0.10966292134831 2.24119850187266 0.00000000000000 0.00000000000000 -1.00000000000000
-0.00674329501916 -0.11218390804598 2.29272030651341 0.00000000000000 -0.00000000000000 -1.00000000000000
0.02390804597701 -0.11218390804598 2.29272030651341 0.00000000000000 -0.00000000000000 -1.00000000000000
0.05476923076923 -0.11261538461538 2.30153846153846 0.00000000000000 -0.00000000000000 1.00000000000000
0.08553846153846 -0.11261538461538 2.30153846153846 -0.00000000000000 0.00000000000000 -1.00000000000000
0.11630769230769 -0.11261538461538 2.30153846153846 -0.00000000000000 0.00000000000000 1.00000000000000
-0.11661971830986 -0.10253521126761 2.10704225352113 0.00000000000000 0.00000000000000 -1.00000000000000
-0.09003584229391 -0.10437275985663 2.14480286738351 -0.00000000000000 0.00000000000000 -1.00000000000000
-0.06271062271062 -0.10666666666667 2.19194139194139 -0.00000000000000 0.00000000000000 -1.00000000000000
-0.03415730337079 -0.10906367041199 2.24119850187266 -0.00000000000000 0.00000000000000 1.00000000000000
-0.00429118773946 -0.11157088122605 2.29272030651341 -0.00000000000000 0.00000000000000 -1.00000000000000
0.02636015325670 -0.11157088122605 2.29272030651341 -0.00000000000000 0.00000000000000 -1.00000000000000
0.05723076923077 -0.11200000000000 2.30153846153846 0.00000000000000 0.00000000000000 -1.00000000000000
0.08766283524904 -0.11157088122605 2.29272030651341 0.00000000000000 0.00000000000000 -1.00000000000000
0.11876923076923 -0.11200000000000 2.30153846153846 0.00000000000000 -0.00000000000000 1.00000000000000
-0.11436619718310 -0.10197183098592 2.10704225352113 0.00000000000000 -0.00000000000000 -1.00000000000000
-0.08805755395683 -0.10417266187050 2.15251798561151 0.00000000000000 0.00000000000000 1.00000000000000
-0.06058823529412 -0.10647058823529 2.20000000000000 nan nan nan
-0.03176029962547 -0.10846441947566 2.24119850187266 0.00000000000000 0.00000000000000 1.00000000000000
-0.00183908045977 -0.11095785440613 2.29272030651341 0.00000000000000 -0.00000000000000 -1.00000000000000
0.02881226053640 -0.11095785440613 2.29272030651341 0.00000000000000 -0.00000000000000 -1.00000000000000
0.05946360153257 -0.11095785440613 2.29272030651341 0.00000000000000 0.00000000000000 -1.00000000000000
0.09046153846154 -0.11138461538462 2.30153846153846 0.00000000000000 -0.00000000000000 -1.00000000000000
0.12123076923077 -0.11138461538462 2.30153846153846 -0.00000000000000 0.00000000000000 1.00000000000000
-0.11211267605634 -0.10140845070423 2.10704225352113 0.00000000000000 0.00000000000000 1.00000000000000
-0.08575539568345 -0.10359712230216 2.15251798561151 -0.00000000000000 0.00000000000000 -1.00000000000000
-0.05823529411765 -0.10588235294118 2.20000000000000 nan nan nan
-0.02947368421053 -0.10827067669173 2.24962406015038 0.00000000000000 0.00000000000000 1.00000000000000
0.00061302681992 -0.11034482758621 2.29272030651341 nan nan nan
0.03126436781609 -0.11034482758621 2.29272030651341 nan nan nan
0.06215384615385 -0.11076923076923 2.30153846153846 0.00000000000000 -0.00000000000000 1.00000000000000
0.09292307692308 -0.11076923076923 2.30153846153846 0.00000000000000 0.00000000000000 1.00000000000000
0.12369230769231 -0.11076923076923 2.30153846153846 -0.00000000000000 0.00000000000000 -1.00000000000000
-0.11024734982332 -0.10120141342756 2.11448763250883 0.00000000000000 0.00000000000000 1.00000000000000
-0.08375451263538 -0.10339350180505 2.16028880866426 0.00000000000000 0.00000000000000 -1.00000000000000
-0.05588235294118 -0.10529411764706 2.20000000000000 nan nan nan
-0.02706766917293 -0.10766917293233 2.24962406015038 -0.00000000000000 0.00000000000000 -1.00000000000000
0.00306513409962 -0.10973180076628 2.29272030651341 -0.00000000000000 0.00000000000000 -1.00000000000000
0.03371647509579 -0.10973180076628 2.29272030651341 -0.00000000000000 0.00000000000000 -1.00000000000000
0.06461538461538 -0.11015384615385 2.30153846153846 0.00000000000000 0.00000000000000 -1.00000000000000
0.09501915708812 -0.10973180076628 2.29272030651341 0.00000000000000 0.00000000000000 -1.00000000000000
0.12615384615385 -0.11015384615385 2.30153846153846 0.00000000000000 -0.00000000000000 -1.00000000000000
-0.10798586572438 -0.10063604240283 2.11448763250883 -0.00000000000000 0.00000000000000 -1.00000000000000
-0.08144404332130 -0.10281588447653 2.16028880866426 0.00000000000000 -0.00000000000000 -1.00000000000000
-0.05372693726937 -0.10509225092251 2.20811808118081 0.00000000000000 0.00000000000000 1.00000000000000
-0.02475471698113 -0.10747169811321 2.25811320754717 0.00000000000000 0.00000000000000 1.00000000000000
0.00551724137931 -0.10911877394636 2.29272030651341 0.00000000000000 -0.00000000000000 -1.00000000000000
0.03616858237548 -0.10911877394636 2.29272030651341 0.00000000000000 -0.00000000000000 -1.00000000000000
0.06681992337165 -0.10911877394636 2.29272030651341 0.00000000000000 0.00000000000000 1.00000000000000
0.09747126436782 -0.10911877394636 2.29272030651341 0.00000000000000 -0.00000000000000 -1.00000000000000
0.12861538461538 -0.10953846153846 2.30153846153846 0.00000000000000 0.00000000000000 1.00000000000000
-0.10609929078014 -0.10042553191489 2.12198581560284 0.00000000000000 0.00000000000000 1.00000000000000
-0.07913357400722 -0.10223826714801 2.16028880866426 0.00000000000000 0.00000000000000 1.00000000000000
-0.05136531365314 -0.10450184501845 2.20811808118081 -0.00000000000000 0.00000000000000 -1.00000000000000
-0.02233962264151 -0.10686792452830 2.25811320754717 -0.00000000000000 0.00000000000000 -1.00000000000000
0.00796934865900 -0.10850574712644 2.29272030651341 -0.00000000000000 0.00000000000000 -1.00000000000000
0.03862068965517 -0.10850574712644 2.29272030651341 -0.00000000000000 0.00000000000000 -1.00000000000000
0.06927203065134 -0.10850574712644 2.29272030651341 -0.00000000000000 0.00000000000000 -1.00000000000000
0.09992337164751 -0.10850574712644 2.29272030651341 -0.00000000000000 0.00000000000000 -1.00000000000000
0.13057471264368 -0.10850574712644 2.29272030651341 0.00000000000000 0.00000000000000 -1.00000000000000
-0.10382978723404 -0.09985815602837 2.12198581560284 -0.00000000000000 0.00000000000000 -1.00000000000000
-0.07710144927536 -0.10202898550725 2.16811594202899 0.00000000000000 0.00000000000000 1.00000000000000
-0.04918518518519 -0.10429629629630 2.21629629629630 0.00000000000000 0.00000000000000 1.00000000000000
-0.02007604562738 -0.10707224334601 2.27528517110266 0.87409180721649 0.30403193294487 -0.37885102125613
0.01042145593870 -0.10789272030651 2.29272030651341 0.00000000000000 -0.00000000000000 -1.00000000000000
0.04107279693487 -0.10789272030651 2.29272030651341 0.00000000000000 -0.00000000000000 -1.00000000000000
0.07172413793103 -0.10789272030651 2.29272030651341 0.00000000000000 -0.00000000000000 -1.00000000000000
0.10237547892720 -0.10789272030651 2.29272030651341 0.00000000000000 -0.00000000000000 -1.00000000000000
0.13302681992337 -0.10789272030651 2.29272030651341 -0.00000000000000 0.00000000000000 1.00000000000000
-0.10192170818505 -0.09964412811388 2.12953736654804 nan nan nan
-0.07478260869565 -0.10144927536232 2.16811594202899 -0.00000000000000 0.00000000000000 -1.00000000000000
-0.04681481481481 -0.10370370370370 2.21629629629630 -0.00000000000000 0.00000000000000 -1.00000000000000
-0.01777777777778 -0.10727969348659 2.29272030651341 0.00000000000000 0.00000000000000 1.00000000000000
0.01287356321839 -0.10727969348659 2.29272030651341 0.00000000000000 -0.00000000000000 -1.00000000000000
0.04352490421456 -0.10727969348659 2.29272030651341 0.00000000000000 -0.00000000000000 -1.00000000000000
0.07417624521073 -0.10727969348659 2.29272030651341 0.00000000000000 -0.00000000000000 -1.00000000000000
0.10482758620690 -0.10727969348659 2.29272030651341 0.00000000000000 -0.00000000000000 -1.00000000000000
0.13547892720307 -0.10727969348659 2.29272030651341 0.00000000000000 0.00000000000000 1.00000000000000
-0.09964412811388 -0.09907473309609 2.12953736654804 nan nan nan
-0.07272727272727 -0.10123636363636 2.17600000000000 0.00000000000000 0.00000000000000 1.00000000000000
-0.04460966542751 -0.10349442379182 2.22453531598513 0.00000000000000 0.00000000000000 -1.00000000000000
-0.01532567049808 -0.10666666666667 2.29272030651341 -0.00000000000000 0.00000000000000 -1.00000000000000
0.01532567049808 -0.10666666666667 2.29272030651341 0.00000000000000 -0.00000000000000 1.00000000000000
0.04597701149425 -0.10666666666667 2.29272030651341 -0.00000000000000 0.00000000000000 -1.00000000000000
0.07662835249042 -0.10666666666667 2.29272030651341 -0.00000000000000 0.00000000000000 -1.00000000000000
0.10727969348659 -0.10666666666667 2.29272030651341 0.00000000000000 0.00000000000000 1.00000000000000
-0.12363636363636 -0.09678321678322 2.09230769230769 0.00000000000000 0.00000000000000 1.00000000000000
-0.09736654804270 -0.09850533807829 2.12953736654804 nan nan nan
-0.07040000000000 -0.10065454545455 2.17600000000000 -0.00000000000000 0.00000000000000 -1.00000000000000
-0.04223048327138 -0.10289962825279 2.22453531598513 0.00000000000000 -0.00000000000000 -1.00000000000000
-0.01287356321839 -0.10605363984674 2.29272030651341 0.00000000000000 -0.00000000000000 -1.00000000000000
0.01777777777778 -0.10605363984674 2.29272030651341 -0.00000000000000 0.00000000000000 1.00000000000000
0.04842911877395 -0.10605363984674 2.29272030651341 -0.00000000000000 0.00000000000000 1.00000000000000
0.07908045977011 -0.10605363984674 2.29272030651341 0.00000000000000 -0.00000000000000 -1.00000000000000
0.11015384615385 -0.10646153846154 2.30153846153846 0.00000000000000 0.00000000000000 -1.00000000000000
-0.12139860139860 -0.09622377622378 2.09230769230769 0.00000000000000 -0.00000000000000 1.00000000000000
-0.09542857142857 -0.09828571428571 2.13714285714286 0.00000000000000 0.00000000000000 -1.00000000000000
-0.06832116788321 -0.10043795620438 2.18394160583942 0.00000000000000 0.00000000000000 -1.00000000000000
-0.03985130111524 -0.10230483271375 2.22453531598513 0.00000000000000 0.00000000000000 1.00000000000000
-0.01042145593870 -0.10544061302682 2.29272030651341 -0.00000000000000 0.00000000000000 -1.00000000000000
0.02022988505747 -0.10544061302682 2.29272030651341 0.00000000000000 -0.00000000000000 1.00000000000000
0.05088122605364 -0.10544061302682 2.29272030651341 0.00000000000000 -0.00000000000000 1.00000000000000
0.08153256704981 -0.10544061302682 2.29272030651341 -0.00000000000000 0.00000000000000 -1.00000000000000
0.11218390804598 -0.10544061302682 2.29272030651341 -0.00000000000000 0.00000000000000 1.00000000000000
-0.11916083916084 -0.09566433566434 2.09230769230769 0.00000000000000 0.00000000000000 -1.00000000000000
-0.09314285714286 -0.09771428571429 2.13714285714286 -0.00000000000000 0.00000000000000 -1.00000000000000
-0.06598540145985 -0.09985401459854 2.18394160583942 -0.00000000000000 0.00000000000000 -1.00000000000000
-0.03761194029851 -0.10208955223881 2.23283582089552 0.00000000000000 0.00000000000000 1.00000000000000
-0.00796934865900 -0.10482758620690 2.29272030651341 0.00000000000000 -0.00000000000000 -1.00000000000000
0.02268199233716 -0.10482758620690 2.29272030651341 0.00000000000000 -0.00000000000000 -1.00000000000000
0.05333333333333 -0.10482758620690 2.29272030651341 0.00000000000000 -0.00000000000000 -1.00000000000000
0.08398467432950 -0.10482758620690 2.29272030651341 0.00000000000000 -0.00000000000000 -1.00000000000000
0.11507692307692 -0.10523076923077 2.30153846153846 0.00000000000000 0.00000000000000 1.00000000000000
-0.11733333333333 -0.09543859649123 2.09964912280702 0.00000000000000 -0.00000000000000 1.00000000000000
-0.09118279569892 -0.09749103942652 2.14480286738351 0.00000000000000 0.00000000000000 -1.00000000000000
-0.06388278388278 -0.09963369963370 2.19194139194139 0.00000000000000 0.00000000000000 -1.00000000000000
-0.03522388059701 -0.10149253731343 2.23283582089552 -0.00000000000000 0.00000000000000 -1.00000000000000
-0.00551724137931 -0.10421455938697 2.29272030651341 0.00000000000000 -0.00000000000000 1.00000000000000
0.02513409961686 -0.10421455938697 2.29272030651341 nan nan nan
0.05578544061303 -0.10421455938697 2.29272030651341 nan nan nan
0.08643678160920 -0.10421455938697 2.29272030651341 -0.00000000000000 0.00000000000000 1.00000000000000
0.11708812260536 -0.10421455938697 2.29272030651341 0.00000000000000 0.00000000000000 1.00000000000000
-0.11508771929825 -0.09487719298246 2.09964912280702 -0.00000000000000 0.00000000000000 -1.00000000000000
-0.08888888888889 -0.09691756272401 2.14480286738351 -0.00000000000000 0.00000000000000 -1.00000000000000
-0.06153846153846 -0.09904761904762 2.19194139194139 0.00000000000000 -0.00000000000000 -1.00000000000000
-0.03295880149813 -0.10127340823970 2.24119850187266 0.00000000000000 0.00000000000000 -1.00000000000000
-0.00306513409962 -0.10360153256705 2.29272030651341 -0.00000000000000 0.00000000000000 -1.00000000000000
0.02758620689655 -0.10360153256705 2.29272030651341 -0.00000000000000 0.00000000000000 -1.00000000000000
0.05823754789272 -0.10360153256705 2.29272030651341 -0.00000000000000 0.00000000000000 -1.00000000000000
0.08888888888889 -0.10360153256705 2.29272030651341 0.00000000000000 -0.00000000000000 1.00000000000000
0.11954022988506 -0.10360153256705 2.29272030651341 -0.00000000000000 0.00000000000000 -1.00000000000000
-0.11323943661972 -0.09464788732394 2.10704225352113 0.00000000000000 0.00000000000000 -1.00000000000000
-0.08690647482014 -0.09669064748201 2.15251798561151 0.00000000000000 0.00000000000000 -1.00000000000000
-0.05919413919414 -0.09846153846154 2.19194139194139 0.00000000000000 0.00000000000000 1.00000000000000
-0.03056179775281 -0.10067415730337 2.24119850187266 -0.00000000000000 0.00000000000000 -1.00000000000000
-0.00061302681992 -0.10298850574713 2.29272030651341 0.00000000000000 -0.00000000000000 -1.00000000000000
0.03003831417625 -0.10298850574713 2.29272030651341 0.00000000000000 -0.00000000000000 -1.00000000000000
0.06068965517241 -0.10298850574713 2.29272030651341 0.00000000000000 -0.00000000000000 -1.00000000000000
0.09134099616858 -0.10298850574713 2.29272030651341 -0.00000000000000 0.00000000000000 1.00000000000000
0.12199233716475 -0.10298850574713 2.29272030651341 0.00000000000000 0.00000000000000 -1.00000000000000
-0.11098591549296 -0.09408450704225 2.10704225352113 -0.00000000000000 0.00000000000000 -1.00000000000000
-0.08460431654676 -0.09611510791367 2.15251798561151 0.00000000000000 0.00000000000000 1.00000000000000
-0.05705882352941 -0.09823529411765 2.20000000000000 0.00000000000000 0.00000000000000 -1.00000000000000
-0.02827067669173 -0.10045112781955 2.24962406015038 0.00000000000000 0.00000000000000 -1.00000000000000
0.00183908045977 -0.10237547892720 2.29272030651341 0.00000000000000 -0.00000000000000 -1.00000000000000
0.03249042145594 -0.10237547892720 2.29272030651341 -0.00000000000000 0.00000000000000 1.00000000000000
0.06314176245211 -0.10237547892720 2.29272030651341 -0.00000000000000 0.00000000000000 1.00000000000000
0.09379310344828 -0.10237547892720 2.29272030651341 0.00000000000000 -0.00000000000000 -1.00000000000000
0.12492307692308 -0.10276923076923 2.30153846153846 0.00000000000000 0.00000000000000 1.00000000000000
-0.10911660777385 -0.09385159010601 2.11448763250883 0.00000000000000 0.00000000000000 -1.00000000000000
-0.08259927797834 -0.09588447653430 2.16028880866426 nan nan nan
-0.05470588235294 -0.09764705882353 2.20000000000000 -0.00000000000000 0.00000000000000 -1.00000000000000
-0.02586466165414 -0.09984962406015 2.24962406015038 -0.00000000000000 0.00000000000000 -1.00000000000000
0.00429118773946 -0.10176245210728 2.29272030651341 -0.00000000000000 0.00000000000000 -1.00000000000000
0.03494252873563 -0.10176245210728 2.29272030651341 0.00000000000000 -0.00000000000000 1.00000000000000
0.06559386973180 -0.10176245210728 2.29272030651341 -0.00000000000000 0.00000000000000 -1.00000000000000
0.09624521072797 -0.10176245210728 2.29272030651341 -0.00000000000000 0.00000000000000 -1.00000000000000
0.12738461538462 -0.10215384615385 2.30153846153846 -0.00000000000000 0.00000000000000 -1.00000000000000
-0.10685512367491 -0.09328621908127 2.11448763250883 0.00000000000000 0.00000000000000 1.00000000000000
-0.08028880866426 -0.09530685920578 2.16028880866426 nan nan nan
-0.05254612546125 -0.09741697416974 2.20811808118081 0.00000000000000 0.00000000000000 -1.00000000000000
-0.02354716981132 -0.09962264150943 2.25811320754717 0.00000000000000 0.00000000000000 -1.00000000000000
0.00674329501916 -0.10114942528736 2.29272030651341 0.00000000000000 -0.00000000000000 -1.00000000000000
0.03739463601533 -0.10114942528736 2.29272030651341 0.00000000000000 -0.00000000000000 -1.00000000000000
0.06804597701149 -0.10114942528736 2.29272030651341 0.00000000000000 -0.00000000000000 -1.00000000000000
0.09869731800766 -0.10114942528736 2.29272030651341 0.00000000000000 -0.00000000000000 -1.00000000000000
0.12984615384615 -0.10153846153846 2.30153846153846 0.00000000000000 0.00000000000000 -1.00000000000000
-0.10496453900709 -0.09304964539007 2.12198581560284 0.00000000000000 0.00000000000000 1.00000000000000
-0.07797833935018 -0.09472924187726 2.16028880866426 nan nan nan
-0.05018450184502 -0.09682656826568 2.20811808118081 -0.00000000000000 0.00000000000000 -1.00000000000000
-0.02113207547170 -0.09901886792453 2.25811320754717 0.00000000000000 0.00000000000000 1.00000000000000
0.00919540229885 -0.10053639846743 2.29272030651341 -0.00000000000000 0.00000000000000 -1.00000000000000
0.03984674329502 -0.10053639846743 2.29272030651341 -0.00000000000000 0.00000000000000 -1.00000000000000
0.07049808429119 -0.10053639846743 2.29272030651341 -0.00000000000000 0.00000000000000 -1.00000000000000
0.10114942528736 -0.10053639846743 2.29272030651341 -0.00000000000000 0.00000000000000 -1.00000000000000
0.13180076628352 -0.10053639846743 2.29272030651341 0.00000000000000 0.00000000000000 -1.00000000000000
-0.10269503546099 -0.09248226950355 2.12198581560284 0.00000000000000 -0.00000000000000 1.00000000000000
-0.07594202898551 -0.09449275362319 2.16811594202899 0.00000000000000 0.00000000000000 -1.00000000000000
-0.04800000000000 -0.09659259259259 2.21629629629630 0.00000000000000 0.00000000000000 -1.00000000000000
-0.01893129770992 -0.09954198473282 2.28396946564885 0.95545648076024 -0.14699330473234 -0.25592163202264
0.01164750957854 -0.09992337164751 2.29272030651341 0.00000000000000 -0.00000000000000 -1.00000000000000
0.04229885057471 -0.09992337164751 2.29272030651341 0.00000000000000 -0.00000000000000 -1.00000000000000
0.07295019157088 -0.09992337164751 2.29272030651341 0.00000000000000 -0.00000000000000 -1.00000000000000
0.10360153256705 -0.09992337164751 2.29272030651341 0.00000000000000 -0.00000000000000 -1.00000000000000
0.13425287356322 -0.09992337164751 2.29272030651341 -0.00000000000000 0.00000000000000 -1.00000000000000
-0.10042553191489 -0.09191489361702 2.12198581560284 0.00000000000000 0.00000000000000 -1.00000000000000
-0.07362318840580 -0.09391304347826 2.16811594202899 -0.00000000000000 0.00000000000000 -1.00000000000000
-0.04562962962963 -0.09600000000000 2.21629629629630 -0.00000000000000 0.00000000000000 1.00000000000000
-0.01655172413793 -0.09931034482759 2.29272030651341 0.00000000000000 0.00000000000000 1.00000000000000
0.01409961685824 -0.09931034482759 2.29272030651341 -0.00000000000000 0.00000000000000 1.00000000000000
0.04475095785441 -0.09931034482759 2.29272030651341 nan nan nan
0.07540229885057 -0.09931034482759 2.29272030651341 nan nan nan
0.10605363984674 -0.09931034482759 2.29272030651341 nan nan nan
-0.12432055749129 -0.08975609756098 2.08501742160279 0.00000000000000 0.00000000000000 1.00000000000000
-0.09850533807829 -0.09167259786477 2.12953736654804 0.00000000000000 0.00000000000000 -1.00000000000000
-0.07156363636364 -0.09367272727273 2.17600000000000 0.00000000000000 0.00000000000000 -1.00000000000000
-0.04325925925926 -0.09540740740741 2.21629629629630 0.00000000000000 0.00000000000000 1.00000000000000
-0.01409961685824 -0.09869731800766 2.29272030651341 0.00000000000000 -0.00000000000000 1.00000000000000
0.01655172413793 -0.09869731800766 2.29272030651341 0.00000000000000 -0.00000000000000 1.00000000000000
0.04720306513410 -0.09869731800766 2.29272030651341 -0.00000000000000 0.00000000000000 -1.00000000000000
0.07785440613027 -0.09869731800766 2.29272030651341 -0.00000000000000 0.00000000000000 -1.00000000000000
0.10850574712644 -0.09869731800766 2.29272030651341 -0.00000000000000 0.00000000000000 -1.00000000000000
-0.12209059233449 -0.08919860627178 2.08501742160279 -0.00000000000000 0.00000000000000 -1.00000000000000
-0.09622775800712 -0.09110320284698 2.12953736654804 -0.00000000000000 0.00000000000000 -1.00000000000000
-0.06923636363636 -0.09309090909091 2.17600000000000 -0.00000000000000 0.00000000000000 -1.00000000000000
-0.04104089219331 -0.09516728624535 2.22453531598513 0.00000000000000 -0.00000000000000 1.00000000000000
-0.01164750957854 -0.09808429118774 2.29272030651341 0.00000000000000 -0.00000000000000 -1.00000000000000
0.01900383141762 -0.09808429118774 2.29272030651341 -0.00000000000000 0.00000000000000 1.00000000000000
0.04965517241379 -0.09808429118774 2.29272030651341 0.00000000000000 -0.00000000000000 -1.00000000000000
0.08030651340996 -0.09808429118774 2.29272030651341 0.00000000000000 -0.00000000000000 -1.00000000000000
0.11095785440613 -0.09808429118774 2.29272030651341 0.00000000000000 -0.00000000000000 -1.00000000000000
-0.12027972027972 -0.08895104895105 2.09230769230769 -0.00000000000000 -0.00000000000000 1.00000000000000
-0.09428571428571 -0.09085714285714 2.13714285714286 0.00000000000000 0.00000000000000 -1.00000000000000
-0.06715328467153 -0.09284671532847 2.18394160583942 0.00000000000000 0.00000000000000 -1.00000000000000
-0.03866171003717 -0.09457249070632 2.22453531598513 -0.00000000000000 0.00000000000000 -1.00000000000000
-0.00919540229885 -0.09747126436782 2.29272030651341 -0.00000000000000 0.00000000000000 -1.00000000000000
0.02145593869732 -0.09747126436782 2.29272030651341 0.00000000000000 -0.00000000000000 1.00000000000000
0.05210727969349 -0.09747126436782 2.29272030651341 -0.00000000000000 0.00000000000000 -1.00000000000000
0.08275862068966 -0.09747126436782 2.29272030651341 -0.00000000000000 0.00000000000000 -1.00000000000000
0.11340996168582 -0.09747126436782 2.29272030651341 -0.00000000000000 0.00000000000000 -1.00000000000000
-0.11845614035088 -0.08870175438596 2.09964912280702 0.00000000000000 0.00000000000000 -1.00000000000000
-0.09200000000000 -0.09028571428571 2.13714285714286 -0.00000000000000 0.00000000000000 -1.00000000000000
-0.06481751824818 -0.09226277372263 2.18394160583942 -0.00000000000000 0.00000000000000 1.00000000000000
-0.03641791044776 -0.09432835820896 2.23283582089552 0.00000000000000 0.00000000000000 -1.00000000000000
-0.00674329501916 -0.09685823754789 2.29272030651341 0.00000000000000 -0.00000000000000 -1.00000000000000
0.02390804597701 -0.09685823754789 2.29272030651341 0.00000000000000 -0.00000000000000 -1.00000000000000
0.05455938697318 -0.09685823754789 2.29272030651341 0.00000000000000 -0.00000000000000 -1.00000000000000
0.08521072796935 -0.09685823754789 2.29272030651341 0.00000000000000 -0.00000000000000 -1.00000000000000
0.11586206896552 -0.09685823754789 2.29272030651341 0.00000000000000 -0.00000000000000 -1.00000000000000
-0.11621052631579 -0.08814035087719 2.09964912280702 -0.00000000000000 0.00000000000000 1.00000000000000
-0.09003584229391 -0.09003584229391 2.14480286738351 nan nan nan
-0.06248175182482 -0.09167883211679 2.18394160583942 0.00000000000000 0.00000000000000 1.00000000000000
-0.03402985074627 -0.09373134328358 2.23283582089552 -0.00000000000000 0.00000000000000 -1.00000000000000
-0.00429118773946 -0.09624521072797 2.29272030651341 -0.00000000000000 0.00000000000000 -1.00000000000000
0.02636015325670 -0.09624521072797 2.29272030651341 -0.00000000000000 0.00000000000000 -1.00000000000000
0.05701149425287 -0.09624521072797 2.29272030651341 0.00000000000000 0.00000000000000 1.00000000000000
0.08766283524904 -0.09624521072797 2.29272030651341 -0.00000000000000 0.00000000000000 -1.00000000000000
0.11831417624521 -0.09624521072797 2.29272030651341 -0.00000000000000 0.00000000000000 -1.00000000000000
-0.11396491228070 -0.08757894736842 2.09964912280702 0.00000000000000 0.00000000000000 1.00000000000000
-0.08774193548387 -0.08946236559140 2.14480286738351 nan nan nan
-0.06036630036630 -0.09142857142857 2.19194139194139 0.00000000000000 0.00000000000000 -1.00000000000000
-0.03176029962547 -0.09348314606742 2.24119850187266 0.00000000000000 0.00000000000000 -1.00000000000000
-0.00183908045977 -0.09563218390805 2.29272030651341 -0.00000000000000 0.00000000000000 -1.00000000000000
0.02881226053640 -0.09563218390805 2.29272030651341 -0.00000000000000 0.00000000000000 -1.00000000000000
0.05969230769231 -0.09600000000000 2.30153846153846 -0.24227095023992 0.96908380095970 0.04670517516657
0.09011494252874 -0.09563218390805 2.29272030651341 -0.00000000000000 0.00000000000000 -1.00000000000000
0.12076628352490 -0.09563218390805 2.29272030651341 -0.00000000000000 0.00000000000000 -1.00000000000000
-0.11211267605634 -0.08732394366197 2.10704225352113 nan nan nan
-0.08544802867384 -0.08888888888889 2.14480286738351 nan nan nan
-0.05802197802198 -0.09084249084249 2.19194139194139 -0.00000000000000 0.00000000000000 -1.00000000000000
-0.02936329588015 -0.09288389513109 2.24119850187266 -0.00000000000000 0.00000000000000 -1.00000000000000
0.00061302681992 -0.09501915708812 2.29272030651341 0.00000000000000 -0.00000000000000 -1.00000000000000
0.03126436781609 -0.09501915708812 2.29272030651341 0.00000000000000 -0.00000000000000 -1.00000000000000
0.06167938931298 -0.09465648854962 2.28396946564885 0.24227095023992 -0.96908380095970 -0.04670517516658
0.09256704980843 -0.09501915708812 2.29272030651341 0.00000000000000 -0.00000000000000 -1.00000000000000
0.12321839080460 -0.09501915708812 2.29272030651341 0.00000000000000 -0.00000000000000 -1.00000000000000
-0.10985915492958 -0.08676056338028 2.10704225352113 nan nan nan
-0.08345323741007 -0.08863309352518 2.15251798561151 0.00000000000000 -0.00000000000000 1.00000000000000
-0.05588235294118 -0.09058823529412 2.20000000000000 0.00000000000000 0.00000000000000 -1.00000000000000
-0.02706766917293 -0.09263157894737 2.24962406015038 0.00000000000000 0.00000000000000 -1.00000000000000
0.00306513409962 -0.09440613026820 2.29272030651341 nan nan nan
0.03371647509579 -0.09440613026820 2.29272030651341 nan nan nan
0.06292134831461 -0.09228464419476 2.24119850187266 0.71674454211856 0.39095156842831 0.57743755721870
0.09501915708812 -0.09440613026820 2.29272030651341 nan nan nan
0.12567049808429 -0.09440613026820 2.29272030651341 -0.00000000000000 0.00000000000000 1.00000000000000
-0.10760563380282 -0.08619718309859 2.10704225352113 nan nan nan
-0.08115107913669 -0.08805755395683 2.15251798561151 -0.00000000000000 0.00000000000000 -1.00000000000000
-0.05352941176471 -0.09000000000000 2.20000000000000 -0.00000000000000 0.00000000000000 -1.00000000000000
-0.02466165413534 -0.09203007518797 2.24962406015038 0.00000000000000 -0.00000000000000 -1.00000000000000
0.00551724137931 -0.09379310344828 2.29272030651341 -0.00000000000000 0.00000000000000 -1.00000000000000
0.03616858237548 -0.09379310344828 2.29272030651341 -0.00000000000000 0.00000000000000 -1.00000000000000
0.06250896057348 -0.08774193548387 2.14480286738351 0.32969996446160 0.92915444530086 -0.16724219028602
0.09747126436782 -0.09379310344828 2.29272030651341 -0.00000000000000 0.00000000000000 -1.00000000000000
0.12812260536398 -0.09379310344828 2.29272030651341 -0.00000000000000 0.00000000000000 -1.00000000000000
-0.10572438162544 -0.08593639575972 2.11448763250883 nan nan nan
-0.07913357400722 -0.08779783393502 2.16028880866426 0.00000000000000 0.00000000000000 -1.00000000000000
-0.05136531365314 -0.08974169741697 2.20811808118081 0.00000000000000 0.00000000000000 -1.00000000000000
-0.02225563909774 -0.09142857142857 2.24962406015038 0.00000000000000 0.00000000000000 1.00000000000000
0.00796934865900 -0.09318007662835 2.29272030651341 0.00000000000000 -0.00000000000000 -1.00000000000000
0.03862068965517 -0.09318007662835 2.29272030651341 0.00000000000000 -0.00000000000000 -1.00000000000000
0.06388692579505 -0.08593639575972 2.11448763250883 -0.24227095023992 0.96908380095970 0.04670517516658
0.09992337164751 -0.09318007662835 2.29272030651341 0.00000000000000 -0.00000000000000 -1.00000000000000
0.13057471264368 -0.09318007662835 2.29272030651341 0.00000000000000 -0.00000000000000 -1.00000000000000
-0.10382978723404 -0.08567375886525 2.12198581560284 nan nan nan
-0.07682310469314 -0.08722021660650 2.16028880866426 -0.00000000000000 0.00000000000000 -1.00000000000000
-0.04900369003690 -0.08915129151292 2.20811808118081 -0.00000000000000 0.00000000000000 -1.00000000000000
-0.01992452830189 -0.09116981132075 2.25811320754717 0.95497447819241 -0.14691915049114 -0.25775668608224
0.01042145593870 -0.09256704980843 2.29272030651341 -0.00000000000000 0.00000000000000 -1.00000000000000
0.04107279693487 -0.09256704980843 2.29272030651341 -0.00000000000000 0.00000000000000 -1.00000000000000
0.06545454545455 -0.08447552447552 2.09230769230769 -0.24227095023993 0.96908380095970 0.04670517516657
0.10237547892720 -0.09256704980843 2.29272030651341 -0.00000000000000 0.00000000000000 -1.00000000000000
0.13302681992337 -0.09256704980843 2.29272030651341 -0.00000000000000 0.00000000000000 -1.00000000000000
-0.10156028368794 -0.08510638297872 2.12198581560284 nan nan nan
-0.07478260869565 -0.08695652173913 2.16811594202899 0.00000000000000 0.00000000000000 -1.00000000000000
-0.04681481481481 -0.08888888888889 2.21629629629630 0.00000000000000 0.00000000000000 -1.00000000000000
-0.01770992366412 -0.09160305343511 2.28396946564885 -0.95545648076024 0.14699330473234 0.25592163202264
0.01287356321839 -0.09195402298851 2.29272030651341 0.00000000000000 -0.00000000000000 -1.00000000000000
0.04352490421456 -0.09195402298851 2.29272030651341 0.00000000000000 -0.00000000000000 -1.00000000000000
0.06792982456140 -0.08421052631579 2.09964912280702 -0.24227095023993 0.96908380095970 0.04670517516657
0.10482758620690 -0.09195402298851 2.29272030651341 0.00000000000000 -0.00000000000000 -1.00000000000000
0.13547892720307 -0.09195402298851 2.29272030651341 0.00000000000000 0.00000000000000 -1.00000000000000
-0.09929078014184 -0.08453900709220 2.12198581560284 nan nan nan
-0.07246376811594 -0.08637681159420 2.16811594202899 -0.00000000000000 0.00000000000000 -1.00000000000000
-0.04444444444444 -0.08829629629630 2.21629629629630 -0.00000000000000 0.00000000000000 -1.00000000000000
-0.01532567049808 -0.09134099616858 2.29272030651341 0.00000000000000 0.00000000000000 1.00000000000000
0.01532567049808 -0.09134099616858 2.29272030651341 0.00000000000000 -0.00000000000000 -1.00000000000000
0.04597701149425 -0.09134099616858 2.29272030651341 0.00000000000000 0.00000000000000 1.00000000000000
0.07017543859649 -0.08364912280702 2.09964912280702 -0.24227095023993 0.96908380095970 0.04670517516658
0.10727969348659 -0.09134099616858 2.29272030651341 -0.00000000000000 0.00000000000000 1.00000000000000
-0.12320557491289 -0.08250871080139 2.08501742160279 -0.00000000000000 -0.00000000000000 -1.00000000000000
-0.09736654804270 -0.08427046263345 2.12953736654804 0.00000000000000 0.00000000000000 -1.00000000000000
-0.07040000000000 -0.08610909090909 2.17600000000000 0.00000000000000 0.00000000000000 -1.00000000000000
-0.04223048327138 -0.08802973977695 2.22453531598513 nan nan nan
-0.01287356321839 -0.09072796934866 2.29272030651341 -0.00000000000000 0.00000000000000 -1.00000000000000
0.01777777777778 -0.09072796934866 2.29272030651341 -0.00000000000000 0.00000000000000 -1.00000000000000
0.04498220640569 -0.08427046263345 2.12953736654804 0.24230633654438 -0.96922534617751 -0.04347260743884
0.07267605633803 -0.08338028169014 2.10704225352113 -0.34709467011168 -0.92558578696447 0.15105045828934
0.10973180076628 -0.09072796934866 2.29272030651341 0.00000000000000 -0.00000000000000 1.00000000000000
-0.12139860139860 -0.08223776223776 2.09230769230769 0.00000000000000 0.00000000000000 -1.00000000000000
-0.09508896797153 -0.08370106761566 2.12953736654804 -0.00000000000000 0.00000000000000 -1.00000000000000
-0.06807272727273 -0.08552727272727 2.17600000000000 -0.00000000000000 0.00000000000000 -1.00000000000000
-0.03985130111524 -0.08743494423792 2.22453531598513 nan nan nan
-0.01042145593870 -0.09011494252874 2.29272030651341 0.00000000000000 -0.00000000000000 -1.00000000000000
0.02022988505747 -0.09011494252874 2.29272030651341 0.00000000000000 -0.00000000000000 -1.00000000000000
0.04692579505300 -0.08310954063604 2.11448763250883 -0.24230633654438 0.96922534617751 0.04347260743884
0.07519434628975 -0.08310954063604 2.11448763250883 0.23390361891006 0.96551996116300 -0.11428167681907
0.11218390804598 -0.09011494252874 2.29272030651341 -0.00000000000000 0.00000000000000 1.00000000000000
-0.11916083916084 -0.08167832167832 2.09230769230769 -0.00000000000000 0.00000000000000 1.00000000000000
-0.09314285714286 -0.08342857142857 2.13714285714286 0.00000000000000 0.00000000000000 -1.00000000000000
-0.06598540145985 -0.08525547445255 2.18394160583942 0.00000000000000 0.00000000000000 -1.00000000000000
-0.03747211895911 -0.08684014869888 2.22453531598513 nan nan nan
-0.00796934865900 -0.08950191570881 2.29272030651341 -0.00000000000000 0.00000000000000 1.00000000000000
0.02268199233716 -0.08950191570881 2.29272030651341 nan nan nan
0.04918727915194 -0.08254416961131 2.11448763250883 0.24230633654438 -0.96922534617751 -0.04347260743884
0.07773049645390 -0.08283687943262 2.12198581560284 -0.24227095023992 0.96908380095970 0.04670517516657
0.11463601532567 -0.08950191570881 2.29272030651341 0.00000000000000 -0.00000000000000 1.00000000000000
-0.11692307692308 -0.08111888111888 2.09230769230769 0.00000000000000 0.00000000000000 1.00000000000000
-0.09085714285714 -0.08285714285714 2.13714285714286 -0.00000000000000 0.00000000000000 -1.00000000000000
-0.06364963503650 -0.08467153284672 2.18394160583942 0.00000000000000 -0.00000000000000 -1.00000000000000
-0.03522388059701 -0.08656716417910 2.23283582089552 0.00000000000000 0.00000000000000 -1.00000000000000
-0.00551724137931 -0.08888888888889 2.29272030651341 -0.00000000000000 0.00000000000000 -1.00000000000000
0.02513409961686 -0.08888888888889 2.29272030651341 -0.00000000000000 0.00000000000000 -1.00000000000000
0.05126760563380 -0.08169014084507 2.10704225352113 0.84082017716330 0.45862918754362 0.28754251513151
0.08000000000000 -0.08226950354610 2.12198581560284 0.24227095023992 -0.96908380095970 -0.04670517516657
0.11708812260536 -0.08888888888889 2.29272030651341 -0.00000000000000 0.00000000000000 -1.00000000000000
-0.11508771929825 -0.08084210526316 2.09964912280702 0.00000000000000 0.00000000000000 -1.00000000000000
-0.08888888888889 -0.08258064516129 2.14480286738351 0.00000000000000 0.00000000000000 -1.00000000000000
-0.06131386861314 -0.08408759124088 2.18394160583942 0.00000000000000 0.00000000000000 1.00000000000000
-0.03283582089552 -0.08597014925373 2.23283582089552 -0.00000000000000 0.00000000000000 -1.00000000000000
-0.00306513409962 -0.08827586206897 2.29272030651341 0.00000000000000 -0.00000000000000 -1.00000000000000
0.02758620689655 -0.08827586206897 2.29272030651341 0.00000000000000 -0.00000000000000 -1.00000000000000
0.05314685314685 -0.08055944055944 2.09230769230769 0.24230633654438 -0.96922534617751 -0.04347260743884
0.08436363636364 -0.08378181818182 2.17600000000000 0.90668905078533 -0.18363322547551 0.37972859213845
0.11954022988506 -0.08827586206897 2.29272030651341 0.00000000000000 -0.00000000000000 -1.00000000000000
-0.11284210526316 -0.08028070175439 2.09964912280702 -0.00000000000000 0.00000000000000 -1.00000000000000
-0.08659498207885 -0.08200716845878 2.14480286738351 0.00000000000000 0.00000000000000 1.00000000000000
-0.05919413919414 -0.08380952380952 2.19194139194139 0.00000000000000 0.00000000000000 -1.00000000000000
-0.03056179775281 -0.08569288389513 2.24119850187266 0.00000000000000 0.00000000000000 -1.00000000000000
-0.00061302681992 -0.08766283524904 2.29272030651341 0.00000000000000 0.00000000000000 1.00000000000000
0.03003831417625 -0.08766283524904 2.29272030651341 -0.00000000000000 0.00000000000000 -1.00000000000000
0.05519163763066 -0.07972125435540 2.08501742160279 0.00000000000000 -0.00000000000000 1.00000000000000
0.09064638783270 -0.08699619771863 2.27528517110266 0.93891092082454 0.15648515347076 -0.30652680062213
0.12199233716475 -0.08766283524904 2.29272030651341 -0.00000000000000 0.00000000000000 -1.00000000000000
-0.11098591549296 -0.08000000000000 2.10704225352113 0.00000000000000 0.00000000000000 1.00000000000000
-0.08460431654676 -0.08172661870504 2.15251798561151 0.00000000000000 0.00000000000000 -1.00000000000000
-0.05684981684982 -0.08322344322344 2.19194139194139 -0.00000000000000 0.00000000000000 -1.00000000000000
-0.02816479400749 -0.08509363295880 2.24119850187266 -0.00000000000000 0.00000000000000 -1.00000000000000
0.00183206106870 -0.08671755725191 2.28396946564885 nan nan nan
0.03249042145594 -0.08704980842912 2.29272030651341 -0.00000000000000 0.00000000000000 1.00000000000000
0.05742160278746 -0.07916376306620 2.08501742160279 -0.00000000000000 0.00000000000000 -1.00000000000000
0.09379310344828 -0.08704980842912 2.29272030651341 0.00000000000000 0.00000000000000 -1.00000000000000
0.12444444444444 -0.08704980842912 2.29272030651341 0.00000000000000 -0.00000000000000 -1.00000000000000
-0.10873239436620 -0.07943661971831 2.10704225352113 0.00000000000000 -0.00000000000000 1.00000000000000
-0.08230215827338 -0.08115107913669 2.15251798561151 0.00000000000000 -0.00000000000000 -1.00000000000000
-0.05470588235294 -0.08294117647059 2.20000000000000 0.00000000000000 0.00000000000000 -1.00000000000000
-0.02586466165414 -0.08481203007519 2.24962406015038 0.00000000000000 0.00000000000000 1.00000000000000
0.00427480916031 -0.08610687022901 2.28396946564885 nan nan nan
0.03494252873563 -0.08643678160920 2.29272030651341 0.00000000000000 -0.00000000000000 -1.00000000000000
0.05944444444444 -0.07833333333333 2.07777777777778 0.00000000000000 0.00000000000000 1.00000000000000
0.09624521072797 -0.08643678160920 2.29272030651341 0.00000000000000 -0.00000000000000 -1.00000000000000
0.12689655172414 -0.08643678160920 2.29272030651341 -0.00000000000000 0.00000000000000 1.00000000000000
-0.10647887323944 -0.07887323943662 2.10704225352113 0.00000000000000 0.00000000000000 -1.00000000000000
-0.08000000000000 -0.08057553956835 2.15251798561151 0.00000000000000 0.00000000000000 1.00000000000000
-0.05235294117647 -0.08235294117647 2.20000000000000 -0.00000000000000 0.00000000000000 -1.00000000000000
-0.02345864661654 -0.08421052631579 2.24962406015038 0.00000000000000 -0.00000000000000 1.00000000000000
0.00671755725191 -0.08549618320611 2.28396946564885 0.00000000000000 -0.00000000000000 1.00000000000000
0.03739463601533 -0.08582375478927 2.29272030651341 -0.00000000000000 0.00000000000000 -1.00000000000000
0.06124137931034 -0.07724137931034 2.06344827586207 0.00000000000000 0.00000000000000 -1.00000000000000
0.09869731800766 -0.08582375478927 2.29272030651341 -0.00000000000000 0.00000000000000 -1.00000000000000
0.12934865900383 -0.08582375478927 2.29272030651341 0.00000000000000 0.00000000000000 1.00000000000000
-0.10459363957597 -0.07858657243816 2.11448763250883 0.00000000000000 0.00000000000000 1.00000000000000
-0.07797833935018 -0.08028880866426 2.16028880866426 0.00000000000000 0.00000000000000 -1.00000000000000
-0.05018450184502 -0.08206642066421 2.20811808118081 0.00000000000000 0.00000000000000 -1.00000000000000
-0.02105263157895 -0.08360902255639 2.24962406015038 0.00000000000000 0.00000000000000 -1.00000000000000
0.00916030534351 -0.08488549618321 2.28396946564885 nan nan nan
0.03984674329502 -0.08521072796935 2.29272030651341 0.00000000000000 -0.00000000000000 -1.00000000000000
0.06344827586207 -0.07668965517241 2.06344827586207 -0.00000000000000 0.00000000000000 1.00000000000000
0.10114942528736 -0.08521072796935 2.29272030651341 0.00000000000000 -0.00000000000000 -1.00000000000000
0.13129770992366 -0.08488549618321 2.28396946564885 0.00000000000000 -0.00000000000000 1.00000000000000
-0.10233215547703 -0.07802120141343 2.11448763250883 -0.00000000000000 0.00000000000000 -1.00000000000000
-0.07566787003610 -0.07971119133574 2.16028880866426 -0.00000000000000 0.00000000000000 -1.00000000000000
-0.04782287822878 -0.08147601476015 2.20811808118081 -0.00000000000000 0.00000000000000 -1.00000000000000
-0.01885931558935 -0.08395437262357 2.27528517110266 0.87255436128675 -0.13423913250565 -0.46971133891317
0.01160305343511 -0.08427480916031 2.28396946564885 -0.00000000000000 0.00000000000000 -1.00000000000000
0.04229885057471 -0.08459770114943 2.29272030651341 0.00000000000000 0.00000000000000 1.00000000000000
0.06565517241379 -0.07613793103448 2.06344827586207 0.00000000000000 -0.00000000000000 1.00000000000000
0.10360153256705 -0.08459770114943 2.29272030651341 -0.00000000000000 0.00000000000000 -1.00000000000000
0.13374045801527 -0.08427480916031 2.28396946564885 -0.00000000000000 0.00000000000000 -1.00000000000000
-0.10042553191489 -0.07773049645390 2.12198581560284 0.00000000000000 0.00000000000000 -1.00000000000000
-0.07362318840580 -0.07942028985507 2.16811594202899 0.00000000000000 0.00000000000000 -1.00000000000000
-0.04562962962963 -0.08118518518519 2.21629629629630 0.00000000000000 0.00000000000000 1.00000000000000
-0.01655172413793 -0.08398467432950 2.29272030651341 0.00000000000000 0.00000000000000 1.00000000000000
0.01404580152672 -0.08366412213740 2.28396946564885 0.00000000000000 -0.00000000000000 -1.00000000000000
0.04407547169811 -0.08271698113208 2.25811320754717 -0.85725205362995 -0.14287534227166 -0.49467722114324
0.06786206896552 -0.07558620689655 2.06344827586207 0.00000000000000 0.00000000000000 -1.00000000000000
0.10605363984674 -0.08398467432950 2.29272030651341 0.00000000000000 -0.00000000000000 -1.00000000000000
-0.12432055749129 -0.07581881533101 2.08501742160279 nan nan nan
-0.09815602836879 -0.07716312056738 2.12198581560284 -0.00000000000000 0.00000000000000 -1.00000000000000
-0.07130434782609 -0.07884057971014 2.16811594202899 0.00000000000000 -0.00000000000000 -1.00000000000000
-0.04325925925926 -0.08059259259259 2.21629629629630 0.00000000000000 -0.00000000000000 1.00000000000000
-0.01404580152672 -0.08305343511450 2.28396946564885 0.00000000000000 0.00000000000000 -1.00000000000000
0.01648854961832 -0.08305343511450 2.28396946564885 0.00000000000000 -0.00000000000000 1.00000000000000
0.04447653429603 -0.07855595667870 2.16028880866426 -0.70629362012574 -0.38525106552313 -0.59391155796378
0.07031141868512 -0.07529411764706 2.07058823529412 -0.10453660894041 0.99451044181145 -0.00459113485211
0.10850574712644 -0.08337164750958 2.29272030651341 nan nan nan
-0.12209059233449 -0.07526132404181 2.08501742160279 nan nan nan
-0.09622775800712 -0.07686832740214 2.12953736654804 0.00000000000000 0.00000000000000 -1.00000000000000
-0.06898550724638 -0.07826086956522 2.16811594202899 0.00000000000000 0.00000000000000 1.00000000000000
-0.04088888888889 -0.08000000000000 2.21629629629630 0.00000000000000 0.00000000000000 -1.00000000000000
-0.01160305343511 -0.08244274809160 2.28396946564885 0.00000000000000 -0.00000000000000 -1.00000000000000
0.01893129770992 -0.08244274809160 2.28396946564885 0.00000000000000 -0.00000000000000 -1.00000000000000
0.04563380281690 -0.07605633802817 2.10704225352113 0.00000000000000 0.00000000000000 -1.00000000000000
0.07277777777778 -0.07500000000000 2.07777777777778 0.68240340482054 0.68240340482054 -0.26201371372254
0.11095785440613 -0.08275862068966 2.29272030651341 -0.00000000000000 0.00000000000000 -1.00000000000000
-0.11986062717770 -0.07470383275261 2.08501742160279 nan nan nan
-0.09395017793594 -0.07629893238434 2.12953736654804 -0.00000000000000 0.00000000000000 -1.00000000000000
-0.06690909090909 -0.07796363636364 2.17600000000000 0.00000000000000 -0.00000000000000 -1.00000000000000
-0.03866171003717 -0.07970260223048 2.22453531598513 0.00000000000000 0.00000000000000 -1.00000000000000
-0.00916030534351 -0.08183206106870 2.28396946564885 -0.00000000000000 0.00000000000000 -1.00000000000000
0.02137404580153 -0.08183206106870 2.28396946564885 -0.00000000000000 0.00000000000000 -1.00000000000000
0.04788732394366 -0.07549295774648 2.10704225352113 0.00000000000000 0.00000000000000 1.00000000000000
0.07552447552448 -0.07496503496503 2.09230769230769 0.00000000000000 0.00000000000000 1.00000000000000
0.11340996168582 -0.08214559386973 2.29272030651341 0.00000000000000 -0.00000000000000 -1.00000000000000
-0.11804195804196 -0.07440559440559 2.09230769230769 0.00000000000000 0.00000000000000 -1.00000000000000
-0.09200000000000 -0.07600000000000 2.13714285714286 0.00000000000000 0.00000000000000 1.00000000000000
-0.06481751824818 -0.07766423357664 2.18394160583942 0.00000000000000 0.00000000000000 1.00000000000000
-0.03628252788104 -0.07910780669145 2.22453531598513 -0.00000000000000 0.00000000000000 -1.00000000000000
-0.00671755725191 -0.08122137404580 2.28396946564885 -0.00000000000000 0.00000000000000 1.00000000000000
0.02381679389313 -0.08122137404580 2.28396946564885 0.00000000000000 -0.00000000000000 1.00000000000000
0.04996491228070 -0.07466666666667 2.09964912280702 0.95639259172660 -0.14713732180409 0.25231690197608
0.07830985915493 -0.07492957746479 2.10704225352113 -0.80502983400426 0.53668655600284 0.25277362791417
0.11586206896552 -0.08153256704981 2.29272030651341 0.00000000000000 -0.00000000000000 -1.00000000000000
-0.11580419580420 -0.07384615384615 2.09230769230769 -0.00000000000000 0.00000000000000 -1.00000000000000
-0.08971428571429 -0.07542857142857 2.13714285714286 0.00000000000000 -0.00000000000000 1.00000000000000
