-1.217550097537294901e-05 -2.739487719458921913e-05 -8.745037298153733628e-06
0.000000000000000000e+00 0.000000000000000000e+00 1.031436404909542441e-05
0.000000000000000000e+00 0.000000000000000000e+00 1.018623654661745504e-05
-3.277080391905190081e-04 2.048175244940539835e-05 -6.062379668848634636e-05
-2.104700773910147418e-05 -2.104700773910111165e-05 3.342760052680573113e-06
-0.000000000000000000e+00 0.000000000000000000e+00 2.633523178931675124e-06
0.000000000000000000e+00 -0.000000000000000000e+00 8.328375966686442296e-06
-0.000000000000000000e+00 0.000000000000000000e+00 2.666035502958666600e-06
-0.000000000000000000e+00 0.000000000000000000e+00 3.087583877900082779e-06
-0.000000000000000000e+00 0.000000000000000000e+00 3.047091412742360629e-06
-0.000000000000000000e+00 0.000000000000000000e+00 3.027143241064154108e-06
-0.000000000000000000e+00 0.000000000000000000e+00 3.007390319962330997e-06
-0.000000000000000000e+00 0.000000000000000000e+00 3.007390319962411042e-06
-0.000000000000000000e+00 0.000000000000000000e+00 3.007390319962411042e-06
-0.000000000000000000e+00 0.000000000000000000e+00 3.027143241064194342e-06
-0.000000000000000000e+00 0.000000000000000000e+00 3.067237416810991939e-06
-0.000000000000000000e+00 0.000000000000000000e+00 3.108133464310545352e-06
-0.000000000000000000e+00 0.000000000000000000e+00 3.171028332057115085e-06
-0.000000000000000000e+00 0.000000000000000000e+00 3.257901800175920208e-06
-0.000000000000000000e+00 -0.000000000000000000e+00 -6.130194801307451223e-06
-0.000000000000000000e+00 0.000000000000000000e+00 3.566317549169708217e-06
-1.807085114088092810e-05 2.258856392610741122e-06 9.365194444870240267e-06
0.000000000000000000e+00 0.000000000000000000e+00 -7.989763116007562064e-06
-0.000000000000000000e+00 0.000000000000000000e+00 -6.356251115369993565e-06
-0.000000000000000000e+00 0.000000000000000000e+00 3.816428532197151317e-06
-1.206051773914164175e-05 -2.110590604349774771e-05 -9.221942675002790622e-06
-0.000000000000000000e+00 -0.000000000000000000e+00 -1.249999999999984644e-06
0.000000000000000000e+00 0.000000000000000000e+00 -9.876162185100661323e-06
9.006679594914855191e-05 -9.480715363068146828e-06 2.313015704019135075e-05
0.000000000000000000e+00 0.000000000000000000e+00 5.431889201805471301e-06
0.000000000000000000e+00 0.000000000000000000e+00 1.029468151764251479e-05
0.000000000000000000e+00 0.000000000000000000e+00 1.029468151764250124e-05
1.976592143367151847e-05 -5.647406123906165802e-06 3.217058488497837107e-06
-0.000000000000000000e+00 0.000000000000000000e+00 -1.115359060658530934e-06
-0.000000000000000000e+00 0.000000000000000000e+00 -8.864265927977770524e-06
-0.000000000000000000e+00 0.000000000000000000e+00 -8.806234883096106979e-06
-0.000000000000000000e+00 0.000000000000000000e+00 -8.748771839890739010e-06
-0.000000000000000000e+00 0.000000000000000000e+00 -8.748771839890617037e-06
0.000000000000000000e+00 0.000000000000000000e+00 -1.100779360386992451e-05
-0.000000000000000000e+00 0.000000000000000000e+00 -1.108033240997257738e-06
-0.000000000000000000e+00 0.000000000000000000e+00 -8.922872485268325401e-06
0.000000000000000000e+00 0.000000000000000000e+00 -1.621333333333334299e-05
0.000000000000000000e+00 0.000000000000000000e+00 -1.654252967384277912e-05
-0.000000000000000000e+00 0.000000000000000000e+00 -1.192791995247473076e-06
-0.000000000000000000e+00 0.000000000000000000e+00 -9.876543209876438275e-06
0.000000000000000000e+00 0.000000000000000000e+00 -1.358107758397610634e-05
0.000000000000000000e+00 0.000000000000000000e+00 -1.643540996236304906e-06
-0.000000000000000000e+00 0.000000000000000000e+00 -4.793857869604681911e-06
0.000000000000000000e+00 0.000000000000000000e+00 9.534376673054994583e-06
-0.000000000000000000e+00 0.000000000000000000e+00 -2.019946976391880714e-07
-0.000000000000000000e+00 -0.000000000000000000e+00 5.063090858747630605e-06
0.000000000000000000e+00 0.000000000000000000e+00 -1.614891159829585126e-05
-0.000000000000000000e+00 0.000000000000000000e+00 -1.567010952420455627e-20
-2.285234194496936339e-05 9.140936777987581033e-06 -1.187832960989828818e-05
-0.000000000000000000e+00 0.000000000000000000e+00 -1.146166742874569975e-05
0.000000000000000000e+00 0.000000000000000000e+00 -8.804283164782880416e-06
-0.000000000000000000e+00 0.000000000000000000e+00 -5.745868754033237004e-06
-0.000000000000000000e+00 0.000000000000000000e+00 -2.469040546275207682e-07
-0.000000000000000000e+00 0.000000000000000000e+00 -6.692154363951364330e-06
-0.000000000000000000e+00 0.000000000000000000e+00 1.210857296425690781e-05
0.000000000000000000e+00 0.000000000000000000e+00 -2.077833311974033913e-05
-0.000000000000000000e+00 0.000000000000000000e+00 -6.561578879917905180e-06
-0.000000000000000000e+00 0.000000000000000000e+00 -6.561578879917993271e-06
-0.000000000000000000e+00 0.000000000000000000e+00 -6.604676162321922686e-06
-0.000000000000000000e+00 0.000000000000000000e+00 -6.648199445983396503e-06
-0.000000000000000000e+00 0.000000000000000000e+00 -6.736546642691106254e-06
-0.000000000000000000e+00 0.000000000000000000e+00 -6.826666666666665115e-06
-0.000000000000000000e+00 0.000000000000000000e+00 -6.965275652144399022e-06
0.000000000000000000e+00 0.000000000000000000e+00 -1.110902608369301412e-05
-0.000000000000000000e+00 0.000000000000000000e+00 -7.511369749131963547e-06
-3.176228032062437736e-05 -9.074937234464155734e-06 1.021779697709355328e-05
1.716886502431470602e-05 4.292216256078635846e-06 2.232181983441943213e-06
0.000000000000000000e+00 0.000000000000000000e+00 -8.788739427608348594e-06
-0.000000000000000000e+00 0.000000000000000000e+00 8.739845283633670213e-06
0.000000000000000000e+00 0.000000000000000000e+00 -2.843880182503468228e-06
0.000000000000000000e+00 0.000000000000000000e+00 -1.861616925934301122e-05
0.000000000000000000e+00 -0.000000000000000000e+00 -1.567010952420455627e-20
0.000000000000000000e+00 -0.000000000000000000e+00 -1.567010952420455627e-20
-0.000000000000000000e+00 0.000000000000000000e+00 3.288755283205508257e-07
0.000000000000000000e+00 0.000000000000000000e+00 -1.782528510670338231e-05
-0.000000000000000000e+00 0.000000000000000000e+00 -4.283164782867167201e-06
-0.000000000000000000e+00 0.000000000000000000e+00 1.059881817155328787e-05
0.000000000000000000e+00 -0.000000000000000000e+00 -1.249999999999849119e-06
-0.000000000000000000e+00 0.000000000000000000e+00 -5.019115772963646490e-06
-0.000000000000000000e+00 0.000000000000000000e+00 -4.953507121741221574e-06
-0.000000000000000000e+00 0.000000000000000000e+00 -4.921184159938556787e-06
-0.000000000000000000e+00 0.000000000000000000e+00 -4.921184159938462766e-06
-0.000000000000000000e+00 0.000000000000000000e+00 -4.921184159938556787e-06
-0.000000000000000000e+00 0.000000000000000000e+00 -4.953507121741498554e-06
-0.000000000000000000e+00 0.000000000000000000e+00 -4.986149584487517307e-06
-0.000000000000000000e+00 0.000000000000000000e+00 -5.052409982018327361e-06
-0.000000000000000000e+00 0.000000000000000000e+00 -5.120000000000017895e-06
-0.000000000000000000e+00 0.000000000000000000e+00 -5.259313367421521374e-06
-0.000000000000000000e+00 0.000000000000000000e+00 -5.441598469550442641e-06
-0.000000000000000000e+00 0.000000000000000000e+00 -5.673130193905809930e-06
-1.098328630345142028e-04 -9.550683742131547171e-06 1.796881982660670889e-05
-0.000000000000000000e+00 -0.000000000000000000e+00 -2.221941674030926907e-06
-0.000000000000000000e+00 0.000000000000000000e+00 7.150782504791244243e-06
-0.000000000000000000e+00 0.000000000000000000e+00 7.150782504791318782e-06
2.401110674188910524e-05 -1.091413942813128473e-05 -1.026921300737809278e-05
0.000000000000000000e+00 -0.000000000000000000e+00 -1.157221332337536951e-05
0.000000000000000000e+00 -0.000000000000000000e+00 -1.142846051571702944e-05
-0.000000000000000000e+00 0.000000000000000000e+00 8.888545966590939086e-06
0.000000000000000000e+00 0.000000000000000000e+00 -1.912843049100179091e-05
0.000000000000000000e+00 -0.000000000000000000e+00 -1.108058263389666680e-05
-0.000000000000000000e+00 0.000000000000000000e+00 8.566329565734764694e-06
-0.000000000000000000e+00 0.000000000000000000e+00 8.671760322179980512e-06
-0.000000000000000000e+00 0.000000000000000000e+00 1.010481996403661576e-05
-0.000000000000000000e+00 0.000000000000000000e+00 9.972299168975159975e-06
-0.000000000000000000e+00 0.000000000000000000e+00 9.907014243482905629e-06
-0.000000000000000000e+00 0.000000000000000000e+00 9.842368319877023788e-06
-0.000000000000000000e+00 0.000000000000000000e+00 9.842368319876979742e-06
-0.000000000000000000e+00 0.000000000000000000e+00 9.842368319876935697e-06
-0.000000000000000000e+00 0.000000000000000000e+00 9.907014243482927652e-06
0.000000000000000000e+00 -0.000000000000000000e+00 -1.274238227146814995e-05
0.000000000000000000e+00 -0.000000000000000000e+00 -1.291171439849126842e-05
-0.000000000000000000e+00 -0.000000000000000000e+00 -3.149852909922703770e-06
-0.000000000000000000e+00 0.000000000000000000e+00 1.059006032749211198e-05
-0.000000000000000000e+00 0.000000000000000000e+00 4.565992865636235083e-06
-0.000000000000000000e+00 0.000000000000000000e+00 4.794665934148415743e-06
0.000000000000000000e+00 0.000000000000000000e+00 3.168238409940365283e-06
0.000000000000000000e+00 0.000000000000000000e+00 -7.030263085626430074e-06
0.000000000000000000e+00 -0.000000000000000000e+00 1.986328473553122460e-07
0.000000000000000000e+00 0.000000000000000000e+00 7.150782504791318782e-06
2.101418738586868882e-04 -1.038348082595859785e-04 -2.882691719755764128e-05
2.931034482758667838e-06 -1.758620689655168346e-05 3.213166144202398530e-08
0.000000000000000000e+00 0.000000000000000000e+00 -3.769296615281636509e-20
0.000000000000000000e+00 0.000000000000000000e+00 8.888545966590939086e-06
-2.119627729753520957e-05 -2.119627729753484365e-05 -2.229576333917166663e-05
0.000000000000000000e+00 0.000000000000000000e+00 -8.379391932964904080e-06
0.000000000000000000e+00 0.000000000000000000e+00 -8.328375966686442296e-06
0.000000000000000000e+00 0.000000000000000000e+00 8.671760322179980512e-06
0.000000000000000000e+00 -0.000000000000000000e+00 2.806894434454243971e-07
0.000000000000000000e+00 0.000000000000000000e+00 -9.695290858725779155e-06
0.000000000000000000e+00 -0.000000000000000000e+00 2.751948400967562018e-07
0.000000000000000000e+00 0.000000000000000000e+00 -9.568969199880322151e-06
0.000000000000000000e+00 0.000000000000000000e+00 -9.568969199880401772e-06
0.000000000000000000e+00 -0.000000000000000000e+00 2.733991199965707710e-07
0.000000000000000000e+00 -0.000000000000000000e+00 2.751948400967487903e-07
0.000000000000000000e+00 0.000000000000000000e+00 -9.759391780762226672e-06
0.000000000000000000e+00 0.000000000000000000e+00 -9.889515568260831587e-06
0.000000000000000000e+00 0.000000000000000000e+00 -1.008963560199988830e-05
0.000000000000000000e+00 0.000000000000000000e+00 1.059006032749211198e-05
-0.000000000000000000e+00 0.000000000000000000e+00 1.532548700326864796e-05
4.284567912173487518e-05 0.000000000000000000e+00 -2.191545031012814425e-05
-3.164321655053488553e-04 -2.352957128116696644e-04 1.996846200050708784e-04
0.000000000000000000e+00 0.000000000000000000e+00 -7.030263085626430921e-06
0.000000000000000000e+00 -0.000000000000000000e+00 0.000000000000000000e+00
0.000000000000000000e+00 -0.000000000000000000e+00 -6.991042726506586524e-06
0.000000000000000000e+00 0.000000000000000000e+00 -2.456395547037470983e-20
0.000000000000000000e+00 0.000000000000000000e+00 9.999999999999878845e-06
-0.000000000000000000e+00 0.000000000000000000e+00 3.790472438962994017e-20
-4.977216177449685823e-05 -1.990886470979889508e-05 4.346413913248963710e-06
-1.272013705006106235e-04 -4.343461431728172755e-05 -5.535092895952448816e-05
0.000000000000000000e+00 0.000000000000000000e+00 -8.379391932964902386e-06
0.000000000000000000e+00 0.000000000000000000e+00 8.328375966686442296e-06
0.000000000000000000e+00 -0.000000000000000000e+00 -8.482840236686332340e-06
0.000000000000000000e+00 -0.000000000000000000e+00 -9.824130520591170822e-06
-0.000000000000000000e+00 0.000000000000000000e+00 9.695290858725782543e-06
0.000000000000000000e+00 0.000000000000000000e+00 9.631819403386120840e-06
0.000000000000000000e+00 0.000000000000000000e+00 9.568969199880322151e-06
0.000000000000000000e+00 -0.000000000000000000e+00 -9.568969199880354338e-06
0.000000000000000000e+00 0.000000000000000000e+00 9.568969199880357726e-06
0.000000000000000000e+00 0.000000000000000000e+00 9.631819403386181826e-06
-0.000000000000000000e+00 0.000000000000000000e+00 9.759391780762216508e-06
0.000000000000000000e+00 0.000000000000000000e+00 -9.889515568260831587e-06
0.000000000000000000e+00 -0.000000000000000000e+00 -1.122318655111947949e-20
0.000000000000000000e+00 -0.000000000000000000e+00 -1.036605118237770289e-05
0.000000000000000000e+00 0.000000000000000000e+00 -1.234567901234570031e-05
0.000000000000000000e+00 0.000000000000000000e+00 3.566317549169708217e-06
2.449447400736830868e-05 3.117478510028623173e-05 6.145052655081332667e-06
0.000000000000000000e+00 0.000000000000000000e+00 -7.989763116007562064e-06
0.000000000000000000e+00 0.000000000000000000e+00 7.945313894212488145e-06
0.000000000000000000e+00 -0.000000000000000000e+00 -9.317362419797303730e-21
-0.000000000000000000e+00 0.000000000000000000e+00 2.456395547037470983e-20
0.000000000000000000e+00 -0.000000000000000000e+00 1.490668762919608035e-05
0.000000000000000000e+00 -0.000000000000000000e+00 5.505714157152952204e-20
-3.206508755517506362e-05 1.068836251839216334e-05 -9.170843668855800527e-06
1.715333432149064726e-05 1.143555621432706994e-05 1.231462637786189761e-05
0.000000000000000000e+00 0.000000000000000000e+00 1.427721594289128691e-05
-0.000000000000000000e+00 0.000000000000000000e+00 -1.016439536705160407e-20
0.000000000000000000e+00 0.000000000000000000e+00 8.482840236686334034e-06
0.000000000000000000e+00 0.000000000000000000e+00 9.824130520591170822e-06
0.000000000000000000e+00 -0.000000000000000000e+00 2.562274665444258526e-20
-0.000000000000000000e+00 0.000000000000000000e+00 -1.079967007749232932e-20
0.000000000000000000e+00 -0.000000000000000000e+00 -2.181109839179823373e-20
-0.000000000000000000e+00 0.000000000000000000e+00 2.901087844345978661e-20
0.000000000000000000e+00 0.000000000000000000e+00 -1.100779360386992281e-05
0.000000000000000000e+00 0.000000000000000000e+00 9.631819403386207237e-06
0.000000000000000000e+00 -0.000000000000000000e+00 -1.101142831430590441e-20
0.000000000000000000e+00 0.000000000000000000e+00 9.889515568260829893e-06
0.000000000000000000e+00 0.000000000000000000e+00 1.008963560199989000e-05
0.000000000000000000e+00 0.000000000000000000e+00 1.036605118237770289e-05
0.000000000000000000e+00 0.000000000000000000e+00 1.234567901234570031e-05
0.000000000000000000e+00 0.000000000000000000e+00 -6.577510566410973315e-06
0.000000000000000000e+00 0.000000000000000000e+00 4.958677685950452179e-06
0.000000000000000000e+00 -0.000000000000000000e+00 1.997440779001735509e-07
0.000000000000000000e+00 0.000000000000000000e+00 -7.623296525288703052e-21
0.000000000000000000e+00 0.000000000000000000e+00 9.317362419797303730e-21
0.000000000000000000e+00 0.000000000000000000e+00 1.088564534630754620e-05
0.000000000000000000e+00 -0.000000000000000000e+00 2.484447938199482109e-07
0.000000000000000000e+00 0.000000000000000000e+00 9.876162185100659629e-06
-9.006679594914855191e-05 9.480715363068146828e-06 -2.313015704019135414e-05
-0.000000000000000000e+00 -0.000000000000000000e+00 1.121780216430433407e-05
0.000000000000000000e+00 -0.000000000000000000e+00 2.379535990481995784e-07
-0.000000000000000000e+00 0.000000000000000000e+00 -1.522903033908388533e-05
-1.976592143367151847e-05 5.647406123906165802e-06 5.833891326125790576e-06
0.000000000000000000e+00 -0.000000000000000000e+00 -9.201712250432941088e-06
0.000000000000000000e+00 -0.000000000000000000e+00 2.770083102493016231e-07
0.000000000000000000e+00 -0.000000000000000000e+00 2.751948400967559901e-07
0.000000000000000000e+00 -0.000000000000000000e+00 2.733991199965925821e-07
0.000000000000000000e+00 -0.000000000000000000e+00 2.733991199965997819e-07
0.000000000000000000e+00 -0.000000000000000000e+00 2.751948400967451904e-07
0.000000000000000000e+00 -0.000000000000000000e+00 -9.141274238227136098e-06
0.000000000000000000e+00 0.000000000000000000e+00 1.115359060658540506e-05
0.000000000000000000e+00 -0.000000000000000000e+00 -9.386666666666679569e-06
0.000000000000000000e+00 -0.000000000000000000e+00 -9.577254021698469882e-06
-0.000000000000000000e+00 0.000000000000000000e+00 -1.431350394296968200e-05
0.000000000000000000e+00 0.000000000000000000e+00 -7.459116900775730749e-06
-0.000000000000000000e+00 0.000000000000000000e+00 -1.589979814709386899e-05
1.519346867283328153e-05 4.340991049380913743e-06 6.342605772551503394e-06
0.000000000000000000e+00 0.000000000000000000e+00 7.390530882307039082e-06
0.000000000000000000e+00 -0.000000000000000000e+00 -7.623296525288703052e-21
1.678734808634823846e-05 -1.468892957555472729e-05 -8.421166692112362975e-06
0.000000000000000000e+00 0.000000000000000000e+00 2.515698548559754664e-07
0.000000000000000000e+00 0.000000000000000000e+00 9.192457371337497022e-06
0.000000000000000000e+00 0.000000000000000000e+00 2.453776035426317304e-07
0.000000000000000000e+00 0.000000000000000000e+00 -9.139834710744278591e-06
0.000000000000000000e+00 -0.000000000000000000e+00 1.454201183431950697e-05
0.000000000000000000e+00 -0.000000000000000000e+00 -8.470329472543003391e-21
0.000000000000000000e+00 0.000000000000000000e+00 -8.858214329134330898e-06
1.626303258728256651e-19 -9.063252535621013628e-19 3.642241673193491458e-20
-0.000000000000000000e+00 0.000000000000000000e+00 0.000000000000000000e+00
0.000000000000000000e+00 -0.000000000000000000e+00 -1.821120836596745729e-20
0.000000000000000000e+00 0.000000000000000000e+00 9.081429723192668152e-06
0.000000000000000000e+00 -0.000000000000000000e+00 -1.905824131322175763e-21
-0.000000000000000000e+00 0.000000000000000000e+00 1.630538423464528153e-20
0.000000000000000000e+00 -0.000000000000000000e+00 3.599890025830776441e-21
-0.000000000000000000e+00 0.000000000000000000e+00 2.011703249728963305e-20
0.000000000000000000e+00 0.000000000000000000e+00 -1.038550940748212507e-05
0.000000000000000000e+00 -0.000000000000000000e+00 2.032879073410320814e-20
0.000000000000000000e+00 0.000000000000000000e+00 1.073813329705584713e-05
0.000000000000000000e+00 0.000000000000000000e+00 -1.110902608369301412e-05
0.000000000000000000e+00 0.000000000000000000e+00 -1.158002836324511329e-05
-0.000000000000000000e+00 -0.000000000000000000e+00 6.385213190506280980e-06
-5.315131744020734628e-20 2.158267380889556530e-06 1.783167435012856542e-07
0.000000000000000000e+00 0.000000000000000000e+00 0.000000000000000000e+00
0.000000000000000000e+00 -0.000000000000000000e+00 1.975308641975485776e-07
0.000000000000000000e+00 0.000000000000000000e+00 1.249373597200093000e-20
0.000000000000000000e+00 -0.000000000000000000e+00 2.515698548559756781e-07
0.000000000000000000e+00 0.000000000000000000e+00 5.505714157152952204e-20
0.000000000000000000e+00 -0.000000000000000000e+00 2.453776035426319421e-07
6.732843078194371625e-05 -0.000000000000000000e+00 3.076585246158772979e-05
2.780527825171595669e-06 -1.390263912585799952e-05 3.390162268123620315e-07
0.000000000000000000e+00 -0.000000000000000000e+00 2.379535990481928021e-07
0.000000000000000000e+00 -0.000000000000000000e+00 2.394111980847191261e-07
0.000000000000000000e+00 -0.000000000000000000e+00 -7.160217584198124302e-06
0.000000000000000000e+00 -0.000000000000000000e+00 2.788397651646345335e-07
0.000000000000000000e+00 0.000000000000000000e+00 1.821120836596745729e-20
0.000000000000000000e+00 0.000000000000000000e+00 -1.439956010332310576e-20
0.000000000000000000e+00 -0.000000000000000000e+00 2.733991199965851706e-07
0.000000000000000000e+00 -0.000000000000000000e+00 2.733991199965997819e-07
0.000000000000000000e+00 -0.000000000000000000e+00 2.751948400967362966e-07
0.000000000000000000e+00 -0.000000000000000000e+00 2.770083102493253400e-07
0.000000000000000000e+00 -0.000000000000000000e+00 2.806894434454546785e-07
0.000000000000000000e+00 -0.000000000000000000e+00 2.844444444444261686e-07
0.000000000000000000e+00 0.000000000000000000e+00 3.811648262644351526e-21
0.000000000000000000e+00 0.000000000000000000e+00 1.110902608369301242e-05
0.000000000000000000e+00 0.000000000000000000e+00 1.158002836324511329e-05
0.000000000000000000e+00 0.000000000000000000e+00 -1.022963397090938775e-05
1.707241072642532527e-05 4.268102681606290660e-06 5.460660783819804878e-06
-0.000000000000000000e+00 0.000000000000000000e+00 0.000000000000000000e+00
0.000000000000000000e+00 0.000000000000000000e+00 -1.975308641975483658e-07
0.000000000000000000e+00 -0.000000000000000000e+00 1.249373597200093000e-20
0.000000000000000000e+00 0.000000000000000000e+00 8.553375065103538551e-06
0.000000000000000000e+00 -0.000000000000000000e+00 5.505714157152952204e-20
0.000000000000000000e+00 -0.000000000000000000e+00 2.075230720773035831e-20
1.740652706607587197e-19 -1.104530963219607642e-18 1.101142831430590441e-20
0.000000000000000000e+00 0.000000000000000000e+00 -8.189995859836787928e-06
0.000000000000000000e+00 -0.000000000000000000e+00 1.355252715606880543e-20
0.000000000000000000e+00 -0.000000000000000000e+00 -6.776263578034402713e-21
0.000000000000000000e+00 0.000000000000000000e+00 7.160217584198124302e-06
0.000000000000000000e+00 -0.000000000000000000e+00 -7.411538288475127967e-21
0.000000000000000000e+00 0.000000000000000000e+00 2.751948400967432846e-07
0.000000000000000000e+00 -0.000000000000000000e+00 -1.439956010332310576e-20
0.000000000000000000e+00 -0.000000000000000000e+00 0.000000000000000000e+00
0.000000000000000000e+00 -0.000000000000000000e+00 -7.199780051661552882e-21
0.000000000000000000e+00 -0.000000000000000000e+00 1.821120836596745729e-20
-0.000000000000000000e+00 0.000000000000000000e+00 9.105604182983728645e-21
-0.000000000000000000e+00 0.000000000000000000e+00 -7.411538288475127967e-21
0.000000000000000000e+00 0.000000000000000000e+00 9.671111111111108490e-06
-0.000000000000000000e+00 0.000000000000000000e+00 -3.811648262644351526e-21
0.000000000000000000e+00 0.000000000000000000e+00 3.023110260861492077e-07
0.000000000000000000e+00 0.000000000000000000e+00 -5.673130193905809083e-06
9.991484530229992366e-05 1.427354932889996659e-05 -1.316677678735416020e-05
0.000000000000000000e+00 0.000000000000000000e+00 -6.261835626814852659e-06
0.000000000000000000e+00 -0.000000000000000000e+00 1.986328473553059991e-07
0.000000000000000000e+00 0.000000000000000000e+00 -3.972656947106414326e-07
0.000000000000000000e+00 -0.000000000000000000e+00 2.019946976391667897e-07
2.931034482758647509e-06 -8.793103448276004360e-06 -3.448275862068676567e-08
0.000000000000000000e+00 -0.000000000000000000e+00 2.469040546275001218e-07
0.000000000000000000e+00 -0.000000000000000000e+00 2.453776035426301422e-07
0.000000000000000000e+00 0.000000000000000000e+00 3.288755283205508257e-07
0.000000000000000000e+00 0.000000000000000000e+00 8.189995859836787928e-06
0.000000000000000000e+00 -0.000000000000000000e+00 2.379535990481792496e-07
0.000000000000000000e+00 -0.000000000000000000e+00 2.394111980847173262e-07
3.642241673193491458e-20 -2.894680830479286523e-06 2.855981888895261098e-07
0.000000000000000000e+00 -0.000000000000000000e+00 2.788397651646400392e-07
0.000000000000000000e+00 -0.000000000000000000e+00 2.751948400967434963e-07
0.000000000000000000e+00 -0.000000000000000000e+00 2.733991199965961820e-07
0.000000000000000000e+00 -0.000000000000000000e+00 2.733991199965817824e-07
0.000000000000000000e+00 -0.000000000000000000e+00 2.733991199965817824e-07
0.000000000000000000e+00 -0.000000000000000000e+00 2.751948400967325908e-07
0.000000000000000000e+00 -0.000000000000000000e+00 2.770083102493087170e-07
0.000000000000000000e+00 -0.000000000000000000e+00 2.806894434454643135e-07
0.000000000000000000e+00 0.000000000000000000e+00 -5.727005290768592928e-07
0.000000000000000000e+00 -0.000000000000000000e+00 2.921840759678575105e-07
0.000000000000000000e+00 -0.000000000000000000e+00 3.023110260861492077e-07
-4.165144064286938245e-06 1.249543219286078763e-05 3.864451845742133986e-07
1.974180315506878294e-04 2.256206074865011713e-05 -1.501372424818260062e-05
0.000000000000000000e+00 0.000000000000000000e+00 6.261835626814852659e-06
0.000000000000000000e+00 0.000000000000000000e+00 -1.986328473553061050e-07
-0.000000000000000000e+00 0.000000000000000000e+00 3.972656947106414326e-07
0.000000000000000000e+00 0.000000000000000000e+00 -2.019946976391666838e-07
2.912772585669780565e-06 -8.738317757009403530e-06 2.149532710280383353e-07
0.000000000000000000e+00 0.000000000000000000e+00 -2.469040546275000159e-07
0.000000000000000000e+00 0.000000000000000000e+00 -2.453776035426302481e-07
1.905824131322175763e-20 8.723143334554245244e-06 5.387823824283600952e-07
2.746619266370522596e-06 -1.373309633185276841e-05 9.620511334073027237e-08
-0.000000000000000000e+00 0.000000000000000000e+00 4.759071980963805221e-07
-0.000000000000000000e+00 0.000000000000000000e+00 4.788223961694110413e-07
2.912772585669799031e-05 -1.456386292834900532e-05 -3.002336448598187064e-06
-0.000000000000000000e+00 0.000000000000000000e+00 5.576795303292599614e-07
-0.000000000000000000e+00 0.000000000000000000e+00 5.503896801935031922e-07
-0.000000000000000000e+00 0.000000000000000000e+00 5.467982399931796585e-07
-0.000000000000000000e+00 0.000000000000000000e+00 5.467982399931652589e-07
-0.000000000000000000e+00 0.000000000000000000e+00 5.467982399931724587e-07
-0.000000000000000000e+00 0.000000000000000000e+00 5.503896801934851927e-07
0.000000000000000000e+00 0.000000000000000000e+00 -2.770083102493086111e-07
0.000000000000000000e+00 0.000000000000000000e+00 -2.806894434454642076e-07
-0.000000000000000000e+00 0.000000000000000000e+00 5.727005290768593986e-07
0.000000000000000000e+00 0.000000000000000000e+00 -2.921840759678574046e-07
0.000000000000000000e+00 0.000000000000000000e+00 -3.023110260861492077e-07
-4.194579711384314334e-06 1.258373913415291844e-05 7.076951331239364228e-07
3.164321655053488553e-04 2.352957128116696644e-04 -1.996846200050708512e-04
0.000000000000000000e+00 0.000000000000000000e+00 -1.205187957535948236e-05
2.057842429244441088e-06 -1.234705457546667787e-05 -2.360466315898227182e-07
-0.000000000000000000e+00 0.000000000000000000e+00 1.986328473552999640e-07
-2.128056814564939472e-06 6.384170443694951825e-06 5.837931261346393535e-07
0.000000000000000000e+00 0.000000000000000000e+00 -4.531626267810506814e-20
2.850038003880291833e-06 -1.710022802328163156e-05 -4.511290102398572834e-07
2.823703061953062996e-06 -1.694221837171833647e-05 -4.854655264267134294e-07
0.000000000000000000e+00 -0.000000000000000000e+00 -1.912843049100178752e-05
0.000000000000000000e+00 0.000000000000000000e+00 1.220997110232038638e-05
-0.000000000000000000e+00 0.000000000000000000e+00 2.379535990482080487e-07
0.000000000000000000e+00 0.000000000000000000e+00 4.788223961694111471e-07
-1.993784209091375905e-03 7.996847735194076478e-04 -3.644151148164707704e-04
0.000000000000000000e+00 0.000000000000000000e+00 5.576795303292597497e-07
-0.000000000000000000e+00 0.000000000000000000e+00 2.751948400967506961e-07
-0.000000000000000000e+00 0.000000000000000000e+00 2.733991199965633595e-07
-0.000000000000000000e+00 0.000000000000000000e+00 2.733991199965707710e-07
-0.000000000000000000e+00 0.000000000000000000e+00 2.733991199965633595e-07
-0.000000000000000000e+00 0.000000000000000000e+00 2.751948400967614958e-07
0.000000000000000000e+00 0.000000000000000000e+00 -1.673038590987811352e-05
0.000000000000000000e+00 0.000000000000000000e+00 -1.695345525987571178e-05
0.000000000000000000e+00 0.000000000000000000e+00 5.727005290768595045e-07
0.000000000000000000e+00 -0.000000000000000000e+00 -1.735593220338981066e-05
3.912213818437469838e-05 -3.912213818437543700e-06 -1.653799477793991762e-05
4.209401547820292125e-05 -4.209401547820429006e-06 -1.797099318557401107e-05
2.277373749556099551e-03 1.069189553782206627e-03 -1.786833012835537253e-04
0.000000000000000000e+00 0.000000000000000000e+00 1.205187957535948236e-05
0.000000000000000000e+00 -0.000000000000000000e+00 0.000000000000000000e+00
0.000000000000000000e+00 -0.000000000000000000e+00 0.000000000000000000e+00
-2.401110674188910524e-05 1.527979519938409033e-05 1.228395147293482937e-05
-0.000000000000000000e+00 0.000000000000000000e+00 4.489274620447791797e-20
-0.000000000000000000e+00 0.000000000000000000e+00 3.769296615281636509e-20
-2.823703061953062996e-06 1.694221837171833647e-05 4.854655264267135353e-07
0.000000000000000000e+00 0.000000000000000000e+00 1.912843049100178752e-05
0.000000000000000000e+00 0.000000000000000000e+00 -2.710505431213761085e-20
0.000000000000000000e+00 -0.000000000000000000e+00 3.726944967918921492e-20
0.000000000000000000e+00 0.000000000000000000e+00 -1.445293387029994324e-05
0.000000000000000000e+00 0.000000000000000000e+00 -1.684136660672785500e-05
0.000000000000000000e+00 0.000000000000000000e+00 -1.662049861495846839e-05
0.000000000000000000e+00 -0.000000000000000000e+00 3.642241673193491458e-20
0.000000000000000000e+00 -0.000000000000000000e+00 -7.411538288475127967e-21
0.000000000000000000e+00 -0.000000000000000000e+00 -2.181109839179823373e-20
0.000000000000000000e+00 -0.000000000000000000e+00 -1.461131834013668085e-20
0.000000000000000000e+00 -0.000000000000000000e+00 2.541098841762901017e-20
-0.000000000000000000e+00 0.000000000000000000e+00 -2.181109839179823373e-20
-0.000000000000000000e+00 0.000000000000000000e+00 -1.016439536705160407e-20
0.000000000000000000e+00 0.000000000000000000e+00 -1.729651817485696735e-05
0.000000000000000000e+00 0.000000000000000000e+00 1.765010054582017308e-05
0.000000000000000000e+00 0.000000000000000000e+00 -1.839058440392237823e-05
4.254288280285435788e-05 0.000000000000000000e+00 -2.176057080263612623e-05
-1.896441784733951768e-04 -9.602236884728859181e-05 9.326878621122646840e-06
0.000000000000000000e+00 0.000000000000000000e+00 7.989763116007842008e-07
0.000000000000000000e+00 -0.000000000000000000e+00 -9.105604182983728645e-21
-0.000000000000000000e+00 0.000000000000000000e+00 0.000000000000000000e+00
-2.101418738586869153e-04 1.038348082595859785e-04 2.882691719755764805e-05
0.000000000000000000e+00 0.000000000000000000e+00 1.490668762919633954e-05
0.000000000000000000e+00 -0.000000000000000000e+00 3.769296615281636509e-20
-0.000000000000000000e+00 0.000000000000000000e+00 -1.335147392290115840e-05
9.248509648935592680e-06 -3.699403859573186751e-05 -2.912785966705438095e-05
-0.000000000000000000e+00 0.000000000000000000e+00 2.710505431213761085e-20
-0.000000000000000000e+00 0.000000000000000000e+00 1.355252715606880543e-20
-2.771998598714008636e-06 1.663199159228408993e-05 -5.447644304959475232e-07
0.000000000000000000e+00 -0.000000000000000000e+00 3.811648262644351526e-21
-0.000000000000000000e+00 0.000000000000000000e+00 -1.101142831430590441e-20
-0.000000000000000000e+00 0.000000000000000000e+00 3.642241673193491458e-20
-0.000000000000000000e+00 0.000000000000000000e+00 3.599890025830776441e-21
0.000000000000000000e+00 -0.000000000000000000e+00 1.821120836596745729e-20
0.000000000000000000e+00 0.000000000000000000e+00 1.640394719979491542e-05
0.000000000000000000e+00 0.000000000000000000e+00 1.651169040580487490e-05
0.000000000000000000e+00 -0.000000000000000000e+00 -1.016439536705160407e-20
0.000000000000000000e+00 -0.000000000000000000e+00 -1.101142831430590441e-20
-0.000000000000000000e+00 0.000000000000000000e+00 -1.101142831430590441e-20
0.000000000000000000e+00 0.000000000000000000e+00 1.777037345550464031e-05
0.000000000000000000e+00 0.000000000000000000e+00 1.839058440392237484e-05
3.925414500549405616e-05 2.616943000366258665e-05 -2.233847734938315744e-05
0.000000000000000000e+00 0.000000000000000000e+00 -4.958677685950451332e-06
0.000000000000000000e+00 -0.000000000000000000e+00 7.989763116007840949e-07
0.000000000000000000e+00 0.000000000000000000e+00 1.238785685359414246e-20
0.000000000000000000e+00 0.000000000000000000e+00 -3.070494433796838729e-21
0.000000000000000000e+00 0.000000000000000000e+00 1.397604362969595559e-20
0.000000000000000000e+00 0.000000000000000000e+00 0.000000000000000000e+00
2.832445176695970291e-06 -1.699467106017570316e-05 -1.182205059043388541e-06
4.921858669417389018e-05 -1.230464667354397399e-05 -3.671160425313944897e-05
-2.557117431259381166e-05 -5.682483180575984721e-06 -8.703771363618078232e-06
0.000000000000000000e+00 0.000000000000000000e+00 3.388131789017201356e-21
0.000000000000000000e+00 0.000000000000000000e+00 3.388131789017201356e-21
0.000000000000000000e+00 0.000000000000000000e+00 -1.376428539288238051e-20
0.000000000000000000e+00 0.000000000000000000e+00 -7.199780051661552882e-21
0.000000000000000000e+00 0.000000000000000000e+00 7.199780051661552882e-21
0.000000000000000000e+00 0.000000000000000000e+00 -1.461131834013668085e-20
0.000000000000000000e+00 0.000000000000000000e+00 0.000000000000000000e+00
0.000000000000000000e+00 0.000000000000000000e+00 2.159934015498465865e-20
0.000000000000000000e+00 0.000000000000000000e+00 -7.199780051661552882e-21
0.000000000000000000e+00 0.000000000000000000e+00 0.000000000000000000e+00
0.000000000000000000e+00 0.000000000000000000e+00 -1.058791184067875424e-21
0.000000000000000000e+00 0.000000000000000000e+00 1.695345525987572194e-05
0.000000000000000000e+00 0.000000000000000000e+00 1.729651817485694363e-05
0.000000000000000000e+00 0.000000000000000000e+00 -3.811648262644351526e-21
0.000000000000000000e+00 0.000000000000000000e+00 -6.172839506172876413e-06
-4.424440560859178325e-05 0.000000000000000000e+00 9.357573485667471542e-06
2.189029101210461988e-06 -4.378058202420923976e-06 -1.035984360733323462e-07
0.000000000000000000e+00 0.000000000000000000e+00 -7.989763116007840949e-07
0.000000000000000000e+00 -0.000000000000000000e+00 1.233491729439074869e-20
0.000000000000000000e+00 -0.000000000000000000e+00 -3.123433993000232500e-21
0.000000000000000000e+00 -0.000000000000000000e+00 1.397604362969595559e-20
0.000000000000000000e+00 -0.000000000000000000e+00 0.000000000000000000e+00
0.000000000000000000e+00 0.000000000000000000e+00 6.776263578034402713e-21
3.206508755517506362e-05 -1.068836251839216334e-05 9.170843668855800527e-06
2.806326427725531797e-05 1.122530571090185851e-05 9.912185056217612657e-06
-0.000000000000000000e+00 0.000000000000000000e+00 -3.388131789017201356e-21
-0.000000000000000000e+00 0.000000000000000000e+00 -3.388131789017201356e-21
-0.000000000000000000e+00 0.000000000000000000e+00 1.365840627447559297e-20
-0.000000000000000000e+00 0.000000000000000000e+00 7.411538288475127967e-21
-0.000000000000000000e+00 0.000000000000000000e+00 -7.305659170068340424e-21
-0.000000000000000000e+00 0.000000000000000000e+00 1.461131834013668085e-20
-0.000000000000000000e+00 0.000000000000000000e+00 0.000000000000000000e+00
0.000000000000000000e+00 -0.000000000000000000e+00 2.181109839179823373e-20
-0.000000000000000000e+00 0.000000000000000000e+00 7.305659170068340424e-21
-0.000000000000000000e+00 0.000000000000000000e+00 0.000000000000000000e+00
-0.000000000000000000e+00 0.000000000000000000e+00 9.529120656610878815e-22
0.000000000000000000e+00 0.000000000000000000e+00 -7.411538288475127967e-21
0.000000000000000000e+00 0.000000000000000000e+00 3.811648262644351526e-21
0.000000000000000000e+00 -0.000000000000000000e+00 -3.811648262644351526e-21
0.000000000000000000e+00 0.000000000000000000e+00 6.172839506172876413e-06
0.000000000000000000e+00 0.000000000000000000e+00 -7.949899073546820994e-06
2.182827885626286761e-06 -4.365655771252540487e-06 -1.033049560844529007e-07
0.000000000000000000e+00 0.000000000000000000e+00 0.000000000000000000e+00
-0.000000000000000000e+00 0.000000000000000000e+00 1.233491729439074869e-20
0.000000000000000000e+00 -0.000000000000000000e+00 0.000000000000000000e+00
0.000000000000000000e+00 0.000000000000000000e+00 -1.397604362969595559e-20
0.000000000000000000e+00 -0.000000000000000000e+00 0.000000000000000000e+00
-0.000000000000000000e+00 0.000000000000000000e+00 -6.776263578034402713e-21
-1.135533757258136770e-04 9.874206584853506400e-06 1.036131650862456776e-05
0.000000000000000000e+00 0.000000000000000000e+00 2.731681254895118593e-20
-0.000000000000000000e+00 0.000000000000000000e+00 1.355252715606880543e-20
-0.000000000000000000e+00 0.000000000000000000e+00 0.000000000000000000e+00
-0.000000000000000000e+00 0.000000000000000000e+00 -3.494010907423988899e-21
0.000000000000000000e+00 0.000000000000000000e+00 7.411538288475127967e-21
0.000000000000000000e+00 -0.000000000000000000e+00 -3.705769144237563983e-21
0.000000000000000000e+00 -0.000000000000000000e+00 2.911675756186657416e-20
0.000000000000000000e+00 -0.000000000000000000e+00 7.199780051661552882e-21
-0.000000000000000000e+00 0.000000000000000000e+00 1.450543922172989331e-20
0.000000000000000000e+00 -0.000000000000000000e+00 7.305659170068340424e-21
0.000000000000000000e+00 -0.000000000000000000e+00 0.000000000000000000e+00
-0.000000000000000000e+00 0.000000000000000000e+00 -3.705769144237563983e-21
0.000000000000000000e+00 -0.000000000000000000e+00 -7.411538288475127967e-21
0.000000000000000000e+00 -0.000000000000000000e+00 3.705769144237563983e-21
-0.000000000000000000e+00 0.000000000000000000e+00 0.000000000000000000e+00
0.000000000000000000e+00 0.000000000000000000e+00 0.000000000000000000e+00
0.000000000000000000e+00 0.000000000000000000e+00 7.949899073546820994e-06
2.170495524690473389e-06 -4.340991049380913743e-06 -1.027213122647580452e-07
0.000000000000000000e+00 -0.000000000000000000e+00 0.000000000000000000e+00
-0.000000000000000000e+00 0.000000000000000000e+00 1.545835128739098119e-20
-0.000000000000000000e+00 0.000000000000000000e+00 0.000000000000000000e+00
0.000000000000000000e+00 0.000000000000000000e+00 -3.599890025830776441e-21
0.000000000000000000e+00 0.000000000000000000e+00 0.000000000000000000e+00
-0.000000000000000000e+00 0.000000000000000000e+00 2.742269166735797348e-20
-9.006679594914855191e-05 9.480715363068146828e-06 -2.313015704019135414e-05
0.000000000000000000e+00 -0.000000000000000000e+00 2.731681254895118593e-20
0.000000000000000000e+00 0.000000000000000000e+00 1.355252715606880543e-20
0.000000000000000000e+00 -0.000000000000000000e+00 1.355252715606880543e-20
0.000000000000000000e+00 -0.000000000000000000e+00 0.000000000000000000e+00
0.000000000000000000e+00 0.000000000000000000e+00 3.663417496874848966e-20
0.000000000000000000e+00 -0.000000000000000000e+00 -3.599890025830776441e-21
-0.000000000000000000e+00 0.000000000000000000e+00 1.821120836596745729e-20
-0.000000000000000000e+00 0.000000000000000000e+00 3.705769144237563983e-21
0.000000000000000000e+00 -0.000000000000000000e+00 1.090554919589911687e-20
-0.000000000000000000e+00 0.000000000000000000e+00 7.199780051661552882e-21
0.000000000000000000e+00 -0.000000000000000000e+00 -3.705769144237563983e-21
0.000000000000000000e+00 0.000000000000000000e+00 -3.811648262644351526e-21
-0.000000000000000000e+00 0.000000000000000000e+00 -7.411538288475127967e-21
-0.000000000000000000e+00 0.000000000000000000e+00 1.122318655111947949e-20
-0.000000000000000000e+00 0.000000000000000000e+00 -3.811648262644351526e-21
-0.000000000000000000e+00 0.000000000000000000e+00 0.000000000000000000e+00
-4.488562052129616037e-06 8.977124104258908508e-06 1.524190857274527538e-07
2.164364181400371258e-06 -4.328728362800742515e-06 -1.024311390662718583e-07
0.000000000000000000e+00 -0.000000000000000000e+00 0.000000000000000000e+00
0.000000000000000000e+00 -0.000000000000000000e+00 1.545835128739098119e-20
0.000000000000000000e+00 0.000000000000000000e+00 0.000000000000000000e+00
0.000000000000000000e+00 -0.000000000000000000e+00 -3.494010907423988899e-21
0.000000000000000000e+00 0.000000000000000000e+00 -2.414043899674755966e-20
0.000000000000000000e+00 -0.000000000000000000e+00 2.403455987834077212e-20
4.620570670205726492e-06 -9.241141340412005250e-06 8.932279664595037193e-07
0.000000000000000000e+00 0.000000000000000000e+00 -2.731681254895118593e-20
0.000000000000000000e+00 0.000000000000000000e+00 3.388131789017201356e-21
-0.000000000000000000e+00 0.000000000000000000e+00 2.371692252312040949e-20
0.000000000000000000e+00 0.000000000000000000e+00 0.000000000000000000e+00
0.000000000000000000e+00 -0.000000000000000000e+00 3.663417496874848966e-20
-0.000000000000000000e+00 0.000000000000000000e+00 7.305659170068340424e-21
-0.000000000000000000e+00 0.000000000000000000e+00 -3.599890025830776441e-21
0.000000000000000000e+00 -0.000000000000000000e+00 3.705769144237563983e-21
-0.000000000000000000e+00 0.000000000000000000e+00 1.090554919589911687e-20
0.000000000000000000e+00 -0.000000000000000000e+00 7.199780051661552882e-21
-0.000000000000000000e+00 0.000000000000000000e+00 -5.399835038746164662e-21
0.000000000000000000e+00 0.000000000000000000e+00 -2.117582368135750848e-22
0.000000000000000000e+00 -0.000000000000000000e+00 -5.611593275559739746e-21
0.000000000000000000e+00 -0.000000000000000000e+00 1.122318655111947949e-20
0.000000000000000000e+00 0.000000000000000000e+00 -3.811648262644351526e-21
0.000000000000000000e+00 0.000000000000000000e+00 0.000000000000000000e+00
-4.521087864101282933e-06 9.042175728202240606e-06 1.535235718558893627e-07
2.152170580378421625e-06 -4.304341160756843249e-06 -1.018540622264676984e-07
-0.000000000000000000e+00 0.000000000000000000e+00 0.000000000000000000e+00
-0.000000000000000000e+00 0.000000000000000000e+00 -3.070494433796838729e-21
0.000000000000000000e+00 0.000000000000000000e+00 1.556423040579776873e-20
-0.000000000000000000e+00 0.000000000000000000e+00 -3.494010907423988899e-21
-0.000000000000000000e+00 0.000000000000000000e+00 2.403455987834077212e-20
-0.000000000000000000e+00 0.000000000000000000e+00 -3.388131789017201356e-21
0.000000000000000000e+00 0.000000000000000000e+00 -9.139834710744276897e-06
0.000000000000000000e+00 0.000000000000000000e+00 -3.049318610115481221e-20
-0.000000000000000000e+00 0.000000000000000000e+00 -3.388131789017201356e-21
0.000000000000000000e+00 -0.000000000000000000e+00 6.776263578034402713e-21
0.000000000000000000e+00 0.000000000000000000e+00 3.599890025830776441e-21
-0.000000000000000000e+00 0.000000000000000000e+00 3.303428494291771322e-20
0.000000000000000000e+00 -0.000000000000000000e+00 1.090554919589911687e-20
0.000000000000000000e+00 -0.000000000000000000e+00 0.000000000000000000e+00
-0.000000000000000000e+00 0.000000000000000000e+00 7.199780051661552882e-21
-0.000000000000000000e+00 0.000000000000000000e+00 0.000000000000000000e+00
-0.000000000000000000e+00 0.000000000000000000e+00 7.305659170068340424e-21
0.000000000000000000e+00 -0.000000000000000000e+00 0.000000000000000000e+00
-0.000000000000000000e+00 0.000000000000000000e+00 2.117582368135750848e-22
-0.000000000000000000e+00 0.000000000000000000e+00 -1.905824131322175763e-21
-0.000000000000000000e+00 0.000000000000000000e+00 3.705769144237563983e-21
0.000000000000000000e+00 0.000000000000000000e+00 1.524659305057740610e-20
0.000000000000000000e+00 0.000000000000000000e+00 -8.450290967773467461e-06
5.898709202401665821e-05 4.537468617231968600e-06 -1.294391782814184556e-05
0.000000000000000000e+00 0.000000000000000000e+00 9.317362419797303730e-21
0.000000000000000000e+00 -0.000000000000000000e+00 0.000000000000000000e+00
0.000000000000000000e+00 -0.000000000000000000e+00 -9.264422860593909959e-21
0.000000000000000000e+00 -0.000000000000000000e+00 1.551129084659437496e-20
0.000000000000000000e+00 0.000000000000000000e+00 -3.599890025830776441e-21
-0.000000000000000000e+00 0.000000000000000000e+00 2.752857078576476102e-20
-0.000000000000000000e+00 0.000000000000000000e+00 3.081082345637517483e-20
0.000000000000000000e+00 0.000000000000000000e+00 9.139834710744276897e-06
-0.000000000000000000e+00 0.000000000000000000e+00 3.059906521956159975e-20
0.000000000000000000e+00 -0.000000000000000000e+00 -3.388131789017201356e-21
-0.000000000000000000e+00 0.000000000000000000e+00 -3.388131789017201356e-21
-0.000000000000000000e+00 0.000000000000000000e+00 -3.494010907423988899e-21
0.000000000000000000e+00 -0.000000000000000000e+00 1.831708748437424483e-20
-0.000000000000000000e+00 0.000000000000000000e+00 1.821120836596745729e-20
-0.000000000000000000e+00 0.000000000000000000e+00 0.000000000000000000e+00
0.000000000000000000e+00 -0.000000000000000000e+00 0.000000000000000000e+00
0.000000000000000000e+00 -0.000000000000000000e+00 7.199780051661552882e-21
0.000000000000000000e+00 -0.000000000000000000e+00 7.305659170068340424e-21
-0.000000000000000000e+00 0.000000000000000000e+00 5.505714157152952204e-21
0.000000000000000000e+00 -0.000000000000000000e+00 -3.282252670610413814e-21
-0.000000000000000000e+00 0.000000000000000000e+00 -3.705769144237563983e-21
0.000000000000000000e+00 0.000000000000000000e+00 3.811648262644351526e-21
0.000000000000000000e+00 -0.000000000000000000e+00 1.524659305057740610e-20
-4.107093985636293395e-06 8.214187971272586791e-06 8.455781735133929380e-08
-8.131516293641283255e-20 -4.031876828930469614e-19 5.315131744020734628e-20
0.000000000000000000e+00 -0.000000000000000000e+00 9.423241538204091272e-21
-0.000000000000000000e+00 0.000000000000000000e+00 0.000000000000000000e+00
-0.000000000000000000e+00 0.000000000000000000e+00 3.070494433796838729e-21
0.000000000000000000e+00 -0.000000000000000000e+00 1.244079641279753623e-20
0.000000000000000000e+00 0.000000000000000000e+00 0.000000000000000000e+00
0.000000000000000000e+00 -0.000000000000000000e+00 2.752857078576476102e-20
0.000000000000000000e+00 -0.000000000000000000e+00 3.081082345637517483e-20
1.905824131322175763e-20 -6.437450399132682577e-19 -3.134021904840911255e-20
0.000000000000000000e+00 0.000000000000000000e+00 3.070494433796838729e-20
-0.000000000000000000e+00 0.000000000000000000e+00 -3.388131789017201356e-21
0.000000000000000000e+00 -0.000000000000000000e+00 1.355252715606880543e-20
0.000000000000000000e+00 -0.000000000000000000e+00 -3.494010907423988899e-21
0.000000000000000000e+00 -0.000000000000000000e+00 -7.305659170068340424e-21
0.000000000000000000e+00 -0.000000000000000000e+00 2.191697751020502127e-20
0.000000000000000000e+00 -0.000000000000000000e+00 0.000000000000000000e+00
0.000000000000000000e+00 -0.000000000000000000e+00 1.090554919589911687e-20
-0.000000000000000000e+00 0.000000000000000000e+00 3.705769144237563983e-21
-0.000000000000000000e+00 0.000000000000000000e+00 3.599890025830776441e-21
-0.000000000000000000e+00 0.000000000000000000e+00 -5.399835038746164662e-21
-0.000000000000000000e+00 0.000000000000000000e+00 2.117582368135750848e-22
0.000000000000000000e+00 -0.000000000000000000e+00 -7.411538288475127967e-21
0.000000000000000000e+00 0.000000000000000000e+00 1.122318655111947949e-20
-0.000000000000000000e+00 0.000000000000000000e+00 1.524659305057740610e-20
0.000000000000000000e+00 0.000000000000000000e+00 -7.835054762102278136e-21
-4.637434066812373598e-06 9.274868133624637081e-06 1.574743653703976065e-07
0.000000000000000000e+00 0.000000000000000000e+00 -9.423241538204091272e-21
0.000000000000000000e+00 0.000000000000000000e+00 0.000000000000000000e+00
0.000000000000000000e+00 -0.000000000000000000e+00 9.264422860593909959e-21
-0.000000000000000000e+00 0.000000000000000000e+00 2.170521927339144619e-20
-0.000000000000000000e+00 0.000000000000000000e+00 0.000000000000000000e+00
0.000000000000000000e+00 -0.000000000000000000e+00 -3.388131789017201356e-21
0.000000000000000000e+00 0.000000000000000000e+00 -3.091670257478196238e-20
4.521087864101282933e-06 -9.042175728202457447e-06 8.739963972581110270e-07
0.000000000000000000e+00 0.000000000000000000e+00 3.388131789017201356e-21
0.000000000000000000e+00 -0.000000000000000000e+00 -3.388131789017201356e-21
-0.000000000000000000e+00 0.000000000000000000e+00 1.694065894508600678e-20
