ply
            format ascii 1.0
            element vertex 27206
            property float x
            property float y
            property float z
            property float nx
            property float ny
            property float nz
end_header
-0.15216494845361 0.17113402061856 1.54226804123711 -0.00000000000000 0.00000000000000 -1.00000000000000
-0.13087179487179 0.17025641025641 1.53435897435897 0.00000000000000 0.00000000000000 1.00000000000000
-0.10951653944020 0.16895674300254 1.52264631043257 0.00000000000000 0.00000000000000 1.00000000000000
-0.08893401015228 0.16852791878173 1.51878172588832 nan nan nan
-0.06828282828283 0.16767676767677 1.51111111111111 0.00000000000000 0.00000000000000 -1.00000000000000
-0.04795969773300 0.16725440806045 1.50730478589421 0.00000000000000 0.00000000000000 1.00000000000000
-0.02773869346734 0.16683417085427 1.50351758793970 0.00000000000000 -0.00000000000000 1.00000000000000
-0.00765743073048 0.16725440806045 1.50730478589421 nan nan nan
0.01249370277078 0.16725440806045 1.50730478589421 0.00000000000000 0.00000000000000 1.00000000000000
0.03272727272727 0.16767676767677 1.51111111111111 nan nan nan
0.05292929292929 0.16767676767677 1.51111111111111 0.00000000000000 -0.00000000000000 1.00000000000000
0.07313131313131 0.16767676767677 1.51111111111111 0.00000000000000 0.00000000000000 -1.00000000000000
0.09356962025316 0.16810126582278 1.51493670886076 -0.00000000000000 0.00000000000000 -1.00000000000000
0.11411167512690 0.16852791878173 1.51878172588832 0.44625305531540 -0.89250611063072 0.06550613031234
0.13441624365482 0.16852791878173 1.51878172588832 -0.00000000000000 0.00000000000000 -1.00000000000000
0.15355163727960 0.16725440806045 1.50730478589421 -0.00000000000000 0.00000000000000 1.00000000000000
0.17197007481297 0.16558603491272 1.49226932668329 -0.00000000000000 0.00000000000000 -1.00000000000000
0.19144278606965 0.16517412935323 1.48855721393035 0.00000000000000 0.00000000000000 1.00000000000000
0.21029702970297 0.16435643564356 1.48118811881188 nan nan nan
0.22953086419753 0.16395061728395 1.47753086419753 0.00000000000000 0.00000000000000 -1.00000000000000
-0.26047493403694 0.17562005277045 1.57889182058047 0.44064818076185 -0.88129636152364 0.17072171495293
-0.23873684210526 0.17515789473684 1.57473684210526 0.44108435216148 -0.88216870432300 0.16499385258660
-0.21825857519789 0.17562005277045 1.57889182058047 0.44150643871977 -0.88301287743956 0.15924924754892
-0.19560209424084 0.17424083769634 1.56649214659686 0.00000000000000 -0.00000000000000 1.00000000000000
-0.17284974093264 0.17243523316062 1.55025906735751 0.00000000000000 0.00000000000000 1.00000000000000
-0.15134020618557 0.17154639175258 1.54226804123711 0.00000000000000 0.00000000000000 -1.00000000000000
-0.12971867007673 0.17023017902813 1.53043478260870 nan nan nan
-0.10870229007634 0.16936386768448 1.52264631043257 -0.00000000000000 0.00000000000000 -1.00000000000000
-0.08789873417722 0.16850632911392 1.51493670886076 0.00000000000000 0.00000000000000 -1.00000000000000
-0.06747474747475 0.16808080808081 1.51111111111111 -0.00000000000000 0.00000000000000 1.00000000000000
-0.04715365239295 0.16765743073048 1.50730478589421 0.00000000000000 -0.00000000000000 1.00000000000000
-0.02693467336683 0.16723618090452 1.50351758793970 0.00000000000000 0.00000000000000 -1.00000000000000
-0.00685138539043 0.16765743073048 1.50730478589421 nan nan nan
0.01329974811083 0.16765743073048 1.50730478589421 0.00000000000000 -0.00000000000000 1.00000000000000
0.03345088161209 0.16765743073048 1.50730478589421 0.00000000000000 0.00000000000000 1.00000000000000
0.05373737373737 0.16808080808081 1.51111111111111 -0.00000000000000 0.00000000000000 1.00000000000000
0.07393939393939 0.16808080808081 1.51111111111111 -0.00000000000000 0.00000000000000 1.00000000000000
0.09437974683544 0.16850632911392 1.51493670886076 0.00000000000000 0.00000000000000 -1.00000000000000
0.11492385786802 0.16893401015228 1.51878172588832 0.44625305531540 -0.89250611063072 0.06550613031234
0.13522842639594 0.16893401015228 1.51878172588832 0.00000000000000 0.00000000000000 -1.00000000000000
0.15435768261965 0.16765743073048 1.50730478589421 0.00000000000000 0.00000000000000 1.00000000000000
0.17276807980050 0.16598503740648 1.49226932668329 -0.00000000000000 0.00000000000000 1.00000000000000
0.19176178660050 0.16516129032258 1.48486352357320 0.00000000000000 0.00000000000000 1.00000000000000
0.21108910891089 0.16475247524752 1.48118811881188 nan nan nan
0.23032098765432 0.16434567901235 1.47753086419753 0.00000000000000 -0.00000000000000 -1.00000000000000
-0.25894736842105 0.17557894736842 1.57473684210526 0.44064818076180 -0.88129636152367 0.17072171495291
-0.23727034120735 0.17511811023622 1.57060367454068 0.44108435216148 -0.88216870432300 0.16499385258660
-0.21741424802111 0.17604221635884 1.57889182058047 0.44150643871977 -0.88301287743956 0.15924924754893
-0.19476439790576 0.17465968586387 1.56649214659686 0.00000000000000 0.00000000000000 -1.00000000000000
-0.17202072538860 0.17284974093264 1.55025906735751 -0.00000000000000 0.00000000000000 -1.00000000000000
-0.15012853470437 0.17151670951157 1.53830334190231 0.00000000000000 0.00000000000000 1.00000000000000
-0.12890025575448 0.17063938618926 1.53043478260870 nan nan nan
-0.10788804071247 0.16977099236641 1.52264631043257 0.00000000000000 -0.00000000000000 1.00000000000000
-0.08708860759494 0.16891139240506 1.51493670886076 0.00000000000000 -0.00000000000000 -1.00000000000000
-0.06666666666667 0.16848484848485 1.51111111111111 0.00000000000000 -0.00000000000000 -1.00000000000000
-0.04634760705290 0.16806045340050 1.50730478589421 -0.00000000000000 0.00000000000000 -1.00000000000000
-0.02606516290727 0.16721804511278 1.49974937343358 0.00000000000000 0.00000000000000 -1.00000000000000
-0.00604534005038 0.16806045340050 1.50730478589421 -0.00000000000000 0.00000000000000 -1.00000000000000
0.01410579345088 0.16806045340050 1.50730478589421 -0.00000000000000 0.00000000000000 -1.00000000000000
0.03425692695214 0.16806045340050 1.50730478589421 -0.00000000000000 0.00000000000000 -1.00000000000000
0.05454545454545 0.16848484848485 1.51111111111111 0.00000000000000 -0.00000000000000 -1.00000000000000
0.07474747474747 0.16848484848485 1.51111111111111 0.00000000000000 -0.00000000000000 -1.00000000000000
0.09494949494949 0.16848484848485 1.51111111111111 0.00000000000000 0.00000000000000 1.00000000000000
0.11544303797468 0.16891139240506 1.51493670886076 0.44625305531534 -0.89250611063075 0.06550613031233
0.13569620253165 0.16891139240506 1.51493670886076 0.00000000000000 0.00000000000000 1.00000000000000
0.15477386934673 0.16763819095477 1.50351758793970 0.00000000000000 0.00000000000000 1.00000000000000
0.17356608478803 0.16638403990025 1.49226932668329 0.00000000000000 -0.00000000000000 -1.00000000000000
0.19255583126551 0.16555831265509 1.48486352357320 -0.00000000000000 0.00000000000000 -1.00000000000000
0.21188118811881 0.16514851485149 1.48118811881188 -0.00000000000000 0.00000000000000 1.00000000000000
0.23111111111111 0.16474074074074 1.47753086419753 0.00000000000000 -0.00000000000000 1.00000000000000
-0.25810526315789 0.17600000000000 1.57473684210526 0.44064818076181 -0.88129636152367 0.17072171495289
-0.23643044619423 0.17553805774278 1.57060367454068 0.44108435216148 -0.88216870432300 0.16499385258661
-0.21600000000000 0.17600000000000 1.57473684210526 0.81797330398754 -0.50054809190005 0.28349829216226
-0.19342036553525 0.17462140992167 1.56240208877285 0.44191431401815 -0.88382862803630 0.15348842083144
-0.17119170984456 0.17326424870466 1.55025906735751 0.00000000000000 0.00000000000000 -1.00000000000000
-0.14930591259640 0.17192802056555 1.53830334190231 -0.00000000000000 0.00000000000000 -1.00000000000000
-0.12808184143223 0.17104859335038 1.53043478260870 nan nan nan
-0.10707379134860 0.17017811704835 1.52264631043257 0.00000000000000 0.00000000000000 -1.00000000000000
-0.08627848101266 0.16931645569620 1.51493670886076 -0.00000000000000 0.00000000000000 -1.00000000000000
-0.06585858585859 0.16888888888889 1.51111111111111 0.00000000000000 0.00000000000000 1.00000000000000
-0.04554156171285 0.16846347607053 1.50730478589421 0.00000000000000 0.00000000000000 -1.00000000000000
-0.02526315789474 0.16761904761905 1.49974937343358 0.00000000000000 -0.00000000000000 -1.00000000000000
-0.00523929471033 0.16846347607053 1.50730478589421 0.00000000000000 0.00000000000000 -1.00000000000000
0.01491183879093 0.16846347607053 1.50730478589421 0.00000000000000 0.00000000000000 -1.00000000000000
0.03506297229219 0.16846347607053 1.50730478589421 0.00000000000000 -0.00000000000000 -1.00000000000000
0.05535353535354 0.16888888888889 1.51111111111111 0.00000000000000 0.00000000000000 1.00000000000000
0.07555555555556 0.16888888888889 1.51111111111111 -0.00000000000000 0.00000000000000 -1.00000000000000
0.09575757575758 0.16888888888889 1.51111111111111 -0.00000000000000 0.00000000000000 -1.00000000000000
0.11625316455696 0.16931645569620 1.51493670886076 0.44625305531534 -0.89250611063075 0.06550613031233
0.13650632911392 0.16931645569620 1.51493670886076 -0.00000000000000 0.00000000000000 -1.00000000000000
0.15557788944724 0.16804020100503 1.50351758793970 0.00000000000000 -0.00000000000000 1.00000000000000
0.17436408977556 0.16678304239401 1.49226932668329 0.00000000000000 0.00000000000000 1.00000000000000
0.19334987593052 0.16595533498759 1.48486352357320 0.00000000000000 -0.00000000000000 -1.00000000000000
0.21267326732673 0.16554455445545 1.48118811881188 0.00000000000000 0.00000000000000 1.00000000000000
0.23190123456790 0.16513580246914 1.47753086419753 -0.00000000000000 0.00000000000000 -1.00000000000000
-0.25658792650919 0.17595800524934 1.57060367454068 0.00000000000000 0.00000000000000 1.00000000000000
-0.23497382198953 0.17549738219895 1.56649214659686 0.44108435216148 -0.88216870432300 0.16499385258661
-0.21459317585302 0.17595800524934 1.57060367454068 0.44150643871977 -0.88301287743956 0.15924924754891
-0.19258485639687 0.17503916449086 1.56240208877285 0.44191431401815 -0.88382862803630 0.15348842083144
-0.16992248062016 0.17322997416021 1.54625322997416 0.44230785527384 -0.88461571054768 0.14771190140027
-0.14848329048843 0.17233933161954 1.53830334190231 0.00000000000000 0.00000000000000 -1.00000000000000
-0.12693877551020 0.17102040816327 1.52653061224490 0.00000000000000 0.00000000000000 -1.00000000000000
-0.10598984771574 0.17015228426396 1.51878172588832 nan nan nan
-0.08546835443038 0.16972151898734 1.51493670886076 0.00000000000000 0.00000000000000 -1.00000000000000
-0.06488664987406 0.16886649874055 1.50730478589421 0.00000000000000 0.00000000000000 -1.00000000000000
-0.04462311557789 0.16844221105528 1.50351758793970 0.00000000000000 0.00000000000000 -1.00000000000000
-0.02446115288221 0.16802005012531 1.49974937343358 -0.00000000000000 0.00000000000000 -1.00000000000000
-0.00442211055276 0.16844221105528 1.50351758793970 0.00000000000000 0.00000000000000 -1.00000000000000
0.01567839195980 0.16844221105528 1.50351758793970 0.00000000000000 0.00000000000000 -1.00000000000000
0.03586901763224 0.16886649874055 1.50730478589421 -0.00000000000000 0.00000000000000 -1.00000000000000
0.05602015113350 0.16886649874055 1.50730478589421 0.00000000000000 0.00000000000000 -1.00000000000000
0.07636363636364 0.16929292929293 1.51111111111111 0.00000000000000 -0.00000000000000 -1.00000000000000
0.09656565656566 0.16929292929293 1.51111111111111 0.00000000000000 -0.00000000000000 -1.00000000000000
0.11676767676768 0.16929292929293 1.51111111111111 0.00000000000000 0.00000000000000 1.00000000000000
0.13731645569620 0.16972151898734 1.51493670886076 0.00000000000000 -0.00000000000000 1.00000000000000
0.15638190954774 0.16844221105528 1.50351758793970 0.00000000000000 -0.00000000000000 1.00000000000000
0.17472636815920 0.16676616915423 1.48855721393035 0.00000000000000 0.00000000000000 1.00000000000000
0.19414392059553 0.16635235732010 1.48486352357320 nan nan nan
0.21293827160494 0.16553086419753 1.47753086419753 0.00000000000000 0.00000000000000 -1.00000000000000
0.23269135802469 0.16553086419753 1.47753086419753 -0.00000000000000 0.00000000000000 1.00000000000000
-0.25574803149606 0.17637795275591 1.57060367454068 0.00000000000000 -0.00000000000000 1.00000000000000
-0.23413612565445 0.17591623036649 1.56649214659686 0.44108435216148 -0.88216870432300 0.16499385258661
-0.21375328083990 0.17637795275591 1.57060367454068 0.44150643871977 -0.88301287743956 0.15924924754892
-0.19125000000000 0.17500000000000 1.55833333333333 0.44191431401818 -0.88382862803629 0.15348842083145
-0.16909560723514 0.17364341085271 1.54625322997416 0.44230785527384 -0.88461571054768 0.14771190140027
-0.14728205128205 0.17230769230769 1.53435897435897 nan nan nan
-0.12612244897959 0.17142857142857 1.52653061224490 0.00000000000000 -0.00000000000000 -1.00000000000000
-0.10517766497462 0.17055837563452 1.51878172588832 nan nan nan
-0.08444444444444 0.16969696969697 1.51111111111111 0.00000000000000 0.00000000000000 -1.00000000000000
-0.06408060453401 0.16926952141058 1.50730478589421 0.00000000000000 -0.00000000000000 -1.00000000000000
-0.04381909547739 0.16884422110553 1.50351758793970 0.00000000000000 -0.00000000000000 -1.00000000000000
-0.02365914786967 0.16842105263158 1.49974937343358 0.00000000000000 0.00000000000000 -1.00000000000000
-0.00361809045226 0.16884422110553 1.50351758793970 0.00000000000000 -0.00000000000000 -1.00000000000000
0.01648241206030 0.16884422110553 1.50351758793970 0.00000000000000 -0.00000000000000 -1.00000000000000
0.03667506297229 0.16926952141058 1.50730478589421 0.00000000000000 0.00000000000000 -1.00000000000000
0.05682619647355 0.16926952141058 1.50730478589421 0.00000000000000 -0.00000000000000 -1.00000000000000
0.07717171717172 0.16969696969697 1.51111111111111 0.00000000000000 0.00000000000000 1.00000000000000
0.09737373737374 0.16969696969697 1.51111111111111 -0.00000000000000 0.00000000000000 -1.00000000000000
0.11757575757576 0.16969696969697 1.51111111111111 -0.00000000000000 0.00000000000000 -1.00000000000000
0.13812658227848 0.17012658227848 1.51493670886076 0.00000000000000 0.00000000000000 -1.00000000000000
0.15718592964824 0.16884422110553 1.50351758793970 0.00000000000000 0.00000000000000 -1.00000000000000
0.17552238805970 0.16716417910448 1.48855721393035 -0.00000000000000 0.00000000000000 -1.00000000000000
0.19493796526055 0.16674937965261 1.48486352357320 0.00000000000000 -0.00000000000000 -1.00000000000000
0.21372839506173 0.16592592592593 1.47753086419753 -0.00000000000000 0.00000000000000 1.00000000000000
0.23348148148148 0.16592592592593 1.47753086419753 0.00000000000000 0.00000000000000 1.00000000000000
-0.25490813648294 0.17679790026247 1.57060367454068 -0.00000000000000 0.00000000000000 1.00000000000000
-0.23268929503916 0.17587467362924 1.56240208877285 0.44108435216149 -0.88216870432299 0.16499385258661
-0.21235602094241 0.17633507853403 1.56649214659686 0.44150643871979 -0.88301287743955 0.15924924754893
-0.19041666666667 0.17541666666667 1.55833333333333 0.44191431401818 -0.88382862803629 0.15348842083145
-0.16783505154639 0.17360824742268 1.54226804123711 0.00000000000000 0.00000000000000 -1.00000000000000
-0.14646153846154 0.17271794871795 1.53435897435897 nan nan nan
-0.12530612244898 0.17183673469388 1.52653061224490 0.00000000000000 0.00000000000000 1.00000000000000
-0.10436548223350 0.17096446700508 1.51878172588832 -0.00000000000000 0.00000000000000 -1.00000000000000
-0.08363636363636 0.17010101010101 1.51111111111111 0.00000000000000 -0.00000000000000 -1.00000000000000
-0.06327455919395 0.16967254408060 1.50730478589421 0.00000000000000 -0.00000000000000 1.00000000000000
-0.04301507537688 0.16924623115578 1.50351758793970 0.00000000000000 0.00000000000000 1.00000000000000
-0.02280000000000 0.16840000000000 1.49600000000000 0.00000000000000 0.00000000000000 1.00000000000000
-0.00281407035176 0.16924623115578 1.50351758793970 -0.00000000000000 0.00000000000000 -1.00000000000000
0.01728643216080 0.16924623115578 1.50351758793970 -0.00000000000000 0.00000000000000 -1.00000000000000
0.03738693467337 0.16924623115578 1.50351758793970 0.00000000000000 0.00000000000000 1.00000000000000
0.05763224181360 0.16967254408060 1.50730478589421 -0.00000000000000 0.00000000000000 1.00000000000000
0.07778337531486 0.16967254408060 1.50730478589421 0.00000000000000 0.00000000000000 1.00000000000000
0.09818181818182 0.17010101010101 1.51111111111111 0.00000000000000 0.00000000000000 -1.00000000000000
0.11838383838384 0.17010101010101 1.51111111111111 0.00000000000000 -0.00000000000000 -1.00000000000000
0.13858585858586 0.17010101010101 1.51111111111111 0.00000000000000 0.00000000000000 1.00000000000000
0.15759398496241 0.16882205513784 1.49974937343358 0.00000000000000 0.00000000000000 -1.00000000000000
0.17631840796020 0.16756218905473 1.48855721393035 0.00000000000000 -0.00000000000000 -1.00000000000000
0.19573200992556 0.16714640198511 1.48486352357320 -0.00000000000000 0.00000000000000 -1.00000000000000
0.21451851851852 0.16632098765432 1.47753086419753 0.00000000000000 -0.00000000000000 1.00000000000000
0.23369458128079 0.16591133004926 1.47389162561576 0.00000000000000 0.00000000000000 1.00000000000000
-0.25406824146982 0.17721784776903 1.57060367454068 0.00000000000000 0.00000000000000 1.00000000000000
-0.23185378590078 0.17629242819843 1.56240208877285 0.44108435216149 -0.88216870432299 0.16499385258662
-0.21151832460733 0.17675392670157 1.56649214659686 0.44150643871979 -0.88301287743955 0.15924924754893
-0.18909090909091 0.17537662337662 1.55428571428571 0.44191431401814 -0.88382862803631 0.15348842083143
-0.16701030927835 0.17402061855670 1.54226804123711 0.00000000000000 -0.00000000000000 -1.00000000000000
-0.14564102564103 0.17312820512821 1.53435897435897 nan nan nan
-0.12417302798982 0.17180661577608 1.52264631043257 0.00000000000000 0.00000000000000 1.00000000000000
-0.10355329949239 0.17137055837563 1.51878172588832 0.00000000000000 -0.00000000000000 1.00000000000000
-0.08282828282828 0.17050505050505 1.51111111111111 -0.00000000000000 0.00000000000000 -1.00000000000000
-0.06246851385390 0.17007556675063 1.50730478589421 0.00000000000000 0.00000000000000 -1.00000000000000
-0.04210526315789 0.16922305764411 1.49974937343358 0.00000000000000 0.00000000000000 1.00000000000000
-0.02200000000000 0.16880000000000 1.49600000000000 0.00000000000000 -0.00000000000000 1.00000000000000
-0.00201005025126 0.16964824120603 1.50351758793970 -0.00000000000000 0.00000000000000 -1.00000000000000
0.01809045226131 0.16964824120603 1.50351758793970 -0.00000000000000 0.00000000000000 -1.00000000000000
0.03819095477387 0.16964824120603 1.50351758793970 -0.00000000000000 0.00000000000000 -1.00000000000000
0.05843828715365 0.17007556675063 1.50730478589421 -0.00000000000000 0.00000000000000 -1.00000000000000
0.07858942065491 0.17007556675063 1.50730478589421 -0.00000000000000 0.00000000000000 -1.00000000000000
0.09874055415617 0.17007556675063 1.50730478589421 0.00000000000000 0.00000000000000 1.00000000000000
0.11919191919192 0.17050505050505 1.51111111111111 0.00000000000000 0.00000000000000 1.00000000000000
0.13939393939394 0.17050505050505 1.51111111111111 0.00000000000000 -0.00000000000000 1.00000000000000
0.15839598997494 0.16922305764411 1.49974937343358 0.00000000000000 -0.00000000000000 -1.00000000000000
0.17711442786070 0.16796019900498 1.48855721393035 -0.00000000000000 0.00000000000000 -1.00000000000000
0.19652605459057 0.16754342431762 1.48486352357320 0.00000000000000 0.00000000000000 -1.00000000000000
0.21530864197531 0.16671604938272 1.47753086419753 -0.00000000000000 0.00000000000000 1.00000000000000
0.23448275862069 0.16630541871921 1.47389162561576 0.00000000000000 -0.00000000000000 1.00000000000000
-0.25256544502618 0.17717277486911 1.56649214659686 nan nan nan
-0.23041666666667 0.17625000000000 1.55833333333333 0.44108435216151 -0.88216870432298 0.16499385258662
-0.21013054830287 0.17671018276762 1.56240208877285 0.44150643871975 -0.88301287743957 0.15924924754892
-0.18825974025974 0.17579220779221 1.55428571428571 0.44191431401814 -0.88382862803631 0.15348842083143
-0.16618556701031 0.17443298969072 1.54226804123711 0.00000000000000 0.00000000000000 1.00000000000000
-0.14445012787724 0.17309462915601 1.53043478260870 0.00000000000000 0.00000000000000 -1.00000000000000
-0.12335877862595 0.17221374045802 1.52264631043257 0.00000000000000 -0.00000000000000 1.00000000000000
-0.10274111675127 0.17177664974619 1.51878172588832 0.00000000000000 0.00000000000000 -1.00000000000000
-0.08202020202020 0.17090909090909 1.51111111111111 0.00000000000000 -0.00000000000000 1.00000000000000
-0.06150753768844 0.17005025125628 1.50351758793970 0.00000000000000 0.00000000000000 1.00000000000000
-0.04130325814536 0.16962406015038 1.49974937343358 0.00000000000000 -0.00000000000000 1.00000000000000
-0.02120000000000 0.16920000000000 1.49600000000000 -0.00000000000000 0.00000000000000 -1.00000000000000
-0.00120603015075 0.17005025125628 1.50351758793970 0.00000000000000 -0.00000000000000 -1.00000000000000
0.01889447236181 0.17005025125628 1.50351758793970 0.00000000000000 -0.00000000000000 -1.00000000000000
0.03899497487437 0.17005025125628 1.50351758793970 0.00000000000000 -0.00000000000000 -1.00000000000000
0.05924433249370 0.17047858942065 1.50730478589421 nan nan nan
0.07939546599496 0.17047858942065 1.50730478589421 0.00000000000000 -0.00000000000000 1.00000000000000
0.09954659949622 0.17047858942065 1.50730478589421 0.00000000000000 -0.00000000000000 1.00000000000000
0.11969773299748 0.17047858942065 1.50730478589421 0.00000000000000 0.00000000000000 -1.00000000000000
0.14020202020202 0.17090909090909 1.51111111111111 -0.00000000000000 0.00000000000000 1.00000000000000
0.15919799498747 0.16962406015038 1.49974937343358 0.00000000000000 0.00000000000000 1.00000000000000
0.17791044776119 0.16835820895522 1.48855721393035 nan nan nan
0.19683168316832 0.16752475247525 1.48118811881188 0.00000000000000 0.00000000000000 -1.00000000000000
0.21609876543210 0.16711111111111 1.47753086419753 nan nan nan
0.23527093596059 0.16669950738916 1.47389162561576 0.00000000000000 -0.00000000000000 -1.00000000000000
-0.25172774869110 0.17759162303665 1.56649214659686 nan nan nan
-0.22958333333333 0.17666666666667 1.55833333333333 0.44108435216151 -0.88216870432298 0.16499385258662
-0.20929503916449 0.17712793733681 1.56240208877285 0.44150643871975 -0.88301287743957 0.15924924754892
-0.18694300518135 0.17575129533679 1.55025906735751 0.00000000000000 0.00000000000000 1.00000000000000
-0.16493573264781 0.17439588688946 1.53830334190231 0.44230785527384 -0.88461571054768 0.14771190140027
-0.14363171355499 0.17350383631714 1.53043478260870 0.00000000000000 -0.00000000000000 -1.00000000000000
-0.12254452926209 0.17262086513995 1.52264631043257 -0.00000000000000 0.00000000000000 1.00000000000000
-0.10167088607595 0.17174683544304 1.51493670886076 0.00000000000000 0.00000000000000 -1.00000000000000
-0.08121212121212 0.17131313131313 1.51111111111111 0.00000000000000 0.00000000000000 -1.00000000000000
-0.06070351758794 0.17045226130653 1.50351758793970 -0.00000000000000 0.00000000000000 -1.00000000000000
-0.04050125313283 0.17002506265664 1.49974937343358 0.00000000000000 0.00000000000000 -1.00000000000000
-0.02040000000000 0.16960000000000 1.49600000000000 0.00000000000000 0.00000000000000 -1.00000000000000
-0.00040201005025 0.17045226130653 1.50351758793970 0.00000000000000 0.00000000000000 1.00000000000000
0.01969849246231 0.17045226130653 1.50351758793970 -0.00000000000000 0.00000000000000 -1.00000000000000
0.03979899497487 0.17045226130653 1.50351758793970 -0.00000000000000 0.00000000000000 -1.00000000000000
0.06005037783375 0.17088161209068 1.50730478589421 0.00000000000000 -0.00000000000000 -1.00000000000000
0.08020151133501 0.17088161209068 1.50730478589421 0.00000000000000 -0.00000000000000 -1.00000000000000
0.10035264483627 0.17088161209068 1.50730478589421 0.00000000000000 -0.00000000000000 -1.00000000000000
0.12050377833753 0.17088161209068 1.50730478589421 0.00000000000000 -0.00000000000000 -1.00000000000000
0.14101010101010 0.17131313131313 1.51111111111111 nan nan nan
0.15960000000000 0.16960000000000 1.49600000000000 0.00000000000000 0.00000000000000 1.00000000000000
0.17870646766169 0.16875621890547 1.48855721393035 0.00000000000000 -0.00000000000000 -1.00000000000000
0.19762376237624 0.16792079207921 1.48118811881188 0.00000000000000 -0.00000000000000 -1.00000000000000
0.21688888888889 0.16750617283951 1.47753086419753 nan nan nan
0.23605911330049 0.16709359605911 1.47389162561576 -0.00000000000000 0.00000000000000 -1.00000000000000
-0.25089005235602 0.17801047120419 1.56649214659686 nan nan nan
-0.22815584415584 0.17662337662338 1.55428571428571 0.44108435216148 -0.88216870432300 0.16499385258661
-0.20791666666667 0.17708333333333 1.55833333333333 -0.11767976698725 0.99175512379647 -0.05072718073463
-0.18611398963731 0.17616580310881 1.55025906735751 -0.00000000000000 0.00000000000000 -1.00000000000000
-0.16411311053985 0.17480719794344 1.53830334190231 0.44230785527384 -0.88461571054768 0.14771190140028
-0.14281329923274 0.17391304347826 1.53043478260870 0.00000000000000 0.00000000000000 1.00000000000000
-0.12173027989822 0.17302798982188 1.52264631043257 0.00000000000000 -0.00000000000000 -1.00000000000000
-0.10086075949367 0.17215189873418 1.51493670886076 -0.00000000000000 0.00000000000000 1.00000000000000
-0.08020151133501 0.17128463476071 1.50730478589421 0.00000000000000 0.00000000000000 -1.00000000000000
-0.05989949748744 0.17085427135678 1.50351758793970 0.00000000000000 -0.00000000000000 -1.00000000000000
-0.03960000000000 0.17000000000000 1.49600000000000 0.00000000000000 0.00000000000000 -1.00000000000000
-0.01955112219451 0.16957605985037 1.49226932668329 0.00000000000000 0.00000000000000 -1.00000000000000
0.00040100250627 0.17042606516291 1.49974937343358 0.00000000000000 0.00000000000000 1.00000000000000
0.02050251256281 0.17085427135678 1.50351758793970 0.00000000000000 -0.00000000000000 -1.00000000000000
0.04060301507538 0.17085427135678 1.50351758793970 0.00000000000000 -0.00000000000000 -1.00000000000000
0.06085642317380 0.17128463476071 1.50730478589421 0.00000000000000 0.00000000000000 1.00000000000000
0.08100755667506 0.17128463476071 1.50730478589421 -0.00000000000000 0.00000000000000 -1.00000000000000
0.10115869017632 0.17128463476071 1.50730478589421 -0.00000000000000 0.00000000000000 -1.00000000000000
0.12130982367758 0.17128463476071 1.50730478589421 -0.00000000000000 0.00000000000000 -1.00000000000000
0.14181818181818 0.17171717171717 1.51111111111111 nan nan nan
0.16040000000000 0.17000000000000 1.49600000000000 -0.00000000000000 0.00000000000000 -1.00000000000000
0.17950248756219 0.16915422885572 1.48855721393035 0.00000000000000 -0.00000000000000 1.00000000000000
0.19841584158416 0.16831683168317 1.48118811881188 -0.00000000000000 0.00000000000000 -1.00000000000000
0.21767901234568 0.16790123456790 1.47753086419753 nan nan nan
0.23684729064039 0.16748768472906 1.47389162561576 -0.00000000000000 0.00000000000000 1.00000000000000
-0.24939947780679 0.17796344647520 1.56240208877285 0.44064818076183 -0.88129636152365 0.17072171495291
-0.22732467532468 0.17703896103896 1.55428571428571 0.44108435216148 -0.88216870432300 0.16499385258661
-0.20654545454545 0.17703896103896 1.55428571428571 -0.27160558583692 -0.95895190693769 -0.08149629392039
-0.18528497409326 0.17658031088083 1.55025906735751 0.00000000000000 0.00000000000000 -1.00000000000000
-0.16287179487179 0.17476923076923 1.53435897435897 0.00000000000000 0.00000000000000 -1.00000000000000
-0.14163265306122 0.17387755102041 1.52653061224490 0.00000000000000 0.00000000000000 -1.00000000000000
-0.12091603053435 0.17343511450382 1.52264631043257 0.00000000000000 0.00000000000000 1.00000000000000
-0.10005063291139 0.17255696202532 1.51493670886076 nan nan nan
-0.07939546599496 0.17168765743073 1.50730478589421 -0.00000000000000 0.00000000000000 1.00000000000000
-0.05909547738693 0.17125628140704 1.50351758793970 0.00000000000000 0.00000000000000 1.00000000000000
-0.03880000000000 0.17040000000000 1.49600000000000 0.00000000000000 -0.00000000000000 -1.00000000000000
-0.01875311720698 0.16997506234414 1.49226932668329 -0.00000000000000 0.00000000000000 1.00000000000000
0.00120300751880 0.17082706766917 1.49974937343358 -0.00000000000000 0.00000000000000 -1.00000000000000
0.02130653266332 0.17125628140704 1.50351758793970 0.00000000000000 0.00000000000000 1.00000000000000
0.04140703517588 0.17125628140704 1.50351758793970 0.00000000000000 -0.00000000000000 1.00000000000000
0.06150753768844 0.17125628140704 1.50351758793970 0.00000000000000 0.00000000000000 1.00000000000000
0.08181360201511 0.17168765743073 1.50730478589421 0.00000000000000 0.00000000000000 -1.00000000000000
0.10196473551637 0.17168765743073 1.50730478589421 0.00000000000000 0.00000000000000 -1.00000000000000
0.12211586901763 0.17168765743073 1.50730478589421 nan nan nan
0.14262626262626 0.17212121212121 1.51111111111111 nan nan nan
0.16120000000000 0.17040000000000 1.49600000000000 0.00000000000000 0.00000000000000 -1.00000000000000
0.18029850746269 0.16955223880597 1.48855721393035 0.00000000000000 0.00000000000000 -1.00000000000000
0.19920792079208 0.16871287128713 1.48118811881188 0.00000000000000 -0.00000000000000 -1.00000000000000
0.21793103448276 0.16788177339901 1.47389162561576 nan nan nan
0.23763546798030 0.16788177339901 1.47389162561576 0.00000000000000 -0.00000000000000 1.00000000000000
-0.24856396866841 0.17838120104439 1.56240208877285 0.44064818076183 -0.88129636152365 0.17072171495291
-0.22590673575130 0.17699481865285 1.55025906735751 0.00000000000000 0.00000000000000 1.00000000000000
-0.20518134715026 0.17699481865285 1.55025906735751 0.44150643871978 -0.88301287743955 0.15924924754893
-0.18397932816537 0.17653746770026 1.54625322997416 0.44191431401814 -0.88382862803631 0.15348842083143
-0.16205128205128 0.17517948717949 1.53435897435897 -0.00000000000000 0.00000000000000 1.00000000000000
-0.14081632653061 0.17428571428571 1.52653061224490 0.00000000000000 -0.00000000000000 -1.00000000000000
-0.11979695431472 0.17340101522843 1.51878172588832 0.00000000000000 0.00000000000000 1.00000000000000
-0.09924050632911 0.17296202531646 1.51493670886076 nan nan nan
-0.07858942065491 0.17209068010076 1.50730478589421 nan nan nan
-0.05814536340852 0.17122807017544 1.49974937343358 0.00000000000000 0.00000000000000 1.00000000000000
-0.03800000000000 0.17080000000000 1.49600000000000 nan nan nan
-0.01795511221945 0.17037406483791 1.49226932668329 0.00000000000000 -0.00000000000000 -1.00000000000000
0.00200501253133 0.17122807017544 1.49974937343358 0.00000000000000 -0.00000000000000 -1.00000000000000
0.02205513784461 0.17122807017544 1.49974937343358 0.00000000000000 0.00000000000000 1.00000000000000
0.04221105527638 0.17165829145729 1.50351758793970 -0.00000000000000 0.00000000000000 -1.00000000000000
0.06231155778894 0.17165829145729 1.50351758793970 -0.00000000000000 0.00000000000000 -1.00000000000000
0.08241206030151 0.17165829145729 1.50351758793970 0.00000000000000 0.00000000000000 -1.00000000000000
0.10251256281407 0.17165829145729 1.50351758793970 0.00000000000000 0.00000000000000 -1.00000000000000
0.12292191435768 0.17209068010076 1.50730478589421 0.00000000000000 -0.00000000000000 1.00000000000000
0.14307304785894 0.17209068010076 1.50730478589421 0.00000000000000 0.00000000000000 -1.00000000000000
0.16159600997506 0.17037406483791 1.49226932668329 0.00000000000000 0.00000000000000 1.00000000000000
0.18064516129032 0.16952853598015 1.48486352357320 0.00000000000000 0.00000000000000 1.00000000000000
0.20000000000000 0.16910891089109 1.48118811881188 0.00000000000000 -0.00000000000000 -1.00000000000000
0.21871921182266 0.16827586206897 1.47389162561576 nan nan nan
0.23842364532020 0.16827586206897 1.47389162561576 0.00000000000000 0.00000000000000 -1.00000000000000
-0.24708333333333 0.17833333333333 1.55833333333333 0.44064818076180 -0.88129636152367 0.17072171495290
-0.22507772020725 0.17740932642487 1.55025906735751 -0.00000000000000 0.00000000000000 -1.00000000000000
-0.20435233160622 0.17740932642487 1.55025906735751 0.44150643871978 -0.88301287743955 0.15924924754892
-0.18315245478036 0.17695090439276 1.54625322997416 0.44191431401814 -0.88382862803631 0.15348842083143
-0.16123076923077 0.17558974358974 1.53435897435897 0.00000000000000 0.00000000000000 1.00000000000000
-0.14000000000000 0.17469387755102 1.52653061224490 0.00000000000000 0.00000000000000 1.00000000000000
-0.11898477157360 0.17380710659898 1.51878172588832 -0.00000000000000 0.00000000000000 -1.00000000000000
-0.09843037974684 0.17336708860759 1.51493670886076 nan nan nan
-0.07778337531486 0.17249370277078 1.50730478589421 nan nan nan
-0.05734335839599 0.17162907268170 1.49974937343358 -0.00000000000000 0.00000000000000 -1.00000000000000
-0.03720000000000 0.17120000000000 1.49600000000000 nan nan nan
-0.01715710723192 0.17077306733167 1.49226932668329 0.00000000000000 0.00000000000000 1.00000000000000
0.00280701754386 0.17162907268170 1.49974937343358 0.00000000000000 0.00000000000000 1.00000000000000
0.02285714285714 0.17162907268170 1.49974937343358 -0.00000000000000 0.00000000000000 -1.00000000000000
0.04301507537688 0.17206030150754 1.50351758793970 0.00000000000000 0.00000000000000 -1.00000000000000
0.06311557788945 0.17206030150754 1.50351758793970 0.00000000000000 -0.00000000000000 -1.00000000000000
0.08321608040201 0.17206030150754 1.50351758793970 0.00000000000000 -0.00000000000000 -1.00000000000000
0.10331658291457 0.17206030150754 1.50351758793970 0.00000000000000 -0.00000000000000 -1.00000000000000
0.12372795969773 0.17249370277078 1.50730478589421 0.00000000000000 0.00000000000000 -1.00000000000000
0.14387909319899 0.17249370277078 1.50730478589421 0.00000000000000 -0.00000000000000 -1.00000000000000
0.16239401496259 0.17077306733167 1.49226932668329 0.00000000000000 -0.00000000000000 1.00000000000000
0.18143920595533 0.16992555831266 1.48486352357320 0.00000000000000 -0.00000000000000 1.00000000000000
0.20079207920792 0.16950495049505 1.48118811881188 -0.00000000000000 0.00000000000000 -1.00000000000000
0.21950738916256 0.16866995073892 1.47389162561576 0.00000000000000 -0.00000000000000 -1.00000000000000
0.23862407862408 0.16825552825553 1.47027027027027 nan nan nan
-0.24625000000000 0.17875000000000 1.55833333333333 0.44064818076180 -0.88129636152367 0.17072171495290
-0.22424870466321 0.17782383419689 1.55025906735751 0.00000000000000 0.00000000000000 -1.00000000000000
-0.20299741602067 0.17736434108527 1.54625322997416 0.44150643871978 -0.88301287743955 0.15924924754892
-0.18185567010309 0.17690721649485 1.54226804123711 0.44191431401812 -0.88382862803633 0.15348842083142
-0.16000000000000 0.17554987212276 1.53043478260870 0.00000000000000 0.00000000000000 -1.00000000000000
-0.13882951653944 0.17465648854962 1.52264631043257 0.00000000000000 0.00000000000000 -1.00000000000000
-0.11817258883249 0.17421319796954 1.51878172588832 nan nan nan
-0.09737373737374 0.17333333333333 1.51111111111111 0.00000000000000 0.00000000000000 1.00000000000000
-0.07678391959799 0.17246231155779 1.50351758793970 0.00000000000000 0.00000000000000 1.00000000000000
-0.05654135338346 0.17203007518797 1.49974937343358 0.00000000000000 -0.00000000000000 -1.00000000000000
-0.03630922693267 0.17117206982544 1.49226932668329 0.00000000000000 0.00000000000000 1.00000000000000
-0.01631840796020 0.17074626865672 1.48855721393035 0.00000000000000 0.00000000000000 1.00000000000000
0.00360000000000 0.17160000000000 1.49600000000000 0.00000000000000 0.00000000000000 1.00000000000000
0.02365914786967 0.17203007518797 1.49974937343358 0.00000000000000 -0.00000000000000 -1.00000000000000
0.04370927318296 0.17203007518797 1.49974937343358 0.00000000000000 0.00000000000000 1.00000000000000
0.06391959798995 0.17246231155779 1.50351758793970 -0.00000000000000 0.00000000000000 -1.00000000000000
0.08402010050251 0.17246231155779 1.50351758793970 -0.00000000000000 0.00000000000000 -1.00000000000000
0.10412060301508 0.17246231155779 1.50351758793970 -0.00000000000000 0.00000000000000 -1.00000000000000
0.12422110552764 0.17246231155779 1.50351758793970 0.00000000000000 0.00000000000000 1.00000000000000
0.14468513853904 0.17289672544081 1.50730478589421 -0.00000000000000 0.00000000000000 -1.00000000000000
0.16319201995012 0.17117206982544 1.49226932668329 -0.00000000000000 0.00000000000000 1.00000000000000
0.18223325062035 0.17032258064516 1.48486352357320 -0.00000000000000 0.00000000000000 -1.00000000000000
0.20158415841584 0.16990099009901 1.48118811881188 0.00000000000000 -0.00000000000000 -1.00000000000000
0.22029556650246 0.16906403940887 1.47389162561576 -0.00000000000000 0.00000000000000 -1.00000000000000
0.23941031941032 0.16864864864865 1.47027027027027 nan nan nan
-0.24477922077922 0.17870129870130 1.55428571428571 0.00000000000000 0.00000000000000 -1.00000000000000
-0.22284237726098 0.17777777777778 1.54625322997416 nan nan nan
-0.20217054263566 0.17777777777778 1.54625322997416 0.44150643871978 -0.88301287743955 0.15924924754892
-0.18103092783505 0.17731958762887 1.54226804123711 0.44191431401812 -0.88382862803632 0.15348842083143
-0.15918158567775 0.17595907928389 1.53043478260870 -0.00000000000000 0.00000000000000 1.00000000000000
-0.13801526717557 0.17506361323155 1.52264631043257 -0.00000000000000 0.00000000000000 1.00000000000000
-0.11736040609137 0.17461928934010 1.51878172588832 0.00000000000000 -0.00000000000000 -1.00000000000000
-0.09656565656566 0.17373737373737 1.51111111111111 -0.00000000000000 0.00000000000000 -1.00000000000000
-0.07597989949749 0.17286432160804 1.50351758793970 0.00000000000000 -0.00000000000000 1.00000000000000
-0.05573934837093 0.17243107769424 1.49974937343358 0.00000000000000 0.00000000000000 1.00000000000000
-0.03551122194514 0.17157107231920 1.49226932668329 -0.00000000000000 0.00000000000000 -1.00000000000000
-0.01552238805970 0.17114427860697 1.48855721393035 -0.00000000000000 0.00000000000000 -1.00000000000000
0.00440000000000 0.17200000000000 1.49600000000000 -0.00000000000000 0.00000000000000 -1.00000000000000
0.02446115288221 0.17243107769424 1.49974937343358 -0.00000000000000 0.00000000000000 -1.00000000000000
0.04451127819549 0.17243107769424 1.49974937343358 -0.00000000000000 0.00000000000000 -1.00000000000000
0.06472361809045 0.17286432160804 1.50351758793970 -0.00000000000000 0.00000000000000 -1.00000000000000
0.08482412060302 0.17286432160804 1.50351758793970 -0.00000000000000 0.00000000000000 -1.00000000000000
0.10492462311558 0.17286432160804 1.50351758793970 -0.00000000000000 0.00000000000000 -1.00000000000000
0.12502512562814 0.17286432160804 1.50351758793970 -0.00000000000000 0.00000000000000 -1.00000000000000
0.14549118387909 0.17329974811083 1.50730478589421 -0.00000000000000 0.00000000000000 1.00000000000000
0.16399002493766 0.17157107231920 1.49226932668329 0.00000000000000 0.00000000000000 1.00000000000000
0.18302729528536 0.17071960297767 1.48486352357320 0.00000000000000 -0.00000000000000 -1.00000000000000
0.20237623762376 0.17029702970297 1.48118811881188 0.00000000000000 0.00000000000000 1.00000000000000
0.22108374384236 0.16945812807882 1.47389162561576 0.00000000000000 -0.00000000000000 1.00000000000000
0.24019656019656 0.16904176904177 1.47027027027027 nan nan nan
-0.24394805194805 0.17911688311688 1.55428571428571 0.00000000000000 -0.00000000000000 -1.00000000000000
-0.22201550387597 0.17819121447028 1.54625322997416 nan nan nan
-0.20082474226804 0.17773195876289 1.54226804123711 0.44150643871978 -0.88301287743955 0.15924924754892
-0.17974293059126 0.17727506426735 1.53830334190231 0.00000000000000 0.00000000000000 1.00000000000000
-0.15836317135550 0.17636828644501 1.53043478260870 0.00000000000000 -0.00000000000000 1.00000000000000
-0.13720101781170 0.17547073791349 1.52264631043257 0.00000000000000 -0.00000000000000 -1.00000000000000
-0.11654822335025 0.17502538071066 1.51878172588832 -0.00000000000000 0.00000000000000 -1.00000000000000
-0.09575757575758 0.17414141414141 1.51111111111111 0.00000000000000 -0.00000000000000 -1.00000000000000
-0.07517587939698 0.17326633165829 1.50351758793970 0.00000000000000 -0.00000000000000 -1.00000000000000
-0.05480000000000 0.17240000000000 1.49600000000000 nan nan nan
-0.03471321695761 0.17197007481297 1.49226932668329 nan nan nan
-0.01472636815920 0.17154228855721 1.48855721393035 nan nan nan
0.00520000000000 0.17240000000000 1.49600000000000 -0.00000000000000 0.00000000000000 1.00000000000000
0.02526315789474 0.17283208020050 1.49974937343358 0.00000000000000 -0.00000000000000 -1.00000000000000
0.04531328320802 0.17283208020050 1.49974937343358 0.00000000000000 -0.00000000000000 -1.00000000000000
0.06552763819095 0.17326633165829 1.50351758793970 0.00000000000000 -0.00000000000000 -1.00000000000000
0.08562814070352 0.17326633165829 1.50351758793970 0.00000000000000 -0.00000000000000 -1.00000000000000
0.10572864321608 0.17326633165829 1.50351758793970 0.00000000000000 -0.00000000000000 -1.00000000000000
0.12582914572864 0.17326633165829 1.50351758793970 0.00000000000000 -0.00000000000000 -1.00000000000000
0.14629722921914 0.17370277078086 1.50730478589421 nan nan nan
0.16437810945274 0.17154228855721 1.48855721393035 0.00000000000000 0.00000000000000 -1.00000000000000
0.18382133995037 0.17111662531017 1.48486352357320 -0.00000000000000 0.00000000000000 -1.00000000000000
0.20266666666667 0.17027160493827 1.47753086419753 0.00000000000000 0.00000000000000 1.00000000000000
0.22187192118227 0.16985221674877 1.47389162561576 0.00000000000000 -0.00000000000000 -1.00000000000000
0.24098280098280 0.16943488943489 1.47027027027027 0.00000000000000 -0.00000000000000 1.00000000000000
-0.24311688311688 0.17953246753247 1.55428571428571 0.00000000000000 0.00000000000000 1.00000000000000
-0.22118863049096 0.17860465116279 1.54625322997416 nan nan nan
-0.20000000000000 0.17814432989691 1.54226804123711 0.44150643871978 -0.88301287743955 0.15924924754892
-0.17892030848329 0.17768637532134 1.53830334190231 -0.00000000000000 0.00000000000000 -1.00000000000000
-0.15754475703325 0.17677749360614 1.53043478260870 0.00000000000000 0.00000000000000 -1.00000000000000
-0.13638676844784 0.17587786259542 1.52264631043257 0.00000000000000 0.00000000000000 1.00000000000000
-0.11573604060914 0.17543147208122 1.51878172588832 0.00000000000000 -0.00000000000000 -1.00000000000000
-0.09494949494949 0.17454545454545 1.51111111111111 0.00000000000000 0.00000000000000 1.00000000000000
-0.07437185929648 0.17366834170854 1.50351758793970 -0.00000000000000 0.00000000000000 -1.00000000000000
-0.05400000000000 0.17280000000000 1.49600000000000 nan nan nan
-0.03391521197007 0.17236907730673 1.49226932668329 nan nan nan
-0.01393034825871 0.17194029850746 1.48855721393035 nan nan nan
0.00600000000000 0.17280000000000 1.49600000000000 0.00000000000000 -0.00000000000000 1.00000000000000
0.02606516290727 0.17323308270677 1.49974937343358 -0.00000000000000 0.00000000000000 -1.00000000000000
0.04611528822055 0.17323308270677 1.49974937343358 0.00000000000000 -0.00000000000000 1.00000000000000
0.06633165829146 0.17366834170854 1.50351758793970 0.00000000000000 0.00000000000000 1.00000000000000
0.08643216080402 0.17366834170854 1.50351758793970 -0.00000000000000 0.00000000000000 -1.00000000000000
0.10653266331658 0.17366834170854 1.50351758793970 -0.00000000000000 0.00000000000000 -1.00000000000000
0.12663316582915 0.17366834170854 1.50351758793970 -0.00000000000000 0.00000000000000 -1.00000000000000
0.14710327455919 0.17410579345088 1.50730478589421 -0.00000000000000 0.00000000000000 1.00000000000000
0.16517412935323 0.17194029850746 1.48855721393035 0.00000000000000 -0.00000000000000 -1.00000000000000
0.18461538461538 0.17151364764268 1.48486352357320 -0.00000000000000 0.00000000000000 1.00000000000000
0.20345679012346 0.17066666666667 1.47753086419753 0.00000000000000 -0.00000000000000 1.00000000000000
0.22266009852217 0.17024630541872 1.47389162561576 0.00000000000000 0.00000000000000 1.00000000000000
0.24176904176904 0.16982800982801 1.47027027027027 -0.00000000000000 0.00000000000000 1.00000000000000
-0.24165803108808 0.17948186528497 1.55025906735751 0.00000000000000 0.00000000000000 -1.00000000000000
-0.21979381443299 0.17855670103093 1.54226804123711 0.00000000000000 0.00000000000000 -1.00000000000000
-0.19866323907455 0.17809768637532 1.53830334190231 0.00000000000000 0.00000000000000 1.00000000000000
-0.17809768637532 0.17809768637532 1.53830334190231 0.00000000000000 0.00000000000000 -1.00000000000000
-0.15632653061224 0.17673469387755 1.52653061224490 0.00000000000000 0.00000000000000 -1.00000000000000
-0.13522842639594 0.17583756345178 1.51878172588832 nan nan nan
-0.11492385786802 0.17583756345178 1.51878172588832 0.00000000000000 -0.00000000000000 1.00000000000000
-0.09390428211587 0.17450881612091 1.50730478589421 0.00000000000000 0.00000000000000 -1.00000000000000
-0.07356783919598 0.17407035175879 1.50351758793970 0.00000000000000 -0.00000000000000 -1.00000000000000
-0.05320000000000 0.17320000000000 1.49600000000000 0.00000000000000 -0.00000000000000 -1.00000000000000
-0.03303482587065 0.17233830845771 1.48855721393035 0.00000000000000 0.00000000000000 1.00000000000000
-0.01310173697270 0.17191066997519 1.48486352357320 0.00000000000000 0.00000000000000 -1.00000000000000
0.00680000000000 0.17320000000000 1.49600000000000 0.00000000000000 -0.00000000000000 -1.00000000000000
0.02686716791980 0.17363408521303 1.49974937343358 0.00000000000000 -0.00000000000000 -1.00000000000000
0.04691729323308 0.17363408521303 1.49974937343358 -0.00000000000000 0.00000000000000 1.00000000000000
0.06696741854637 0.17363408521303 1.49974937343358 0.00000000000000 0.00000000000000 1.00000000000000
0.08723618090452 0.17407035175879 1.50351758793970 0.00000000000000 -0.00000000000000 -1.00000000000000
0.10733668341709 0.17407035175879 1.50351758793970 0.00000000000000 -0.00000000000000 -1.00000000000000
0.12743718592965 0.17407035175879 1.50351758793970 0.00000000000000 -0.00000000000000 -1.00000000000000
0.14790931989924 0.17450881612091 1.50730478589421 0.00000000000000 -0.00000000000000 1.00000000000000
0.16597014925373 0.17233830845771 1.48855721393035 0.00000000000000 -0.00000000000000 1.00000000000000
0.18540942928040 0.17191066997519 1.48486352357320 0.00000000000000 0.00000000000000 1.00000000000000
0.20424691358025 0.17106172839506 1.47753086419753 -0.00000000000000 0.00000000000000 1.00000000000000
0.22289926289926 0.17022113022113 1.47027027027027 0.00000000000000 0.00000000000000 1.00000000000000
0.24255528255528 0.17022113022113 1.47027027027027 -0.00000000000000 0.00000000000000 1.00000000000000
-0.24082901554404 0.17989637305699 1.55025906735751 0.00000000000000 -0.00000000000000 -1.00000000000000
-0.21896907216495 0.17896907216495 1.54226804123711 0.00000000000000 -0.00000000000000 -1.00000000000000
-0.19784061696658 0.17850899742931 1.53830334190231 0.00000000000000 -0.00000000000000 1.00000000000000
-0.17682051282051 0.17805128205128 1.53435897435897 0.44191431401813 -0.88382862803632 0.15348842083143
-0.15551020408163 0.17714285714286 1.52653061224490 -0.00000000000000 0.00000000000000 1.00000000000000
-0.13441624365482 0.17624365482234 1.51878172588832 nan nan nan
-0.11411167512690 0.17624365482234 1.51878172588832 0.00000000000000 0.00000000000000 -1.00000000000000
-0.09309823677582 0.17491183879093 1.50730478589421 0.00000000000000 -0.00000000000000 -1.00000000000000
-0.07276381909548 0.17447236180905 1.50351758793970 0.00000000000000 0.00000000000000 1.00000000000000
-0.05240000000000 0.17360000000000 1.49600000000000 -0.00000000000000 0.00000000000000 1.00000000000000
