-0.000000000000000000e+00 0.000000000000000000e+00 1.319240384193682517e-05
-0.000000000000000000e+00 -0.000000000000000000e+00 -2.230718121317135137e-06
-0.000000000000000000e+00 -0.000000000000000000e+00 -2.216066481994455760e-06
0.000000000000000000e+00 0.000000000000000000e+00 -1.274238227146821093e-05
-0.000000000000000000e+00 -0.000000000000000000e+00 -2.216066481994375715e-06
0.000000000000000000e+00 0.000000000000000000e+00 -1.282662919757321946e-05
-0.000000000000000000e+00 -0.000000000000000000e+00 -2.245515547563734413e-06
-0.000000000000000000e+00 -0.000000000000000000e+00 -2.275555555555543180e-06
-0.000000000000000000e+00 -0.000000000000000000e+00 -2.321758550714791345e-06
-0.000000000000000000e+00 -0.000000000000000000e+00 -2.369383127400580958e-06
-0.000000000000000000e+00 -0.000000000000000000e+00 -2.452077920522899005e-06
-0.000000000000000000e+00 -0.000000000000000000e+00 -2.593685490305260435e-06
-0.000000000000000000e+00 -0.000000000000000000e+00 -1.625074390002014214e-06
-0.000000000000000000e+00 -0.000000000000000000e+00 -1.571504208838219280e-06
-0.000000000000000000e+00 -0.000000000000000000e+00 -1.545707040212590021e-06
-0.000000000000000000e+00 0.000000000000000000e+00 5.603188020770572282e-06
-0.000000000000000000e+00 0.000000000000000000e+00 5.665272732822651498e-06
-1.493835938562218163e-05 6.402154022409369921e-06 1.090135049894243357e-05
-0.000000000000000000e+00 -0.000000000000000000e+00 -1.892074167829186866e-06
-0.000000000000000000e+00 -0.000000000000000000e+00 -1.880624426078909724e-06
-0.000000000000000000e+00 0.000000000000000000e+00 7.852468768590139701e-06
-0.000000000000000000e+00 0.000000000000000000e+00 7.664392509798423082e-06
0.000000000000000000e+00 -0.000000000000000000e+00 1.108135162189211634e-05
-0.000000000000000000e+00 0.000000000000000000e+00 7.710772994039966416e-06
0.000000000000000000e+00 -0.000000000000000000e+00 5.985279952117683597e-06
-0.000000000000000000e+00 0.000000000000000000e+00 9.262751633700223348e-06
-0.000000000000000000e+00 0.000000000000000000e+00 9.201712250432951253e-06
-0.000000000000000000e+00 0.000000000000000000e+00 9.141274238227127628e-06
-0.000000000000000000e+00 0.000000000000000000e+00 9.141274238227127628e-06
-0.000000000000000000e+00 0.000000000000000000e+00 9.141274238227163203e-06
-0.000000000000000000e+00 0.000000000000000000e+00 9.201712250432954641e-06
-0.000000000000000000e+00 -0.000000000000000000e+00 -1.684136660672786516e-06
-0.000000000000000000e+00 -0.000000000000000000e+00 -1.706666666666638750e-06
-0.000000000000000000e+00 -0.000000000000000000e+00 -1.741318913036074345e-06
-0.000000000000000000e+00 -0.000000000000000000e+00 -1.789187992871230367e-06
-0.000000000000000000e+00 0.000000000000000000e+00 1.025628573856675069e-05
-5.751772729116932432e-05 -1.769776224343672482e-05 1.449654936705044173e-05
-0.000000000000000000e+00 0.000000000000000000e+00 6.628533766447767900e-06
-0.000000000000000000e+00 0.000000000000000000e+00 6.446689661487719155e-06
-0.000000000000000000e+00 -0.000000000000000000e+00 -1.159280280159451092e-06
-0.000000000000000000e+00 0.000000000000000000e+00 6.376041540876768825e-06
0.000000000000000000e+00 -0.000000000000000000e+00 9.377003143982107845e-06
0.000000000000000000e+00 0.000000000000000000e+00 1.522903033908409539e-05
-0.000000000000000000e+00 -0.000000000000000000e+00 -1.419055625872194022e-06
-0.000000000000000000e+00 0.000000000000000000e+00 7.757575757575764822e-06
-0.000000000000000000e+00 -0.000000000000000000e+00 7.095278129359336185e-06
0.000000000000000000e+00 -0.000000000000000000e+00 1.161271592393660590e-05
0.000000000000000000e+00 0.000000000000000000e+00 -9.290172739149287767e-06
0.000000000000000000e+00 0.000000000000000000e+00 9.580051295625465233e-06
-0.000000000000000000e+00 0.000000000000000000e+00 -9.635289246866697718e-07
0.000000000000000000e+00 0.000000000000000000e+00 -1.403447217227322266e-05
0.000000000000000000e+00 -0.000000000000000000e+00 1.394198825823170423e-05
0.000000000000000000e+00 0.000000000000000000e+00 -1.108033240997226482e-05
-0.000000000000000000e+00 -0.000000000000000000e+00 8.310249307479305344e-06
-0.000000000000000000e+00 0.000000000000000000e+00 1.108033240997230209e-05
-0.000000000000000000e+00 0.000000000000000000e+00 1.115359060658537118e-05
0.000000000000000000e+00 0.000000000000000000e+00 -8.476727629937854194e-06
-0.000000000000000000e+00 0.000000000000000000e+00 1.145401058153708506e-05
0.000000000000000000e+00 0.000000000000000000e+00 -1.460920379839293291e-05
0.000000000000000000e+00 0.000000000000000000e+00 -9.007318446237471966e-06
0.000000000000000000e+00 0.000000000000000000e+00 -9.389212186415066242e-06
9.528684096187309141e-05 3.176228032062443157e-05 -3.262852432936962896e-05
0.000000000000000000e+00 0.000000000000000000e+00 -5.992322337005794791e-06
0.000000000000000000e+00 -0.000000000000000000e+00 9.713969142969853314e-06
0.000000000000000000e+00 -0.000000000000000000e+00 -1.062673590146113992e-05
0.000000000000000000e+00 0.000000000000000000e+00 -9.660669001328383866e-06
0.000000000000000000e+00 0.000000000000000000e+00 8.053959070295764699e-06
-0.000000000000000000e+00 -0.000000000000000000e+00 7.138607971445588400e-06
0.000000000000000000e+00 -0.000000000000000000e+00 1.175390266299361618e-05
0.000000000000000000e+00 0.000000000000000000e+00 9.638200183655139144e-06
0.000000000000000000e+00 0.000000000000000000e+00 -1.175390266299354164e-05
0.000000000000000000e+00 0.000000000000000000e+00 -9.290172739149299625e-06
0.000000000000000000e+00 0.000000000000000000e+00 -9.290172739149286072e-06
-0.000000000000000000e+00 0.000000000000000000e+00 9.403122130394838730e-06
-0.000000000000000000e+00 0.000000000000000000e+00 3.393136094674541067e-06
-0.000000000000000000e+00 0.000000000000000000e+00 -1.403447217227327348e-05
-0.000000000000000000e+00 0.000000000000000000e+00 -1.394198825823170423e-05
0.000000000000000000e+00 0.000000000000000000e+00 -1.108033240997226652e-05
-0.000000000000000000e+00 0.000000000000000000e+00 1.108033240997227329e-05
-0.000000000000000000e+00 0.000000000000000000e+00 1.108033240997227329e-05
-0.000000000000000000e+00 0.000000000000000000e+00 -5.576795303292679659e-06
-0.000000000000000000e+00 0.000000000000000000e+00 1.130230350658381406e-05
0.000000000000000000e+00 0.000000000000000000e+00 -1.145401058153708336e-05
0.000000000000000000e+00 0.000000000000000000e+00 -1.168736303871436564e-05
0.000000000000000000e+00 -0.000000000000000000e+00 1.511555130430674295e-05
0.000000000000000000e+00 0.000000000000000000e+00 -7.879347491535898795e-06
-3.889605469757645298e-05 -1.944802734878825360e-05 -2.707643807624087427e-05
0.000000000000000000e+00 0.000000000000000000e+00 -8.739845283633800656e-06
0.000000000000000000e+00 0.000000000000000000e+00 -7.771175314375891461e-06
0.000000000000000000e+00 0.000000000000000000e+00 -9.607806342653439407e-06
0.000000000000000000e+00 0.000000000000000000e+00 9.660669001328361843e-06
-0.000000000000000000e+00 0.000000000000000000e+00 2.765432098765333650e-06
0.000000000000000000e+00 0.000000000000000000e+00 -9.518143961927393601e-06
-0.000000000000000000e+00 0.000000000000000000e+00 0.000000000000000000e+00
-2.291612970844648814e-04 -7.236672539509336277e-05 -5.081956515769203708e-05
0.000000000000000000e+00 -0.000000000000000000e+00 -9.873278236914624712e-06
0.000000000000000000e+00 -0.000000000000000000e+00 -9.754681376106895727e-06
0.000000000000000000e+00 -0.000000000000000000e+00 -9.754681376106816106e-06
0.000000000000000000e+00 -0.000000000000000000e+00 -9.873278236914624712e-06
1.970510321387484372e-05 -1.970510321387556878e-05 -7.597529100109117957e-06
-0.000000000000000000e+00 0.000000000000000000e+00 1.171127013691473130e-05
-0.000000000000000000e+00 0.000000000000000000e+00 1.163434903047087908e-05
0.000000000000000000e+00 -0.000000000000000000e+00 -1.163434903047087908e-05
0.000000000000000000e+00 -0.000000000000000000e+00 -1.163434903047083673e-05
0.000000000000000000e+00 -0.000000000000000000e+00 -1.163434903047083673e-05
0.000000000000000000e+00 -0.000000000000000000e+00 -1.171127013691470928e-05
0.000000000000000000e+00 -0.000000000000000000e+00 -1.186741868191293929e-05
0.000000000000000000e+00 -0.000000000000000000e+00 1.470204044862847663e-05
-0.000000000000000000e+00 -0.000000000000000000e+00 -3.530020109164052996e-06
0.000000000000000000e+00 -0.000000000000000000e+00 -1.269706309561761027e-05
-0.000000000000000000e+00 -0.000000000000000000e+00 -3.808768101567120400e-06
2.456425883359796426e-05 1.563180107592635057e-05 -7.780075172625184422e-06
0.000000000000000000e+00 -0.000000000000000000e+00 1.007407407407399469e-05
0.000000000000000000e+00 -0.000000000000000000e+00 -8.159734080094671973e-06
0.000000000000000000e+00 -0.000000000000000000e+00 -9.105604182983728645e-21
-0.000000000000000000e+00 0.000000000000000000e+00 8.159734080094671973e-06
-0.000000000000000000e+00 0.000000000000000000e+00 4.767188336527566748e-06
0.000000000000000000e+00 -0.000000000000000000e+00 1.206197281991100221e-05
-0.000000000000000000e+00 0.000000000000000000e+00 9.873278236914624712e-06
-0.000000000000000000e+00 -0.000000000000000000e+00 -9.754610577654334961e-07
-0.000000000000000000e+00 0.000000000000000000e+00 1.028103065871961076e-05
0.000000000000000000e+00 -0.000000000000000000e+00 1.200479759038312038e-05
-0.000000000000000000e+00 0.000000000000000000e+00 1.021919001306426482e-05
-0.000000000000000000e+00 0.000000000000000000e+00 1.040640792306068997e-05
0.000000000000000000e+00 0.000000000000000000e+00 -3.703560819412797971e-06
-0.000000000000000000e+00 0.000000000000000000e+00 1.226894966724394234e-05
0.000000000000000000e+00 -0.000000000000000000e+00 -1.218836565096955263e-05
-0.000000000000000000e+00 0.000000000000000000e+00 1.218836565096950859e-05
0.000000000000000000e+00 -0.000000000000000000e+00 -1.218836565096954586e-05
0.000000000000000000e+00 -0.000000000000000000e+00 1.449966778856099320e-05
-0.000000000000000000e+00 0.000000000000000000e+00 1.235033551160036161e-05
0.000000000000000000e+00 -0.000000000000000000e+00 -1.243253385724225086e-05
0.000000000000000000e+00 -0.000000000000000000e+00 -1.268411332822846881e-05
0.000000000000000000e+00 0.000000000000000000e+00 1.628950900087926943e-05
-0.000000000000000000e+00 -0.000000000000000000e+00 -1.217598097502942941e-06
-0.000000000000000000e+00 -0.000000000000000000e+00 -1.278577582439596674e-06
-0.000000000000000000e+00 -0.000000000000000000e+00 -8.217704981181389004e-07
0.000000000000000000e+00 -0.000000000000000000e+00 -8.691358024691308169e-06
-0.000000000000000000e+00 0.000000000000000000e+00 8.501388721168974278e-06
-0.000000000000000000e+00 0.000000000000000000e+00 -9.105604182983728645e-21
0.000000000000000000e+00 -0.000000000000000000e+00 -8.548292845813476202e-06
0.000000000000000000e+00 0.000000000000000000e+00 -2.996161168502830056e-06
0.000000000000000000e+00 -0.000000000000000000e+00 -1.040640792306051379e-05
0.000000000000000000e+00 -0.000000000000000000e+00 -1.034343434343433277e-05
-0.000000000000000000e+00 -0.000000000000000000e+00 1.927057849373176066e-06
0.000000000000000000e+00 0.000000000000000000e+00 1.074835023411595455e-05
-0.000000000000000000e+00 0.000000000000000000e+00 1.334076891925523034e-20
0.000000000000000000e+00 -0.000000000000000000e+00 6.013933925505532407e-20
0.000000000000000000e+00 0.000000000000000000e+00 1.040640792306068827e-05
0.000000000000000000e+00 -0.000000000000000000e+00 7.997984378936567076e-06
-0.000000000000000000e+00 0.000000000000000000e+00 -8.809142651444723526e-20
0.000000000000000000e+00 -0.000000000000000000e+00 -5.124549330888517051e-20
-0.000000000000000000e+00 0.000000000000000000e+00 5.844527336054672340e-20
0.000000000000000000e+00 -0.000000000000000000e+00 -5.124549330888517051e-20
-0.000000000000000000e+00 0.000000000000000000e+00 -9.910285482875313967e-20
-0.000000000000000000e+00 0.000000000000000000e+00 -1.007969207232617403e-19
0.000000000000000000e+00 0.000000000000000000e+00 -1.308444444444446900e-05
0.000000000000000000e+00 0.000000000000000000e+00 -1.335011166660997898e-05
0.000000000000000000e+00 0.000000000000000000e+00 1.362395298255358795e-05
-0.000000000000000000e+00 -0.000000000000000000e+00 2.452077920522876982e-06
-0.000000000000000000e+00 -0.000000000000000000e+00 7.781056470915890573e-06
-0.000000000000000000e+00 -0.000000000000000000e+00 4.875223170005929562e-06
-0.000000000000000000e+00 -0.000000000000000000e+00 1.571504208838268831e-06
0.000000000000000000e+00 -0.000000000000000000e+00 1.207021949837377983e-20
-0.000000000000000000e+00 0.000000000000000000e+00 -1.152936761118412593e-05
0.000000000000000000e+00 0.000000000000000000e+00 8.548292845813555823e-06
-0.000000000000000000e+00 0.000000000000000000e+00 -8.235451043162254813e-06
0.000000000000000000e+00 -0.000000000000000000e+00 -2.011703249728963305e-20
0.000000000000000000e+00 -0.000000000000000000e+00 0.000000000000000000e+00
0.000000000000000000e+00 0.000000000000000000e+00 5.985279952117841145e-06
0.000000000000000000e+00 0.000000000000000000e+00 -1.114820728697929609e-05
0.000000000000000000e+00 -0.000000000000000000e+00 -3.324604317973128831e-20
0.000000000000000000e+00 0.000000000000000000e+00 1.068369865002167458e-05
0.000000000000000000e+00 0.000000000000000000e+00 6.900654372397489618e-06
-3.849145416066669667e-05 -1.049766931654552941e-05 1.208635403129576424e-05
0.000000000000000000e+00 -0.000000000000000000e+00 -3.684593320556206475e-20
0.000000000000000000e+00 -0.000000000000000000e+00 0.000000000000000000e+00
-0.000000000000000000e+00 0.000000000000000000e+00 0.000000000000000000e+00
-0.000000000000000000e+00 0.000000000000000000e+00 7.199780051661552882e-21
0.000000000000000000e+00 -0.000000000000000000e+00 -4.785736151986796916e-20
0.000000000000000000e+00 0.000000000000000000e+00 1.291171439849128875e-05
0.000000000000000000e+00 0.000000000000000000e+00 1.308444444444446731e-05
0.000000000000000000e+00 0.000000000000000000e+00 1.335011166660997898e-05
-0.000000000000000000e+00 -0.000000000000000000e+00 8.945939964356016308e-06
0.000000000000000000e+00 0.000000000000000000e+00 7.716049382716086834e-06
-4.345994625608235243e-05 -2.172997312804112201e-05 2.764470912920320508e-05
0.000000000000000000e+00 0.000000000000000000e+00 -5.049867440979636987e-06
0.000000000000000000e+00 0.000000000000000000e+00 -9.377003143982107845e-06
0.000000000000000000e+00 0.000000000000000000e+00 8.887815481222044174e-06
0.000000000000000000e+00 -0.000000000000000000e+00 -8.887815481222020457e-06
0.000000000000000000e+00 -0.000000000000000000e+00 -8.986294679649447809e-06
-0.000000000000000000e+00 0.000000000000000000e+00 -3.656417377504293011e-06
0.000000000000000000e+00 0.000000000000000000e+00 1.087942646501779038e-05
-0.000000000000000000e+00 0.000000000000000000e+00 7.390362464793770458e-20
0.000000000000000000e+00 0.000000000000000000e+00 7.852468768590139701e-06
0.000000000000000000e+00 -0.000000000000000000e+00 -1.114820728697910974e-05
0.000000000000000000e+00 0.000000000000000000e+00 1.108135162189211464e-05
0.000000000000000000e+00 -0.000000000000000000e+00 -1.121566980951232036e-05
-0.000000000000000000e+00 0.000000000000000000e+00 1.149173750806614028e-05
-0.000000000000000000e+00 0.000000000000000000e+00 1.347309328538212442e-05
0.000000000000000000e+00 0.000000000000000000e+00 1.338430872790244236e-05
0.000000000000000000e+00 0.000000000000000000e+00 1.329639889196676590e-05
0.000000000000000000e+00 0.000000000000000000e+00 -1.329639889196676590e-05
0.000000000000000000e+00 -0.000000000000000000e+00 -1.329639889196669983e-05
0.000000000000000000e+00 -0.000000000000000000e+00 5.505714157152952204e-20
0.000000000000000000e+00 0.000000000000000000e+00 -1.412787938322975699e-05
0.000000000000000000e+00 0.000000000000000000e+00 -1.431751322692141265e-05
0.000000000000000000e+00 0.000000000000000000e+00 -1.460920379839293460e-05
0.000000000000000000e+00 0.000000000000000000e+00 -1.501219741039589955e-05
0.000000000000000000e+00 0.000000000000000000e+00 1.025628573856675069e-05
-0.000000000000000000e+00 -0.000000000000000000e+00 -3.974949536773491812e-06
1.468892957555469341e-05 -2.098418510793560301e-06 8.654012596384798618e-06
0.000000000000000000e+00 0.000000000000000000e+00 9.377003143982106151e-06
1.974351413270583336e-06 -1.382045989289395926e-05 3.357453205455074185e-07
0.000000000000000000e+00 0.000000000000000000e+00 9.274242241275164892e-06
0.000000000000000000e+00 0.000000000000000000e+00 9.377003143982106151e-06
-1.102330293819651225e-04 6.183804087280968037e-05 2.704857156336094696e-05
0.000000000000000000e+00 0.000000000000000000e+00 -1.175390266299361448e-05
0.000000000000000000e+00 -0.000000000000000000e+00 -1.128374655647361335e-05
0.000000000000000000e+00 0.000000000000000000e+00 7.095278129359335338e-06
0.000000000000000000e+00 0.000000000000000000e+00 1.161271592393661098e-05
0.000000000000000000e+00 -0.000000000000000000e+00 7.326834993749697933e-20
0.000000000000000000e+00 0.000000000000000000e+00 1.168298938490877087e-05
0.000000000000000000e+00 0.000000000000000000e+00 1.149173750806614197e-05
0.000000000000000000e+00 0.000000000000000000e+00 1.403447217227312780e-05
0.000000000000000000e+00 0.000000000000000000e+00 -1.394198825823170423e-05
0.000000000000000000e+00 0.000000000000000000e+00 -1.385041551246537169e-05
0.000000000000000000e+00 -0.000000000000000000e+00 -5.124549330888517051e-20
-0.000000000000000000e+00 0.000000000000000000e+00 5.844527336054672340e-20
0.000000000000000000e+00 0.000000000000000000e+00 1.394198825823173472e-05
0.000000000000000000e+00 -0.000000000000000000e+00 -1.412787938322975699e-05
-0.000000000000000000e+00 0.000000000000000000e+00 1.694065894508600678e-21
0.000000000000000000e+00 -0.000000000000000000e+00 -1.460920379839293291e-05
0.000000000000000000e+00 -0.000000000000000000e+00 -1.501219741039589785e-05
0.000000000000000000e+00 0.000000000000000000e+00 9.389212186415064548e-06
2.455989695148118324e-04 1.133533705452981097e-04 -2.787361402268002058e-05
1.456629515160736547e-05 2.080899307372397591e-06 8.819897278200026524e-06
-0.000000000000000000e+00 0.000000000000000000e+00 9.713969142969938018e-06
-0.000000000000000000e+00 0.000000000000000000e+00 1.207021949837377983e-20
-0.000000000000000000e+00 0.000000000000000000e+00 9.660669001328380477e-06
0.000000000000000000e+00 0.000000000000000000e+00 -9.821901305238587906e-06
0.000000000000000000e+00 0.000000000000000000e+00 -1.189767995240911325e-05
0.000000000000000000e+00 -0.000000000000000000e+00 -2.011703249728963305e-20
0.000000000000000000e+00 0.000000000000000000e+00 1.175390266299345355e-05
0.000000000000000000e+00 0.000000000000000000e+00 -1.010835629017427969e-05
0.000000000000000000e+00 0.000000000000000000e+00 -1.312901068244165526e-20
0.000000000000000000e+00 -0.000000000000000000e+00 2.308614921227065427e-07
0.000000000000000000e+00 0.000000000000000000e+00 1.168298938490895044e-05
-2.217598878971222494e-05 1.663199159228408993e-05 7.303549249124864374e-06
0.000000000000000000e+00 -0.000000000000000000e+00 2.806894434453801396e-07
0.000000000000000000e+00 -0.000000000000000000e+00 2.788397651646237338e-07
0.000000000000000000e+00 -0.000000000000000000e+00 2.770083102492520717e-07
0.000000000000000000e+00 -0.000000000000000000e+00 2.770083102492520717e-07
0.000000000000000000e+00 0.000000000000000000e+00 1.385041551246538016e-05
0.000000000000000000e+00 -0.000000000000000000e+00 -1.394198825823177538e-05
0.000000000000000000e+00 0.000000000000000000e+00 -1.214997626957758661e-05
0.000000000000000000e+00 0.000000000000000000e+00 1.431751322692142620e-05
0.000000000000000000e+00 0.000000000000000000e+00 -1.294340706693474028e-05
0.000000000000000000e+00 0.000000000000000000e+00 1.511555130430674464e-05
-2.905370666597335532e-05 -4.150529523710479331e-06 1.515165229604780642e-05
4.223481381330374679e-04 1.525146054369302148e-04 -6.014633987346169365e-05
1.444502206600555058e-05 2.063574580857931441e-06 7.359898752423700452e-06
0.000000000000000000e+00 -0.000000000000000000e+00 -9.713969142969924465e-06
0.000000000000000000e+00 0.000000000000000000e+00 -8.262713454681956806e-06
0.000000000000000000e+00 0.000000000000000000e+00 -8.308175341142283476e-06
0.000000000000000000e+00 0.000000000000000000e+00 9.821901305238587906e-06
0.000000000000000000e+00 0.000000000000000000e+00 1.189767995240913866e-05
0.000000000000000000e+00 -0.000000000000000000e+00 2.350780532598569922e-07
-1.510370733300667179e-03 -6.219173607708615784e-04 -2.057933573857136198e-04
0.000000000000000000e+00 0.000000000000000000e+00 1.034343434343417691e-05
-0.000000000000000000e+00 0.000000000000000000e+00 1.334076891925523034e-20
-0.000000000000000000e+00 0.000000000000000000e+00 0.000000000000000000e+00
0.000000000000000000e+00 0.000000000000000000e+00 -1.034343434343437851e-05
2.224422260137276535e-05 -1.390263912585799952e-05 -7.676189784731440565e-06
-0.000000000000000000e+00 0.000000000000000000e+00 -7.369186641112412950e-20
-0.000000000000000000e+00 0.000000000000000000e+00 -4.383395502041004255e-20
-0.000000000000000000e+00 0.000000000000000000e+00 -8.046812998915853221e-20
-0.000000000000000000e+00 0.000000000000000000e+00 -8.766791004082008509e-20
0.000000000000000000e+00 0.000000000000000000e+00 5.576795303292398444e-07
0.000000000000000000e+00 0.000000000000000000e+00 5.613788868908487941e-07
0.000000000000000000e+00 0.000000000000000000e+00 1.243253385724222545e-05
0.000000000000000000e+00 0.000000000000000000e+00 -1.268411332822847898e-05
-0.000000000000000000e+00 0.000000000000000000e+00 -3.769296615281636509e-20
0.000000000000000000e+00 0.000000000000000000e+00 -1.369797859690837660e-05
0.000000000000000000e+00 0.000000000000000000e+00 -3.808768101567120824e-06
1.801892340771730082e-05 9.009461703858923152e-06 -4.006078827143844005e-06
0.000000000000000000e+00 0.000000000000000000e+00 1.007407407407399469e-05
0.000000000000000000e+00 0.000000000000000000e+00 3.864267600531139416e-07
0.000000000000000000e+00 -0.000000000000000000e+00 -2.435219723356113475e-20
-0.000000000000000000e+00 0.000000000000000000e+00 4.870439446712226950e-20
1.637153312130278299e-05 -1.023220820081420041e-05 -1.019390581717459314e-05
0.000000000000000000e+00 0.000000000000000000e+00 -1.040640792306062221e-05
0.000000000000000000e+00 -0.000000000000000000e+00 5.378659215064807153e-20
1.964428499407880593e-05 8.418979283176552701e-06 1.040441771305947702e-05
0.000000000000000000e+00 0.000000000000000000e+00 4.673195753963747043e-07
0.000000000000000000e+00 -0.000000000000000000e+00 4.617229842455063649e-07
-2.600668616081567594e-06 1.560401169648940726e-05 -1.395599441838406354e-06
0.000000000000000000e+00 -0.000000000000000000e+00 4.701561065197138785e-07
-2.858889053581767485e-06 5.717778107163534970e-06 -5.350861864995265014e-09
0.000000000000000000e+00 -0.000000000000000000e+00 5.613788868908631937e-07
0.000000000000000000e+00 -0.000000000000000000e+00 5.576795303292324328e-07
0.000000000000000000e+00 -0.000000000000000000e+00 5.540166204985774117e-07
0.000000000000000000e+00 -0.000000000000000000e+00 5.540166204985920230e-07
0.000000000000000000e+00 -0.000000000000000000e+00 5.576795303292398444e-07
0.000000000000000000e+00 -0.000000000000000000e+00 5.613788868908485824e-07
0.000000000000000000e+00 0.000000000000000000e+00 5.688888888889150176e-07
0.000000000000000000e+00 0.000000000000000000e+00 1.297238863114276702e-05
0.000000000000000000e+00 0.000000000000000000e+00 1.294340706693480805e-05
0.000000000000000000e+00 0.000000000000000000e+00 1.369797859690837660e-05
0.000000000000000000e+00 0.000000000000000000e+00 -1.278577582439595827e-06
1.519346867283326459e-05 6.511486574071437107e-06 5.115753489344071086e-06
0.000000000000000000e+00 0.000000000000000000e+00 3.928760522095517494e-07
0.000000000000000000e+00 -0.000000000000000000e+00 3.864267600531139416e-07
0.000000000000000000e+00 -0.000000000000000000e+00 3.843122537061633727e-07
0.000000000000000000e+00 -0.000000000000000000e+00 3.864267600531381879e-07
0.000000000000000000e+00 -0.000000000000000000e+00 -5.561719725948742040e-06
0.000000000000000000e+00 -0.000000000000000000e+00 4.730185419573303860e-07
0.000000000000000000e+00 -0.000000000000000000e+00 4.701561065196735386e-07
-9.486769009248163798e-20 5.578219402350415081e-06 2.639959449775021061e-07
0.000000000000000000e+00 -0.000000000000000000e+00 4.673195753963747043e-07
0.000000000000000000e+00 -0.000000000000000000e+00 4.617229842455062061e-07
0.000000000000000000e+00 0.000000000000000000e+00 -1.334076891925523034e-20
0.000000000000000000e+00 -0.000000000000000000e+00 4.701561065197677710e-07
0.000000000000000000e+00 -0.000000000000000000e+00 -3.703560819412798394e-06
0.000000000000000000e+00 0.000000000000000000e+00 -5.613788868908631937e-07
0.000000000000000000e+00 -0.000000000000000000e+00 5.576795303293058071e-07
0.000000000000000000e+00 -0.000000000000000000e+00 5.540166204986505742e-07
0.000000000000000000e+00 -0.000000000000000000e+00 5.540166204986286572e-07
0.000000000000000000e+00 -0.000000000000000000e+00 5.576795303292946898e-07
0.000000000000000000e+00 -0.000000000000000000e+00 5.613788868909662141e-07
0.000000000000000000e+00 -0.000000000000000000e+00 5.688888888889150176e-07
0.000000000000000000e+00 0.000000000000000000e+00 -1.694065894508600678e-20
0.000000000000000000e+00 0.000000000000000000e+00 3.790472438962994017e-20
0.000000000000000000e+00 0.000000000000000000e+00 -3.070494433796838729e-20
-4.254288280285417831e-06 8.508576560570835662e-06 5.266672389765113864e-07
2.164364181400371258e-06 -4.328728362800808584e-06 4.392386132841791359e-07
0.000000000000000000e+00 -0.000000000000000000e+00 3.928760522095518553e-07
0.000000000000000000e+00 -0.000000000000000000e+00 3.864267600531504170e-07
0.000000000000000000e+00 -0.000000000000000000e+00 3.843122537061267385e-07
0.000000000000000000e+00 0.000000000000000000e+00 -3.864267600531382938e-07
-2.075102930471718241e-06 8.300411721886872963e-06 -4.521948899289947947e-07
0.000000000000000000e+00 -0.000000000000000000e+00 4.730185419573304389e-07
0.000000000000000000e+00 -0.000000000000000000e+00 4.701561065197543244e-07
0.000000000000000000e+00 0.000000000000000000e+00 -4.817644623433404763e-06
0.000000000000000000e+00 0.000000000000000000e+00 -4.673195753963747043e-07
-0.000000000000000000e+00 0.000000000000000000e+00 0.000000000000000000e+00
-0.000000000000000000e+00 0.000000000000000000e+00 1.339370847845862411e-20
0.000000000000000000e+00 0.000000000000000000e+00 -4.701561065197676651e-07
0.000000000000000000e+00 0.000000000000000000e+00 3.703560819412798394e-06
0.000000000000000000e+00 0.000000000000000000e+00 2.922263668027336170e-20
0.000000000000000000e+00 -0.000000000000000000e+00 -2.932851579868014924e-20
0.000000000000000000e+00 -0.000000000000000000e+00 -1.461131834013668085e-20
0.000000000000000000e+00 -0.000000000000000000e+00 -1.461131834013668085e-20
0.000000000000000000e+00 -0.000000000000000000e+00 -3.303428494291771322e-20
0.000000000000000000e+00 -0.000000000000000000e+00 -2.752857078576476102e-20
0.000000000000000000e+00 -0.000000000000000000e+00 -1.492895569535704348e-20
0.000000000000000000e+00 -0.000000000000000000e+00 -1.683477982667921924e-20
0.000000000000000000e+00 -0.000000000000000000e+00 3.769296615281636509e-20
-0.000000000000000000e+00 0.000000000000000000e+00 3.070494433796838729e-20
-4.284567912173469052e-06 8.569135824346938105e-06 -1.157062457565451645e-07
2.152170580378421625e-06 -4.304341160756909318e-06 2.934778064152851533e-08
0.000000000000000000e+00 -0.000000000000000000e+00 0.000000000000000000e+00
0.000000000000000000e+00 -0.000000000000000000e+00 -1.217609861678056737e-20
-0.000000000000000000e+00 0.000000000000000000e+00 1.217609861678056737e-20
0.000000000000000000e+00 0.000000000000000000e+00 0.000000000000000000e+00
0.000000000000000000e+00 0.000000000000000000e+00 -1.238785685359414246e-20
-0.000000000000000000e+00 0.000000000000000000e+00 2.699917519373082331e-20
0.000000000000000000e+00 0.000000000000000000e+00 -4.701561065197543244e-07
0.000000000000000000e+00 0.000000000000000000e+00 4.817644623433404763e-06
0.000000000000000000e+00 0.000000000000000000e+00 5.357483391383449645e-20
0.000000000000000000e+00 -0.000000000000000000e+00 0.000000000000000000e+00
0.000000000000000000e+00 -0.000000000000000000e+00 -1.339370847845862411e-20
0.000000000000000000e+00 0.000000000000000000e+00 0.000000000000000000e+00
-2.885663133188047405e-06 5.771326266376094810e-06 -5.022905614185659929e-07
0.000000000000000000e+00 -0.000000000000000000e+00 2.932851579868014924e-20
-0.000000000000000000e+00 0.000000000000000000e+00 0.000000000000000000e+00
-0.000000000000000000e+00 0.000000000000000000e+00 7.305659170068340424e-21
0.000000000000000000e+00 -0.000000000000000000e+00 7.305659170068340424e-21
0.000000000000000000e+00 -0.000000000000000000e+00 2.191697751020502127e-20
-0.000000000000000000e+00 0.000000000000000000e+00 -3.123433993000232500e-20
-0.000000000000000000e+00 0.000000000000000000e+00 0.000000000000000000e+00
0.000000000000000000e+00 -0.000000000000000000e+00 1.799945012915388221e-21
0.000000000000000000e+00 0.000000000000000000e+00 -3.790472438962994017e-20
0.000000000000000000e+00 0.000000000000000000e+00 3.070494433796838729e-20
0.000000000000000000e+00 0.000000000000000000e+00 -6.484213725763423409e-06
0.000000000000000000e+00 0.000000000000000000e+00 -4.062685975004991277e-06
0.000000000000000000e+00 0.000000000000000000e+00 0.000000000000000000e+00
0.000000000000000000e+00 0.000000000000000000e+00 1.217609861678056737e-20
0.000000000000000000e+00 -0.000000000000000000e+00 2.435219723356113475e-20
-0.000000000000000000e+00 0.000000000000000000e+00 0.000000000000000000e+00
-0.000000000000000000e+00 0.000000000000000000e+00 1.238785685359414246e-20
0.000000000000000000e+00 0.000000000000000000e+00 2.699917519373082331e-20
0.000000000000000000e+00 0.000000000000000000e+00 -6.702148195149651433e-20
0.000000000000000000e+00 0.000000000000000000e+00 -5.985279952117839451e-06
0.000000000000000000e+00 -0.000000000000000000e+00 5.346895479542770890e-20
0.000000000000000000e+00 -0.000000000000000000e+00 0.000000000000000000e+00
0.000000000000000000e+00 -0.000000000000000000e+00 4.012818587617247856e-20
-0.000000000000000000e+00 0.000000000000000000e+00 0.000000000000000000e+00
2.885663133188047405e-06 -5.771326266376094810e-06 5.022905614185662047e-07
-0.000000000000000000e+00 0.000000000000000000e+00 0.000000000000000000e+00
0.000000000000000000e+00 -0.000000000000000000e+00 2.932851579868014924e-20
-0.000000000000000000e+00 0.000000000000000000e+00 -1.461131834013668085e-20
-0.000000000000000000e+00 0.000000000000000000e+00 -7.305659170068340424e-21
-0.000000000000000000e+00 0.000000000000000000e+00 -7.411538288475127967e-21
0.000000000000000000e+00 -0.000000000000000000e+00 -1.842296660278103237e-20
0.000000000000000000e+00 -0.000000000000000000e+00 0.000000000000000000e+00
-0.000000000000000000e+00 0.000000000000000000e+00 -1.492895569535704348e-20
0.000000000000000000e+00 0.000000000000000000e+00 1.905824131322175763e-20
0.000000000000000000e+00 0.000000000000000000e+00 7.623296525288703052e-21
0.000000000000000000e+00 0.000000000000000000e+00 6.484213725763423409e-06
0.000000000000000000e+00 0.000000000000000000e+00 4.062685975004991277e-06
0.000000000000000000e+00 0.000000000000000000e+00 -2.456395547037470983e-20
0.000000000000000000e+00 0.000000000000000000e+00 -1.217609861678056737e-20
-0.000000000000000000e+00 0.000000000000000000e+00 1.217609861678056737e-20
0.000000000000000000e+00 -0.000000000000000000e+00 0.000000000000000000e+00
0.000000000000000000e+00 0.000000000000000000e+00 1.238785685359414246e-20
0.000000000000000000e+00 0.000000000000000000e+00 -1.344664803766201788e-20
-0.000000000000000000e+00 0.000000000000000000e+00 6.707442151069990810e-20
0.000000000000000000e+00 0.000000000000000000e+00 5.985279952117840298e-06
-0.000000000000000000e+00 0.000000000000000000e+00 5.346895479542770890e-20
-0.000000000000000000e+00 0.000000000000000000e+00 0.000000000000000000e+00
-0.000000000000000000e+00 0.000000000000000000e+00 4.012818587617247856e-20
0.000000000000000000e+00 -0.000000000000000000e+00 0.000000000000000000e+00
0.000000000000000000e+00 0.000000000000000000e+00 -7.997984378936567076e-06
0.000000000000000000e+00 -0.000000000000000000e+00 0.000000000000000000e+00
0.000000000000000000e+00 -0.000000000000000000e+00 -1.471719745854346839e-20
0.000000000000000000e+00 -0.000000000000000000e+00 -1.461131834013668085e-20
0.000000000000000000e+00 -0.000000000000000000e+00 -7.305659170068340424e-21
0.000000000000000000e+00 -0.000000000000000000e+00 -7.411538288475127967e-21
0.000000000000000000e+00 -0.000000000000000000e+00 1.905824131322175763e-21
0.000000000000000000e+00 -0.000000000000000000e+00 1.058791184067875424e-22
0.000000000000000000e+00 -0.000000000000000000e+00 -1.683477982667921924e-20
0.000000000000000000e+00 -0.000000000000000000e+00 1.895236219481497009e-20
0.000000000000000000e+00 -0.000000000000000000e+00 7.729175643695490594e-21
4.345994625608235243e-05 2.172997312804112201e-05 -1.137628004938625611e-05
2.128056814564939472e-06 -4.256113629129878945e-06 2.901895656224792621e-08
-0.000000000000000000e+00 0.000000000000000000e+00 2.456395547037470983e-20
-0.000000000000000000e+00 0.000000000000000000e+00 1.217609861678056737e-20
0.000000000000000000e+00 -0.000000000000000000e+00 0.000000000000000000e+00
0.000000000000000000e+00 -0.000000000000000000e+00 0.000000000000000000e+00
-2.098418510793560301e-06 4.196837021586990158e-06 1.116538191572091102e-07
-0.000000000000000000e+00 0.000000000000000000e+00 1.344664803766201788e-20
0.000000000000000000e+00 -0.000000000000000000e+00 5.368071303224128399e-20
2.721548808685762247e-06 -8.164646426057286740e-06 5.283006510978514876e-07
-0.000000000000000000e+00 0.000000000000000000e+00 2.322543184787311883e-07
-0.000000000000000000e+00 0.000000000000000000e+00 2.308614921227598528e-07
-0.000000000000000000e+00 0.000000000000000000e+00 2.322543184787177417e-07
-0.000000000000000000e+00 0.000000000000000000e+00 2.365092709786314705e-07
0.000000000000000000e+00 0.000000000000000000e+00 5.651151753291912960e-07
-0.000000000000000000e+00 0.000000000000000000e+00 2.788397651646235221e-07
-0.000000000000000000e+00 0.000000000000000000e+00 2.788397651646235221e-07
-0.000000000000000000e+00 0.000000000000000000e+00 2.770083102492960115e-07
-0.000000000000000000e+00 0.000000000000000000e+00 2.770083102493106228e-07
-0.000000000000000000e+00 0.000000000000000000e+00 2.788397651646271220e-07
0.000000000000000000e+00 0.000000000000000000e+00 -1.905824131322175763e-21
0.000000000000000000e+00 0.000000000000000000e+00 -2.117582368135750848e-22
-0.000000000000000000e+00 0.000000000000000000e+00 2.902198188393281129e-07
-0.000000000000000000e+00 0.000000000000000000e+00 2.981979988118919860e-07
0.000000000000000000e+00 0.000000000000000000e+00 -7.835054762102278136e-21
-4.392837413995921625e-06 1.317851224198787076e-05 -6.260380592673377987e-07
2.116134927648560544e-06 -4.232269855297121088e-06 2.302852715382401024e-07
-0.000000000000000000e+00 0.000000000000000000e+00 1.953542321662715200e-07
-0.000000000000000000e+00 0.000000000000000000e+00 1.921561268530816334e-07
-0.000000000000000000e+00 0.000000000000000000e+00 1.921561268530816334e-07
-0.000000000000000000e+00 0.000000000000000000e+00 1.942793828593836916e-07
-2.110207378831665241e-06 4.220414757663200038e-06 3.137099739653758670e-07
-0.000000000000000000e+00 0.000000000000000000e+00 2.350780532598569922e-07
-0.000000000000000000e+00 0.000000000000000000e+00 2.336597876981940755e-07
2.705004439027983054e-06 -8.115013317083949587e-06 7.623194328169989230e-07
-0.000000000000000000e+00 0.000000000000000000e+00 -4.012818587617247856e-20
0.000000000000000000e+00 -0.000000000000000000e+00 1.334076891925523034e-20
-0.000000000000000000e+00 0.000000000000000000e+00 -2.668153783851046068e-20
0.000000000000000000e+00 0.000000000000000000e+00 2.365092709786313117e-07
-2.189269671733064335e-03 8.322843380142219477e-04 -2.678897071468125651e-04
0.000000000000000000e+00 0.000000000000000000e+00 2.788397651646237338e-07
0.000000000000000000e+00 -0.000000000000000000e+00 -2.191697751020502127e-20
-0.000000000000000000e+00 0.000000000000000000e+00 -1.461131834013668085e-20
0.000000000000000000e+00 0.000000000000000000e+00 2.770083102493107287e-07
0.000000000000000000e+00 -0.000000000000000000e+00 -1.471719745854346839e-20
0.000000000000000000e+00 0.000000000000000000e+00 2.825575876646096241e-07
0.000000000000000000e+00 0.000000000000000000e+00 2.863502645384274229e-07
0.000000000000000000e+00 0.000000000000000000e+00 2.902198188393282188e-07
0.000000000000000000e+00 0.000000000000000000e+00 2.981979988118919860e-07
0.000000000000000000e+00 0.000000000000000000e+00 -1.243186150129282981e-05
-4.424440560859154100e-06 1.327332168257756987e-05 -3.004833963792234651e-07
2.110207378831665241e-06 -6.330622136494930501e-06 1.151022206635631471e-07
0.000000000000000000e+00 0.000000000000000000e+00 1.953542321662713612e-07
0.000000000000000000e+00 -0.000000000000000000e+00 3.038730698274802466e-20
-0.000000000000000000e+00 0.000000000000000000e+00 -1.821120836596745729e-20
0.000000000000000000e+00 -0.000000000000000000e+00 -3.663417496874848966e-20
-4.785736151986796916e-20 3.049318610115481221e-19 -2.159934015498465865e-20
-0.000000000000000000e+00 0.000000000000000000e+00 6.670384459627615170e-21
-0.000000000000000000e+00 0.000000000000000000e+00 -2.011703249728963305e-20
0.000000000000000000e+00 0.000000000000000000e+00 -2.699917519373082331e-20
0.000000000000000000e+00 -0.000000000000000000e+00 2.322543184787044538e-07
0.000000000000000000e+00 -0.000000000000000000e+00 2.308614921227465121e-07
0.000000000000000000e+00 -0.000000000000000000e+00 2.322543184787044538e-07
0.000000000000000000e+00 0.000000000000000000e+00 0.000000000000000000e+00
-2.120599420466049391e-05 5.654931787909464591e-05 -3.700653890617219161e-06
0.000000000000000000e+00 0.000000000000000000e+00 1.461131834013668085e-20
0.000000000000000000e+00 -0.000000000000000000e+00 2.788397651646454391e-07
0.000000000000000000e+00 -0.000000000000000000e+00 2.770083102492887058e-07
0.000000000000000000e+00 0.000000000000000000e+00 -2.202285662861180882e-20
0.000000000000000000e+00 -0.000000000000000000e+00 2.788397651646528506e-07
0.000000000000000000e+00 -0.000000000000000000e+00 2.825575876646096241e-07
0.000000000000000000e+00 -0.000000000000000000e+00 2.863502645384274229e-07
0.000000000000000000e+00 0.000000000000000000e+00 -2.625802136488331051e-20
0.000000000000000000e+00 0.000000000000000000e+00 -1.905824131322175763e-20
0.000000000000000000e+00 0.000000000000000000e+00 1.243186150129283150e-05
-5.366899374560692989e-05 -1.788966458186904665e-05 1.307763180931256578e-05
2.098418510793560301e-06 -6.295255532380615681e-06 -8.584439362335677868e-08
0.000000000000000000e+00 0.000000000000000000e+00 2.445807635196792229e-20
0.000000000000000000e+00 -0.000000000000000000e+00 1.921561268530755983e-07
0.000000000000000000e+00 -0.000000000000000000e+00 1.921561268530876685e-07
0.000000000000000000e+00 -0.000000000000000000e+00 1.942793828593959207e-07
-2.774266743044115187e-05 6.402154022409501211e-06 1.081747201041333269e-05
0.000000000000000000e+00 -0.000000000000000000e+00 2.350780532598973322e-07
0.000000000000000000e+00 -0.000000000000000000e+00 2.336597876981337244e-07
-0.000000000000000000e+00 0.000000000000000000e+00 2.699917519373082331e-20
-0.000000000000000000e+00 0.000000000000000000e+00 0.000000000000000000e+00
-0.000000000000000000e+00 0.000000000000000000e+00 0.000000000000000000e+00
0.000000000000000000e+00 -0.000000000000000000e+00 0.000000000000000000e+00
-0.000000000000000000e+00 0.000000000000000000e+00 0.000000000000000000e+00
0.000000000000000000e+00 0.000000000000000000e+00 0.000000000000000000e+00
-0.000000000000000000e+00 0.000000000000000000e+00 -1.471719745854346839e-20
0.000000000000000000e+00 -0.000000000000000000e+00 0.000000000000000000e+00
0.000000000000000000e+00 -0.000000000000000000e+00 2.191697751020502127e-20
-0.000000000000000000e+00 0.000000000000000000e+00 2.202285662861180882e-20
-0.000000000000000000e+00 0.000000000000000000e+00 1.831708748437424483e-20
0.000000000000000000e+00 -0.000000000000000000e+00 0.000000000000000000e+00
0.000000000000000000e+00 -0.000000000000000000e+00 4.235164736271501695e-22
0.000000000000000000e+00 -0.000000000000000000e+00 -2.625802136488331051e-20
0.000000000000000000e+00 -0.000000000000000000e+00 -1.905824131322175763e-20
0.000000000000000000e+00 0.000000000000000000e+00 -7.835054762102278136e-21
5.835130667768462817e-05 2.244281026064780829e-05 -1.456502381407586078e-05
2.092557006573484699e-06 -4.185114013146839803e-06 2.741585382945326308e-08
0.000000000000000000e+00 -0.000000000000000000e+00 2.445807635196792229e-20
-0.000000000000000000e+00 0.000000000000000000e+00 2.435219723356113475e-20
0.000000000000000000e+00 -0.000000000000000000e+00 0.000000000000000000e+00
0.000000000000000000e+00 -0.000000000000000000e+00 2.445807635196792229e-20
3.378548138947438722e-05 -9.009461703860217419e-06 1.190622044687609494e-06
0.000000000000000000e+00 -0.000000000000000000e+00 -1.344664803766201788e-20
0.000000000000000000e+00 -0.000000000000000000e+00 5.362777347303789022e-20
-0.000000000000000000e+00 0.000000000000000000e+00 2.699917519373082331e-20
0.000000000000000000e+00 -0.000000000000000000e+00 5.346895479542770890e-20
0.000000000000000000e+00 -0.000000000000000000e+00 0.000000000000000000e+00
0.000000000000000000e+00 -0.000000000000000000e+00 4.012818587617247856e-20
-0.000000000000000000e+00 0.000000000000000000e+00 0.000000000000000000e+00
0.000000000000000000e+00 -0.000000000000000000e+00 0.000000000000000000e+00
0.000000000000000000e+00 0.000000000000000000e+00 -1.482307657695025593e-20
0.000000000000000000e+00 -0.000000000000000000e+00 -1.461131834013668085e-20
0.000000000000000000e+00 -0.000000000000000000e+00 -3.652829585034170212e-20
0.000000000000000000e+00 -0.000000000000000000e+00 -1.461131834013668085e-20
0.000000000000000000e+00 0.000000000000000000e+00 1.842296660278103237e-20
0.000000000000000000e+00 -0.000000000000000000e+00 0.000000000000000000e+00
0.000000000000000000e+00 -0.000000000000000000e+00 -1.482307657695025593e-20
-0.000000000000000000e+00 0.000000000000000000e+00 -2.625802136488331051e-20
0.000000000000000000e+00 0.000000000000000000e+00 1.905824131322175763e-20
-0.000000000000000000e+00 0.000000000000000000e+00 7.835054762102278136e-21
3.723685602454347981e-05 -1.117105680736268751e-04 -6.019626511347203276e-05
2.080899307372526764e-06 -4.161798614744924779e-06 2.264508069787782863e-07
-0.000000000000000000e+00 0.000000000000000000e+00 1.942793828594265197e-07
-0.000000000000000000e+00 0.000000000000000000e+00 1.921561268530694573e-07
-0.000000000000000000e+00 0.000000000000000000e+00 1.921561268530938095e-07
-0.000000000000000000e+00 0.000000000000000000e+00 1.942793828594142378e-07
-3.378548138947438722e-05 9.009461703860219113e-06 -1.190622044687609494e-06
-0.000000000000000000e+00 0.000000000000000000e+00 2.350780532598771092e-07
-0.000000000000000000e+00 0.000000000000000000e+00 2.336597876982007988e-07
0.000000000000000000e+00 0.000000000000000000e+00 2.699917519373082331e-20
0.000000000000000000e+00 0.000000000000000000e+00 -5.357483391383449645e-20
-0.000000000000000000e+00 0.000000000000000000e+00 2.308614921227598528e-07
-0.000000000000000000e+00 0.000000000000000000e+00 2.322543184787847102e-07
0.000000000000000000e+00 0.000000000000000000e+00 0.000000000000000000e+00
-0.000000000000000000e+00 0.000000000000000000e+00 2.825575876645874953e-07
0.000000000000000000e+00 0.000000000000000000e+00 -2.788397651646673560e-07
-0.000000000000000000e+00 0.000000000000000000e+00 2.788397651646014992e-07
-0.000000000000000000e+00 0.000000000000000000e+00 2.770083102492740945e-07
-0.000000000000000000e+00 0.000000000000000000e+00 2.788397651645868879e-07
0.000000000000000000e+00 0.000000000000000000e+00 -2.806894434455052887e-07
-0.000000000000000000e+00 0.000000000000000000e+00 2.825575876645967068e-07
-0.000000000000000000e+00 0.000000000000000000e+00 2.863502645383907887e-07
0.000000000000000000e+00 0.000000000000000000e+00 -2.625802136488331051e-20
0.000000000000000000e+00 0.000000000000000000e+00 -3.023110260861360787e-07
0.000000000000000000e+00 0.000000000000000000e+00 7.835054762102278136e-21
5.977870347787968275e-04 3.362552070630732155e-04 -6.387450368274813018e-05
2.075102930471718241e-06 -8.300411721886872963e-06 2.774201778704556438e-09
0.000000000000000000e+00 0.000000000000000000e+00 1.942793828594264668e-07
-0.000000000000000000e+00 0.000000000000000000e+00 1.921561268530329290e-07
-0.000000000000000000e+00 0.000000000000000000e+00 1.921561268530451051e-07
0.000000000000000000e+00 0.000000000000000000e+00 1.942793828594143966e-07
2.013246467431290074e-04 -5.536427785436067491e-05 -2.531832380683031133e-05
-0.000000000000000000e+00 0.000000000000000000e+00 2.350780532598637685e-07
-0.000000000000000000e+00 0.000000000000000000e+00 2.336597876981940225e-07
0.000000000000000000e+00 0.000000000000000000e+00 -5.378659215064807153e-20
0.000000000000000000e+00 0.000000000000000000e+00 0.000000000000000000e+00
-0.000000000000000000e+00 0.000000000000000000e+00 2.308614921227596940e-07
-0.000000000000000000e+00 0.000000000000000000e+00 2.322543184786776664e-07
-2.729871587917302654e-06 1.091948635166890060e-05 -9.802720702066072910e-07
-0.000000000000000000e+00 0.000000000000000000e+00 2.825575876646169297e-07
-0.000000000000000000e+00 0.000000000000000000e+00 2.788397651646675678e-07
-0.000000000000000000e+00 0.000000000000000000e+00 2.788397651646601563e-07
-0.000000000000000000e+00 0.000000000000000000e+00 2.770083102492961174e-07
-0.000000000000000000e+00 0.000000000000000000e+00 2.788397651646748735e-07
-0.000000000000000000e+00 0.000000000000000000e+00 2.806894434455052887e-07
-0.000000000000000000e+00 0.000000000000000000e+00 2.825575876645931069e-07
0.000000000000000000e+00 0.000000000000000000e+00 2.863502645383907887e-07
0.000000000000000000e+00 0.000000000000000000e+00 -3.769296615281636509e-20
-0.000000000000000000e+00 0.000000000000000000e+00 3.023110260861358670e-07
0.000000000000000000e+00 -0.000000000000000000e+00 1.670421668205608146e-05
1.189002619902230443e-04 5.945013099511152217e-05 -4.082560243469992049e-05
2.063574580857931441e-06 -8.254298323431725766e-06 2.008398789926042658e-07
0.000000000000000000e+00 0.000000000000000000e+00 1.932133800265508298e-07
-0.000000000000000000e+00 0.000000000000000000e+00 1.217609861678056737e-20
0.000000000000000000e+00 -0.000000000000000000e+00 0.000000000000000000e+00
0.000000000000000000e+00 0.000000000000000000e+00 1.953542321663204891e-07
-2.721548808685762247e-06 1.905084166080002402e-05 -2.541519082677922008e-05
0.000000000000000000e+00 0.000000000000000000e+00 2.350780532598637685e-07
0.000000000000000000e+00 0.000000000000000000e+00 2.336597876981939167e-07
-0.000000000000000000e+00 0.000000000000000000e+00 5.378659215064807153e-20
0.000000000000000000e+00 -0.000000000000000000e+00 0.000000000000000000e+00
0.000000000000000000e+00 -0.000000000000000000e+00 1.334076891925523034e-20
0.000000000000000000e+00 0.000000000000000000e+00 2.322543184786775605e-07
-2.746619266370600523e-06 1.098647706548209038e-05 -7.461404210246701802e-07
0.000000000000000000e+00 0.000000000000000000e+00 2.825575876646168238e-07
-0.000000000000000000e+00 0.000000000000000000e+00 -2.943439491708693678e-20
-0.000000000000000000e+00 0.000000000000000000e+00 -2.922263668027336170e-20
0.000000000000000000e+00 0.000000000000000000e+00 2.770083102492961174e-07
0.000000000000000000e+00 -0.000000000000000000e+00 3.663417496874848966e-20
-0.000000000000000000e+00 0.000000000000000000e+00 -5.526889980834309712e-20
0.000000000000000000e+00 0.000000000000000000e+00 2.825575876645931069e-07
