ply
            format ascii 1.0
            element vertex 27157
            property float x
            property float y
            property float z
            property float nx
            property float ny
            property float nz
end_header
0.24643086816720 -0.16668810289389 1.92411575562701 0.00000000000000 0.00000000000000 1.00000000000000
0.26784810126582 -0.16405063291139 1.89367088607595 0.00000000000000 -0.00000000000000 -1.00000000000000
0.29132075471698 -0.16301886792453 1.88176100628931 0.00000000000000 -0.00000000000000 -1.00000000000000
-0.46497652582160 -0.24262910798122 2.80938967136150 -0.00000000000000 0.00000000000000 1.00000000000000
-0.42741784037559 -0.24262910798122 2.80938967136150 -0.00000000000000 0.00000000000000 -1.00000000000000
-0.25472392638037 -0.15852760736196 1.83558282208589 -0.00000000000000 -0.00000000000000 -1.00000000000000
-0.23018404907975 -0.15852760736196 1.83558282208589 -0.00000000000000 0.00000000000000 1.00000000000000
-0.20755417956656 -0.16000000000000 1.85263157894737 0.00000000000000 0.00000000000000 -1.00000000000000
-0.20500000000000 -0.17944444444444 2.07777777777778 0.00000000000000 0.00000000000000 -1.00000000000000
-0.17539518900344 -0.17759450171821 2.05635738831615 0.00000000000000 0.00000000000000 -1.00000000000000
-0.14739726027397 -0.17698630136986 2.04931506849315 0.00000000000000 -0.00000000000000 -1.00000000000000
-0.11959044368601 -0.17638225255973 2.04232081911263 0.00000000000000 -0.00000000000000 -1.00000000000000
-0.09197278911565 -0.17578231292517 2.03537414965986 0.00000000000000 0.00000000000000 -1.00000000000000
-0.06498293515358 -0.17638225255973 2.04232081911263 0.00000000000000 -0.00000000000000 -1.00000000000000
-0.03780821917808 -0.17698630136986 2.04931506849315 0.00000000000000 0.00000000000000 -1.00000000000000
-0.01051903114187 -0.17882352941176 2.07058823529412 0.00000000000000 -0.00000000000000 -1.00000000000000
0.01734265734266 -0.18069930069930 2.09230769230769 -0.00000000000000 0.00000000000000 -1.00000000000000
0.04628571428571 -0.18457142857143 2.13714285714286 0.00000000000000 0.00000000000000 1.00000000000000
0.09703703703704 -0.23925925925926 2.77037037037037 0.24653453584023 -0.49306907168047 -0.83432824067642
0.16370370370370 -0.23925925925926 2.77037037037037 -0.00000000000000 -0.00000000000000 -1.00000000000000
0.20074074074074 -0.23925925925926 2.77037037037037 -0.00000000000000 -0.00000000000000 -1.00000000000000
0.14426966292135 -0.14516853932584 1.68089887640449 0.00000000000000 0.00000000000000 1.00000000000000
0.16581005586592 -0.14435754189944 1.67150837988827 -0.00000000000000 -0.00000000000000 -1.00000000000000
0.18868347338936 -0.14476190476190 1.67619047619048 0.00000000000000 0.00000000000000 1.00000000000000
0.24309677419355 -0.16670967741935 1.93032258064516 0.91698181102725 -0.36679272441090 0.15686763708430
0.26463492063492 -0.16406349206349 1.89968253968254 0.00000000000000 0.00000000000000 1.00000000000000
0.28729559748428 -0.16251572327044 1.88176100628931 -0.00000000000000 -0.00000000000000 -1.00000000000000
0.31245283018868 -0.16251572327044 1.88176100628931 -0.00000000000000 -0.00000000000000 -1.00000000000000
-0.43342723004695 -0.24187793427230 2.80938967136150 0.00000000000000 0.00000000000000 1.00000000000000
-0.25865030674847 -0.15803680981595 1.83558282208589 -0.00000000000000 0.00000000000000 1.00000000000000
-0.23339449541284 -0.15755351681957 1.82996941896024 -0.00000000000000 -0.00000000000000 -1.00000000000000
-0.21086419753086 -0.15901234567901 1.84691358024691 0.00000000000000 0.00000000000000 -1.00000000000000
-0.21017421602787 -0.17951219512195 2.08501742160279 -0.00000000000000 -0.00000000000000 -1.00000000000000
-0.18041379310345 -0.17765517241379 2.06344827586207 -0.00000000000000 -0.00000000000000 -1.00000000000000
-0.15178082191781 -0.17643835616438 2.04931506849315 -0.00000000000000 -0.00000000000000 -1.00000000000000
-0.12395904436860 -0.17583617747440 2.04232081911263 -0.00000000000000 -0.00000000000000 -1.00000000000000
-0.09632653061224 -0.17523809523810 2.03537414965986 -0.00000000000000 -0.00000000000000 -1.00000000000000
-0.06935153583618 -0.17583617747440 2.04232081911263 -0.00000000000000 -0.00000000000000 -1.00000000000000
-0.04219178082192 -0.17643835616438 2.04931506849315 0.00000000000000 0.00000000000000 -1.00000000000000
-0.01489655172414 -0.17765517241379 2.06344827586207 0.00000000000000 0.00000000000000 -1.00000000000000
0.01286713286713 -0.18013986013986 2.09230769230769 0.00000000000000 0.00000000000000 1.00000000000000
0.04156583629893 -0.18334519572954 2.12953736654804 0.00000000000000 0.00000000000000 -1.00000000000000
0.07261992619926 -0.19011070110701 2.20811808118081 -0.79712634304342 0.00000000000000 0.60381254808609
0.15777777777778 -0.23851851851852 2.77037037037037 0.00000000000000 0.00000000000000 1.00000000000000
0.19481481481481 -0.23851851851852 2.77037037037037 0.00000000000000 0.00000000000000 1.00000000000000
0.14107042253521 -0.14512676056338 1.68563380281690 0.88300673092557 0.32109335670021 0.34234218177596
0.16223463687151 -0.14391061452514 1.67150837988827 0.00000000000000 0.00000000000000 1.00000000000000
0.18458100558659 -0.14391061452514 1.67150837988827 0.00000000000000 0.00000000000000 1.00000000000000
0.23077881619938 -0.16049844236760 1.86417445482866 -0.98087057596839 -0.00613044109980 0.19456446461614
0.26057142857143 -0.16355555555556 1.89968253968254 0.00000000000000 0.00000000000000 -1.00000000000000
0.28327044025157 -0.16201257861635 1.88176100628931 0.00000000000000 0.00000000000000 -1.00000000000000
0.30842767295597 -0.16201257861635 1.88176100628931 0.00000000000000 0.00000000000000 1.00000000000000
-0.43943661971831 -0.24112676056338 2.80938967136150 0.00000000000000 0.00000000000000 1.00000000000000
-0.26338461538462 -0.15803076923077 1.84123076923077 0.00000000000000 0.00000000000000 1.00000000000000
-0.23730886850153 -0.15706422018349 1.82996941896024 0.00000000000000 0.00000000000000 1.00000000000000
-0.21415384615385 -0.15803076923077 1.84123076923077 0.00000000000000 0.00000000000000 1.00000000000000
-0.21463414634146 -0.17895470383275 2.08501742160279 0.00000000000000 0.00000000000000 -1.00000000000000
-0.18482758620690 -0.17710344827586 2.06344827586207 0.00000000000000 0.00000000000000 -1.00000000000000
-0.15616438356164 -0.17589041095890 2.04931506849315 0.00000000000000 0.00000000000000 -1.00000000000000
-0.12832764505119 -0.17529010238908 2.04232081911263 0.00000000000000 0.00000000000000 1.00000000000000
-0.10068027210884 -0.17469387755102 2.03537414965986 0.00000000000000 0.00000000000000 -1.00000000000000
-0.07372013651877 -0.17529010238908 2.04232081911263 0.00000000000000 0.00000000000000 1.00000000000000
-0.04657534246575 -0.17589041095890 2.04931506849315 0.00000000000000 0.00000000000000 1.00000000000000
-0.01931034482759 -0.17710344827586 2.06344827586207 0.00000000000000 0.00000000000000 1.00000000000000
0.00836236933798 -0.17895470383275 2.08501742160279 nan nan nan
0.03687943262411 -0.18212765957447 2.12198581560284 0.00000000000000 0.00000000000000 1.00000000000000
0.06715328467153 -0.18744525547445 2.18394160583942 0.65805104750161 -0.65805104750161 -0.36597491411854
0.15479069767442 -0.23888372093023 2.78325581395349 0.00000000000000 0.00000000000000 1.00000000000000
0.19111111111111 -0.23777777777778 2.77037037037037 0.00000000000000 0.00000000000000 -1.00000000000000
0.13920903954802 -0.14508474576271 1.69039548022599 0.00000000000000 -0.00000000000000 -1.00000000000000
0.16000000000000 -0.14346368715084 1.67150837988827 0.00000000000000 0.00000000000000 -1.00000000000000
0.18234636871508 -0.14346368715084 1.67150837988827 0.00000000000000 0.00000000000000 -1.00000000000000
0.20818181818182 -0.14590909090909 1.70000000000000 -0.00000000000000 -0.00000000000000 -1.00000000000000
0.25885350318471 -0.16356687898089 1.90573248407643 -0.00000000000000 -0.00000000000000 -1.00000000000000
0.28164037854890 -0.16201892744479 1.88769716088328 -0.00000000000000 -0.00000000000000 -1.00000000000000
0.30591194968553 -0.16150943396226 1.88176100628931 0.00000000000000 0.00000000000000 -1.00000000000000
-0.44319248826291 -0.24037558685446 2.80938967136150 0.00000000000000 0.00000000000000 -1.00000000000000
-0.26584615384615 -0.15753846153846 1.84123076923077 -0.16641962668692 -0.83209813343461 -0.52907202173998
-0.23975535168196 -0.15657492354740 1.82996941896024 0.00000000000000 0.00000000000000 -1.00000000000000
-0.21661538461538 -0.15753846153846 1.84123076923077 0.00000000000000 0.00000000000000 -1.00000000000000
-0.21818181818182 -0.17902097902098 2.09230769230769 0.89918395888023 0.00000000000000 0.43757080351925
-0.18758620689655 -0.17655172413793 2.06344827586207 -0.00000000000000 -0.00000000000000 -1.00000000000000
-0.15890410958904 -0.17534246575342 2.04931506849315 -0.00000000000000 -0.00000000000000 -1.00000000000000
-0.13105802047782 -0.17474402730375 2.04232081911263 0.00000000000000 0.00000000000000 -1.00000000000000
-0.10340136054422 -0.17414965986395 2.03537414965986 -0.00000000000000 -0.00000000000000 -1.00000000000000
-0.07645051194539 -0.17474402730375 2.04232081911263 0.00000000000000 0.00000000000000 -1.00000000000000
-0.04914675767918 -0.17474402730375 2.04232081911263 0.12319386967228 0.98555095737820 0.11624362729236
-0.02199312714777 -0.17594501718213 2.05635738831615 0.00000000000000 0.00000000000000 1.00000000000000
0.00555555555556 -0.17777777777778 2.07777777777778 0.00000000000000 0.00000000000000 1.00000000000000
0.03392226148410 -0.18091872791519 2.11448763250883 0.65813577100408 -0.65813577100408 -0.36567008880921
0.06400000000000 -0.18618181818182 2.17600000000000 0.65805104750161 -0.65805104750161 -0.36597491411854
0.14883720930233 -0.23813953488372 2.78325581395349 0.00000000000000 0.00000000000000 1.00000000000000
0.18518518518519 -0.23703703703704 2.77037037037037 0.00000000000000 0.00000000000000 1.00000000000000
0.13636363636364 -0.14545454545455 1.70000000000000 -0.70056334111566 0.58380278426305 -0.41034779659646
0.15642458100559 -0.14301675977654 1.67150837988827 0.00000000000000 0.00000000000000 -1.00000000000000
0.17927170868347 -0.14341736694678 1.67619047619048 -0.83313635582013 0.07573966871092 -0.54785702075843
0.20338983050847 -0.14463276836158 1.69039548022599 -0.87354722678325 0.07941338425302 0.48021740595357
0.25477707006369 -0.16305732484076 1.90573248407643 0.00000000000000 0.00000000000000 -1.00000000000000
0.27760252365931 -0.16151419558360 1.88769716088328 0.00000000000000 0.00000000000000 1.00000000000000
0.30188679245283 -0.16100628930818 1.88176100628931 0.00000000000000 0.00000000000000 1.00000000000000
-0.44920187793427 -0.23962441314554 2.80938967136150 0.00000000000000 0.00000000000000 1.00000000000000
-0.27061728395062 -0.15753086419753 1.84691358024691 -0.00000000000000 0.00000000000000 1.00000000000000
-0.24366972477064 -0.15608562691131 1.82996941896024 0.00000000000000 0.00000000000000 1.00000000000000
-0.21987730061350 -0.15656441717791 1.83558282208589 0.00000000000000 0.00000000000000 1.00000000000000
-0.22111111111111 -0.17722222222222 2.07777777777778 0.00000000000000 0.00000000000000 -1.00000000000000
-0.19200000000000 -0.17600000000000 2.06344827586207 -0.00000000000000 -0.00000000000000 1.00000000000000
-0.16328767123288 -0.17479452054795 2.04931506849315 0.00000000000000 0.00000000000000 -1.00000000000000
-0.13542662116041 -0.17419795221843 2.04232081911263 0.00000000000000 0.00000000000000 1.00000000000000
-0.10775510204082 -0.17360544217687 2.03537414965986 0.00000000000000 0.00000000000000 -1.00000000000000
-0.08054421768707 -0.17360544217687 2.03537414965986 0.00000000000000 0.00000000000000 -1.00000000000000
-0.05351535836177 -0.17419795221843 2.04232081911263 0.00000000000000 0.00000000000000 -1.00000000000000
-0.02639175257732 -0.17539518900344 2.05635738831615 0.00000000000000 0.00000000000000 1.00000000000000
0.00111111111111 -0.17722222222222 2.07777777777778 0.00000000000000 0.00000000000000 1.00000000000000
0.02929577464789 -0.17971830985915 2.10704225352113 0.00000000000000 0.00000000000000 -1.00000000000000
0.05891696750903 -0.18425992779783 2.16028880866426 0.00000000000000 0.00000000000000 -1.00000000000000
0.14704761904762 -0.24304761904762 2.84952380952381 0.40682290988117 -0.90405091084704 -0.13109946831494
0.18000000000000 -0.23629629629630 2.77037037037037 0.00000000000000 0.00000000000000 -1.00000000000000
0.13356125356125 -0.14541310541311 1.70484330484330 -0.86555301683062 0.00000000000000 -0.50081730706457
0.15372549019608 -0.14296918767507 1.67619047619048 0.00000000000000 0.00000000000000 1.00000000000000
0.17564245810056 -0.14256983240223 1.67150837988827 0.00000000000000 0.00000000000000 1.00000000000000
0.19966197183099 -0.14377464788732 1.68563380281690 -0.00000000000000 0.00000000000000 1.00000000000000
0.25201277955272 -0.16306709265176 1.91182108626198 0.00000000000000 0.00000000000000 1.00000000000000
0.27406940063091 -0.16100946372240 1.88769716088328 0.00000000000000 0.00000000000000 -1.00000000000000
0.29836477987421 -0.16050314465409 1.88176100628931 0.00000000000000 0.00000000000000 -1.00000000000000
-0.45446009389671 -0.23887323943662 2.80938967136150 0.00000000000000 0.00000000000000 -1.00000000000000
-0.27577639751553 -0.15801242236025 1.85838509316770 -0.00000000000000 0.00000000000000 1.00000000000000
-0.24709480122324 -0.15559633027523 1.82996941896024 0.00000000000000 0.00000000000000 -1.00000000000000
-0.22331288343558 -0.15607361963190 1.83558282208589 0.00000000000000 0.00000000000000 -1.00000000000000
-0.20186915887850 -0.15850467289720 1.86417445482866 0.00000000000000 -0.00000000000000 1.00000000000000
-0.19653979238754 -0.17605536332180 2.07058823529412 0.00000000000000 0.00000000000000 1.00000000000000
-0.16712328767123 -0.17424657534247 2.04931506849315 0.00000000000000 0.00000000000000 -1.00000000000000
-0.13924914675768 -0.17365187713311 2.04232081911263 0.00000000000000 0.00000000000000 -1.00000000000000
-0.11156462585034 -0.17306122448980 2.03537414965986 0.00000000000000 0.00000000000000 -1.00000000000000
-0.08435374149660 -0.17306122448980 2.03537414965986 0.00000000000000 0.00000000000000 -1.00000000000000
-0.05733788395904 -0.17365187713311 2.04232081911263 0.00000000000000 0.00000000000000 -1.00000000000000
-0.03013698630137 -0.17424657534247 2.04931506849315 0.00000000000000 0.00000000000000 -1.00000000000000
-0.00276816608997 -0.17605536332180 2.07058823529412 0.00000000000000 0.00000000000000 1.00000000000000
0.02526315789474 -0.17852631578947 2.09964912280702 0.60871070323508 -0.71016248710759 -0.35375206242821
0.05448028673835 -0.18236559139785 2.14480286738351 -0.00000000000000 0.00000000000000 -1.00000000000000
0.14745098039216 -0.24941176470588 2.93333333333333 -0.30665578888416 0.91996736665249 0.24417672173718
0.17629629629630 -0.23555555555556 2.77037037037037 0.00000000000000 0.00000000000000 -1.00000000000000
0.13837837837838 -0.15279279279279 1.79699699699700 -0.98073771249162 -0.15691803399866 0.11631968837086
0.15148459383754 -0.14252100840336 1.67619047619048 0.00000000000000 0.00000000000000 -1.00000000000000
0.17340782122905 -0.14212290502793 1.67150837988827 0.00000000000000 0.00000000000000 -1.00000000000000
0.19685393258427 -0.14292134831461 1.68089887640449 0.00000000000000 0.00000000000000 -1.00000000000000
0.24945686900958 -0.16255591054313 1.91182108626198 -0.00000000000000 0.00000000000000 1.00000000000000
0.27240506329114 -0.16101265822785 1.89367088607595 0.00000000000000 0.00000000000000 -1.00000000000000
0.29584905660377 -0.16000000000000 1.88176100628931 0.00000000000000 0.00000000000000 -1.00000000000000
-0.45821596244131 -0.23812206572770 2.80938967136150 0.00000000000000 0.00000000000000 -1.00000000000000
-0.32000000000000 -0.18114285714286 2.13714285714286 -0.97433486719202 0.10116045069207 -0.20109234144961
-0.24954128440367 -0.15510703363914 1.82996941896024 -0.00000000000000 -0.00000000000000 1.00000000000000
-0.22576687116564 -0.15558282208589 1.83558282208589 -0.00000000000000 -0.00000000000000 1.00000000000000
-0.20372670807453 -0.15751552795031 1.85838509316770 0.00000000000000 0.00000000000000 -1.00000000000000
-0.19930795847751 -0.17550173010381 2.07058823529412 0.00000000000000 0.00000000000000 -1.00000000000000
-0.16986301369863 -0.17369863013699 2.04931506849315 0.00000000000000 0.00000000000000 -1.00000000000000
-0.14197952218430 -0.17310580204778 2.04232081911263 0.00000000000000 0.00000000000000 -1.00000000000000
-0.11428571428571 -0.17251700680272 2.03537414965986 0.00000000000000 0.00000000000000 -1.00000000000000
-0.08707482993197 -0.17251700680272 2.03537414965986 0.00000000000000 0.00000000000000 -1.00000000000000
-0.06006825938567 -0.17310580204778 2.04232081911263 0.00000000000000 -0.00000000000000 -1.00000000000000
-0.03287671232877 -0.17369863013699 2.04931506849315 0.00000000000000 0.00000000000000 -1.00000000000000
-0.00553633217993 -0.17550173010381 2.07058823529412 0.00000000000000 -0.00000000000000 -1.00000000000000
0.02237762237762 -0.17734265734266 2.09230769230769 0.00000000000000 0.00000000000000 -1.00000000000000
0.05142857142857 -0.18114285714286 2.13714285714286 0.52948362299427 -0.79422543449141 -0.29808229096643
0.10873786407767 -0.24621359223301 2.90485436893204 -0.82306696317197 0.51983176621388 0.22876999141021
0.17333333333333 -0.23481481481481 2.77037037037037 0.00000000000000 0.00000000000000 -1.00000000000000
0.20654545454545 -0.23054545454545 2.72000000000000 0.99089283220378 -0.07077805944313 -0.11455069353188
0.14969187675070 -0.14207282913165 1.67619047619048 0.00000000000000 0.00000000000000 -1.00000000000000
0.17162011173184 -0.14167597765363 1.67150837988827 0.00000000000000 0.00000000000000 -1.00000000000000
0.19505617977528 -0.14247191011236 1.68089887640449 0.00000000000000 0.00000000000000 -1.00000000000000
0.24820512820513 -0.16256410256410 1.91794871794872 0.00000000000000 0.00000000000000 -1.00000000000000
0.27037974683544 -0.16050632911392 1.89367088607595 0.00000000000000 0.00000000000000 -1.00000000000000
0.29383647798742 -0.15949685534591 1.88176100628931 0.00000000000000 0.00000000000000 -1.00000000000000
-0.46122065727700 -0.23737089201878 2.80938967136150 0.00000000000000 0.00000000000000 -1.00000000000000
-0.40466367713004 -0.22672645739910 2.68340807174888 0.91156109548040 0.36462443819216 0.19001417915415
-0.25226993865031 -0.15509202453988 1.83558282208589 0.00000000000000 0.00000000000000 -1.00000000000000
-0.22703363914373 -0.15461773700306 1.82996941896024 0.00000000000000 0.00000000000000 -1.00000000000000
-0.20507739938080 -0.15653250773994 1.85263157894737 0.00000000000000 0.00000000000000 -1.00000000000000
-0.20152249134948 -0.17494809688581 2.07058823529412 0.00000000000000 0.00000000000000 -1.00000000000000
-0.17205479452055 -0.17315068493151 2.04931506849315 0.00000000000000 0.00000000000000 -1.00000000000000
-0.14416382252560 -0.17255972696246 2.04232081911263 0.00000000000000 0.00000000000000 -1.00000000000000
-0.11646258503401 -0.17197278911565 2.03537414965986 0.00000000000000 0.00000000000000 -1.00000000000000
-0.08925170068027 -0.17197278911565 2.03537414965986 0.00000000000000 0.00000000000000 -1.00000000000000
-0.06204081632653 -0.17197278911565 2.03537414965986 0.00000000000000 0.00000000000000 -1.00000000000000
-0.03506849315068 -0.17315068493151 2.04931506849315 0.00000000000000 0.00000000000000 -1.00000000000000
-0.00772413793103 -0.17434482758621 2.06344827586207 0.00000000000000 0.00000000000000 -1.00000000000000
0.02013986013986 -0.17678321678322 2.09230769230769 0.00000000000000 0.00000000000000 -1.00000000000000
0.04896797153025 -0.17992882562278 2.12953736654804 0.00000000000000 0.00000000000000 -1.00000000000000
0.08401544401544 -0.19521235521236 2.31042471042471 -0.76974227811480 0.63587405583396 0.05622286367583
0.17185185185185 -0.23407407407407 2.77037037037037 0.00000000000000 0.00000000000000 -1.00000000000000
0.20888888888889 -0.23407407407407 2.77037037037037 0.00000000000000 0.00000000000000 -1.00000000000000
0.14921348314607 -0.14202247191011 1.68089887640449 0.00000000000000 0.00000000000000 -1.00000000000000
0.17072625698324 -0.14122905027933 1.67150837988827 0.00000000000000 0.00000000000000 -1.00000000000000
0.19415730337079 -0.14202247191011 1.68089887640449 0.00000000000000 0.00000000000000 -1.00000000000000
0.24717948717949 -0.16205128205128 1.91794871794872 0.00000000000000 0.00000000000000 -1.00000000000000
0.26936708860759 -0.16000000000000 1.89367088607595 0.00000000000000 0.00000000000000 -1.00000000000000
0.29283018867925 -0.15899371069182 1.88176100628931 0.00000000000000 0.00000000000000 -1.00000000000000
-0.46272300469484 -0.23661971830986 2.80938967136150 0.00000000000000 0.00000000000000 -1.00000000000000
-0.42516431924883 -0.23661971830986 2.80938967136150 0.00000000000000 0.00000000000000 -1.00000000000000
-0.25325153374233 -0.15460122699387 1.83558282208589 0.00000000000000 0.00000000000000 -1.00000000000000
-0.22801223241590 -0.15412844036697 1.82996941896024 0.00000000000000 0.00000000000000 -1.00000000000000
-0.20606811145511 -0.15603715170279 1.85263157894737 0.00000000000000 0.00000000000000 -1.00000000000000
-0.20262975778547 -0.17439446366782 2.07058823529412 0.00000000000000 0.00000000000000 -1.00000000000000
-0.17315068493151 -0.17260273972603 2.04931506849315 0.00000000000000 0.00000000000000 -1.00000000000000
-0.14525597269625 -0.17201365187713 2.04232081911263 0.00000000000000 0.00000000000000 -1.00000000000000
-0.11755102040816 -0.17142857142857 2.03537414965986 0.00000000000000 0.00000000000000 -1.00000000000000
-0.09034013605442 -0.17142857142857 2.03537414965986 0.00000000000000 0.00000000000000 -1.00000000000000
-0.06312925170068 -0.17142857142857 2.03537414965986 0.00000000000000 0.00000000000000 -1.00000000000000
-0.03616438356164 -0.17260273972603 2.04931506849315 0.00000000000000 0.00000000000000 -1.00000000000000
-0.00882758620690 -0.17379310344828 2.06344827586207 0.00000000000000 0.00000000000000 -1.00000000000000
0.01902097902098 -0.17622377622378 2.09230769230769 0.00000000000000 0.00000000000000 1.00000000000000
0.04782918149466 -0.17935943060498 2.12953736654804 0.00000000000000 0.00000000000000 -1.00000000000000
0.07970260223048 -0.18736059479554 2.22453531598513 0.99424460745621 0.00000000000000 -0.10713384406547
0.17111111111111 -0.23333333333333 2.77037037037037 0.00000000000000 0.00000000000000 -1.00000000000000
0.20814814814815 -0.23333333333333 2.77037037037037 0.00000000000000 0.00000000000000 -1.00000000000000
0.14876404494382 -0.14157303370787 1.68089887640449 0.00000000000000 0.00000000000000 -1.00000000000000
0.17027932960894 -0.14078212290503 1.67150837988827 0.00000000000000 0.00000000000000 -1.00000000000000
0.19316526610644 -0.14117647058824 1.67619047619048 -0.00000000000000 0.00000000000000 -1.00000000000000
0.24666666666667 -0.16153846153846 1.91794871794872 0.00000000000000 0.00000000000000 -1.00000000000000
0.26886075949367 -0.15949367088608 1.89367088607595 0.00000000000000 0.00000000000000 -1.00000000000000
0.29232704402516 -0.15849056603774 1.88176100628931 0.00000000000000 0.00000000000000 -1.00000000000000
-0.46347417840376 -0.23586854460094 2.80938967136150 0.00000000000000 0.00000000000000 -1.00000000000000
-0.42591549295775 -0.23586854460094 2.80938967136150 0.00000000000000 0.00000000000000 -1.00000000000000
-0.25374233128834 -0.15411042944785 1.83558282208589 0.00000000000000 0.00000000000000 -1.00000000000000
-0.22850152905199 -0.15363914373089 1.82996941896024 0.00000000000000 0.00000000000000 -1.00000000000000
-0.20656346749226 -0.15554179566563 1.85263157894737 0.00000000000000 0.00000000000000 -1.00000000000000
-0.20318339100346 -0.17384083044983 2.07058823529412 0.00000000000000 0.00000000000000 -1.00000000000000
-0.17369863013699 -0.17205479452055 2.04931506849315 0.00000000000000 0.00000000000000 -1.00000000000000
-0.14580204778157 -0.17146757679181 2.04232081911263 0.00000000000000 0.00000000000000 -1.00000000000000
-0.11809523809524 -0.17088435374150 2.03537414965986 0.00000000000000 0.00000000000000 -1.00000000000000
-0.09088435374150 -0.17088435374150 2.03537414965986 0.00000000000000 0.00000000000000 -1.00000000000000
-0.06367346938776 -0.17088435374150 2.03537414965986 0.00000000000000 0.00000000000000 -1.00000000000000
-0.03671232876712 -0.17205479452055 2.04931506849315 0.00000000000000 0.00000000000000 -1.00000000000000
-0.00937931034483 -0.17324137931034 2.06344827586207 0.00000000000000 0.00000000000000 -1.00000000000000
0.01839721254355 -0.17505226480836 2.08501742160279 0.00000000000000 0.00000000000000 -1.00000000000000
0.04725978647687 -0.17879003558719 2.12953736654804 0.00000000000000 0.00000000000000 -1.00000000000000
0.07881481481481 -0.18607407407407 2.21629629629630 0.99424460745621 0.00000000000000 -0.10713384406547
0.17111111111111 -0.23259259259259 2.77037037037037 0.00000000000000 0.00000000000000 1.00000000000000
0.20814814814815 -0.23259259259259 2.77037037037037 0.00000000000000 0.00000000000000 1.00000000000000
0.14876404494382 -0.14112359550562 1.68089887640449 0.00000000000000 0.00000000000000 1.00000000000000
0.17027932960894 -0.14033519553073 1.67150837988827 0.00000000000000 0.00000000000000 1.00000000000000
0.19370786516854 -0.14112359550562 1.68089887640449 -0.00000000000000 0.00000000000000 1.00000000000000
0.24666666666667 -0.16102564102564 1.91794871794872 0.00000000000000 0.00000000000000 1.00000000000000
0.26886075949367 -0.15898734177215 1.89367088607595 0.00000000000000 0.00000000000000 1.00000000000000
0.29232704402516 -0.15798742138365 1.88176100628931 0.00000000000000 0.00000000000000 1.00000000000000
-0.46347417840376 -0.23511737089202 2.80938967136150 0.00000000000000 0.00000000000000 1.00000000000000
-0.42591549295775 -0.23511737089202 2.80938967136150 0.00000000000000 0.00000000000000 1.00000000000000
-0.25374233128834 -0.15361963190184 1.83558282208589 0.00000000000000 0.00000000000000 1.00000000000000
-0.22850152905199 -0.15314984709480 1.82996941896024 0.00000000000000 0.00000000000000 1.00000000000000
-0.20656346749226 -0.15504643962848 1.85263157894737 0.00000000000000 0.00000000000000 1.00000000000000
-0.20318339100346 -0.17328719723183 2.07058823529412 0.00000000000000 0.00000000000000 1.00000000000000
-0.17369863013699 -0.17150684931507 2.04931506849315 0.00000000000000 0.00000000000000 1.00000000000000
-0.14580204778157 -0.17092150170648 2.04232081911263 0.00000000000000 0.00000000000000 1.00000000000000
-0.11809523809524 -0.17034013605442 2.03537414965986 0.00000000000000 0.00000000000000 1.00000000000000
-0.09088435374150 -0.17034013605442 2.03537414965986 0.00000000000000 0.00000000000000 1.00000000000000
-0.06367346938776 -0.17034013605442 2.03537414965986 0.00000000000000 0.00000000000000 1.00000000000000
-0.03671232876712 -0.17150684931507 2.04931506849315 0.00000000000000 0.00000000000000 1.00000000000000
-0.00937931034483 -0.17268965517241 2.06344827586207 0.00000000000000 0.00000000000000 1.00000000000000
0.01839721254355 -0.17449477351916 2.08501742160279 -0.00000000000000 0.00000000000000 1.00000000000000
0.04725978647687 -0.17822064056940 2.12953736654804 0.00000000000000 0.00000000000000 1.00000000000000
0.07881481481481 -0.18548148148148 2.21629629629630 -0.00000000000000 0.00000000000000 1.00000000000000
0.17407407407407 -0.23185185185185 2.77037037037037 0.00000000000000 0.00000000000000 -1.00000000000000
0.17078651685393 -0.18756554307116 2.24119850187266 0.32986474277853 0.09030517673025 0.93969900847419
0.15014005602241 -0.14028011204482 1.67619047619048 0.00000000000000 0.00000000000000 -1.00000000000000
0.17206703910615 -0.13988826815642 1.67150837988827 0.00000000000000 0.00000000000000 -1.00000000000000
0.19550561797753 -0.14067415730337 1.68089887640449 0.00000000000000 0.00000000000000 -1.00000000000000
0.24871794871795 -0.16051282051282 1.91794871794872 0.00000000000000 0.00000000000000 -1.00000000000000
0.27088607594937 -0.15848101265823 1.89367088607595 0.00000000000000 0.00000000000000 -1.00000000000000
0.29433962264151 -0.15748427672956 1.88176100628931 0.00000000000000 0.00000000000000 -1.00000000000000
-0.46046948356808 -0.23436619718310 2.80938967136150 0.00000000000000 0.00000000000000 -1.00000000000000
-0.37069958847737 -0.20543209876543 2.46255144032922 0.99252204965251 -0.02919182498978 0.11852349263899
-0.25100917431193 -0.15266055045872 1.82996941896024 0.00000000000000 0.00000000000000 -1.00000000000000
-0.22723926380368 -0.15312883435583 1.83558282208589 0.00000000000000 0.00000000000000 -1.00000000000000
-0.20521739130435 -0.15503105590062 1.85838509316770 0.00000000000000 0.00000000000000 -1.00000000000000
-0.20096885813149 -0.17273356401384 2.07058823529412 0.00000000000000 0.00000000000000 1.00000000000000
-0.17150684931507 -0.17095890410959 2.04931506849315 0.00000000000000 0.00000000000000 -1.00000000000000
-0.14312925170068 -0.16979591836735 2.03537414965986 0.00000000000000 0.00000000000000 -1.00000000000000
-0.11591836734694 -0.16979591836735 2.03537414965986 0.00000000000000 0.00000000000000 -1.00000000000000
-0.08870748299320 -0.16979591836735 2.03537414965986 0.00000000000000 0.00000000000000 -1.00000000000000
-0.06149659863946 -0.16979591836735 2.03537414965986 0.00000000000000 0.00000000000000 -1.00000000000000
-0.03452054794521 -0.17095890410959 2.04931506849315 0.00000000000000 0.00000000000000 -1.00000000000000
-0.00717241379310 -0.17213793103448 2.06344827586207 0.00000000000000 0.00000000000000 -1.00000000000000
0.02062717770035 -0.17393728222997 2.08501742160279 0.00000000000000 -0.00000000000000 1.00000000000000
0.04953736654804 -0.17765124555160 2.12953736654804 0.00000000000000 0.00000000000000 -1.00000000000000
0.08209737827715 -0.18696629213483 2.24119850187266 -0.70457261597248 0.70457261597251 0.08458639159670
0.17481481481481 -0.23111111111111 2.77037037037037 -0.00000000000000 0.00000000000000 1.00000000000000
0.16112676056338 -0.17577464788732 2.10704225352113 0.99240776154732 -0.11320240626015 -0.04808378143981
0.15058823529412 -0.13983193277311 1.67619047619048 -0.00000000000000 0.00000000000000 1.00000000000000
0.17251396648045 -0.13944134078212 1.67150837988827 -0.00000000000000 0.00000000000000 1.00000000000000
0.19595505617978 -0.14022471910112 1.68089887640449 -0.00000000000000 0.00000000000000 1.00000000000000
0.24923076923077 -0.16000000000000 1.91794871794872 -0.00000000000000 0.00000000000000 1.00000000000000
0.27139240506329 -0.15797468354430 1.89367088607595 -0.00000000000000 0.00000000000000 1.00000000000000
0.29484276729560 -0.15698113207547 1.88176100628931 -0.00000000000000 0.00000000000000 1.00000000000000
-0.45971830985915 -0.23361502347418 2.80938967136150 -0.00000000000000 0.00000000000000 1.00000000000000
-0.32462093862816 -0.17963898916968 2.16028880866426 0.97433486719202 -0.10116045069207 0.20109234144961
-0.25051987767584 -0.15217125382263 1.82996941896024 0.00000000000000 0.00000000000000 1.00000000000000
-0.22674846625767 -0.15263803680982 1.83558282208589 -0.00000000000000 0.00000000000000 1.00000000000000
-0.20472049689441 -0.15453416149068 1.85838509316770 -0.00000000000000 0.00000000000000 1.00000000000000
-0.19972413793103 -0.17158620689655 2.06344827586207 0.00000000000000 0.00000000000000 -1.00000000000000
-0.17095890410959 -0.17041095890411 2.04931506849315 -0.00000000000000 0.00000000000000 1.00000000000000
-0.14258503401361 -0.16925170068027 2.03537414965986 -0.00000000000000 0.00000000000000 1.00000000000000
-0.11498305084746 -0.16867796610169 2.02847457627119 0.00000000000000 0.00000000000000 -1.00000000000000
-0.08786440677966 -0.16867796610169 2.02847457627119 0.00000000000000 0.00000000000000 -1.00000000000000
-0.06095238095238 -0.16925170068027 2.03537414965986 -0.00000000000000 0.00000000000000 1.00000000000000
-0.03397260273973 -0.17041095890411 2.04931506849315 -0.00000000000000 0.00000000000000 1.00000000000000
-0.00662068965517 -0.17158620689655 2.06344827586207 -0.00000000000000 0.00000000000000 1.00000000000000
0.02118466898955 -0.17337979094077 2.08501742160279 0.00000000000000 0.00000000000000 -1.00000000000000
0.05010676156584 -0.17708185053381 2.12953736654804 -0.00000000000000 0.00000000000000 1.00000000000000
0.08332075471698 -0.18777358490566 2.25811320754717 -0.70457261597248 0.70457261597251 0.08458639159670
0.17629629629630 -0.23037037037037 2.77037037037037 0.00000000000000 0.00000000000000 1.00000000000000
0.13592920353982 -0.14678466076696 1.76519174041298 -0.98623668082253 -0.00000000000000 0.16533967884378
0.15148459383754 -0.13938375350140 1.67619047619048 0.00000000000000 0.00000000000000 1.00000000000000
0.17340782122905 -0.13899441340782 1.67150837988827 0.00000000000000 0.00000000000000 1.00000000000000
0.19685393258427 -0.13977528089888 1.68089887640449 0.00000000000000 0.00000000000000 1.00000000000000
0.25025641025641 -0.15948717948718 1.91794871794872 0.00000000000000 0.00000000000000 1.00000000000000
0.27240506329114 -0.15746835443038 1.89367088607595 0.00000000000000 0.00000000000000 1.00000000000000
0.29584905660377 -0.15647798742138 1.88176100628931 0.00000000000000 0.00000000000000 1.00000000000000
-0.45821596244131 -0.23286384976526 2.80938967136150 0.00000000000000 0.00000000000000 1.00000000000000
-0.29090909090909 -0.16103896103896 1.94285714285714 -0.95395201761611 0.00000000000000 -0.29995924404185
-0.25030674846626 -0.15214723926380 1.83558282208589 0.00000000000000 0.00000000000000 -1.00000000000000
-0.22576687116564 -0.15214723926380 1.83558282208589 0.00000000000000 0.00000000000000 1.00000000000000
-0.20372670807453 -0.15403726708075 1.85838509316770 0.00000000000000 0.00000000000000 1.00000000000000
-0.19862068965517 -0.17103448275862 2.06344827586207 -0.00000000000000 0.00000000000000 1.00000000000000
-0.16986301369863 -0.16986301369863 2.04931506849315 0.00000000000000 0.00000000000000 1.00000000000000
-0.14149659863946 -0.16870748299320 2.03537414965986 0.00000000000000 0.00000000000000 1.00000000000000
-0.11389830508475 -0.16813559322034 2.02847457627119 -0.00000000000000 0.00000000000000 1.00000000000000
-0.08677966101695 -0.16813559322034 2.02847457627119 -0.00000000000000 0.00000000000000 1.00000000000000
-0.05986394557823 -0.16870748299320 2.03537414965986 0.00000000000000 0.00000000000000 1.00000000000000
-0.03287671232877 -0.16986301369863 2.04931506849315 0.00000000000000 0.00000000000000 1.00000000000000
-0.00551724137931 -0.17103448275862 2.06344827586207 0.00000000000000 0.00000000000000 1.00000000000000
0.02237762237762 -0.17342657342657 2.09230769230769 0.00000000000000 0.00000000000000 -1.00000000000000
0.05124555160142 -0.17651245551601 2.12953736654804 0.00000000000000 0.00000000000000 1.00000000000000
0.08715953307393 -0.19299610894942 2.32840466926070 0.76974227811480 -0.63587405583396 -0.05622286367583
0.18000000000000 -0.22962962962963 2.77037037037037 -0.00000000000000 0.00000000000000 -1.00000000000000
0.13356125356125 -0.14131054131054 1.70484330484330 -0.99407348709806 -0.00000000000000 -0.10871017546072
0.15372549019608 -0.13893557422969 1.67619047619048 -0.00000000000000 0.00000000000000 -1.00000000000000
0.17564245810056 -0.13854748603352 1.67150837988827 -0.00000000000000 0.00000000000000 -1.00000000000000
0.19966197183099 -0.13971830985915 1.68563380281690 0.00000000000000 0.00000000000000 1.00000000000000
0.25201277955272 -0.15846645367412 1.91182108626198 0.00000000000000 0.00000000000000 1.00000000000000
0.27406940063091 -0.15646687697161 1.88769716088328 0.00000000000000 0.00000000000000 -1.00000000000000
0.29836477987421 -0.15597484276730 1.88176100628931 -0.00000000000000 0.00000000000000 -1.00000000000000
-0.45446009389671 -0.23211267605634 2.80938967136150 -0.00000000000000 0.00000000000000 -1.00000000000000
-0.27577639751553 -0.15354037267081 1.85838509316770 0.00000000000000 0.00000000000000 1.00000000000000
-0.24709480122324 -0.15119266055046 1.82996941896024 -0.00000000000000 0.00000000000000 1.00000000000000
-0.22331288343558 -0.15165644171779 1.83558282208589 -0.00000000000000 0.00000000000000 -1.00000000000000
-0.20186915887850 -0.15401869158879 1.86417445482866 0.00000000000000 0.00000000000000 1.00000000000000
-0.19586206896552 -0.17048275862069 2.06344827586207 0.00000000000000 0.00000000000000 1.00000000000000
-0.16655290102389 -0.16873720136519 2.04232081911263 0.00000000000000 0.00000000000000 -1.00000000000000
-0.13877551020408 -0.16816326530612 2.03537414965986 0.00000000000000 0.00000000000000 1.00000000000000
-0.11118644067797 -0.16759322033898 2.02847457627119 -0.00000000000000 0.00000000000000 -1.00000000000000
-0.08406779661017 -0.16759322033898 2.02847457627119 -0.00000000000000 0.00000000000000 -1.00000000000000
-0.05714285714286 -0.16816326530612 2.03537414965986 0.00000000000000 0.00000000000000 1.00000000000000
-0.03013698630137 -0.16931506849315 2.04931506849315 0.00000000000000 0.00000000000000 1.00000000000000
-0.00275862068966 -0.17048275862069 2.06344827586207 0.00000000000000 0.00000000000000 1.00000000000000
0.02517482517483 -0.17286713286713 2.09230769230769 -0.00000000000000 0.00000000000000 1.00000000000000
0.05409252669039 -0.17594306049822 2.12953736654804 0.00000000000000 0.00000000000000 1.00000000000000
0.10175438596491 -0.21684210526316 2.62456140350877 -0.66849387970371 0.73812865883952 0.09100558113903
0.18592592592593 -0.22888888888889 2.77037037037037 0.00000000000000 0.00000000000000 -1.00000000000000
0.13643059490085 -0.14005665722380 1.69518413597734 0.00000000000000 0.00000000000000 -1.00000000000000
0.15731092436975 -0.13848739495798 1.67619047619048 0.00000000000000 -0.00000000000000 1.00000000000000
0.17971988795518 -0.13848739495798 1.67619047619048 0.00000000000000 -0.00000000000000 -1.00000000000000
0.20384180790960 -0.13966101694915 1.69039548022599 0.00000000000000 -0.00000000000000 1.00000000000000
0.25528662420382 -0.15745222929936 1.90573248407643 0.00000000000000 0.00000000000000 -1.00000000000000
0.27810725552050 -0.15596214511041 1.88769716088328 0.00000000000000 0.00000000000000 -1.00000000000000
0.30238993710692 -0.15547169811321 1.88176100628931 0.00000000000000 0.00000000000000 -1.00000000000000
-0.44845070422535 -0.23136150234742 2.80938967136150 0.00000000000000 0.00000000000000 -1.00000000000000
-0.27012345679012 -0.15209876543210 1.84691358024691 0.00000000000000 0.00000000000000 -1.00000000000000
-0.24318042813456 -0.15070336391437 1.82996941896024 0.00000000000000 0.00000000000000 -1.00000000000000
-0.21938650306748 -0.15116564417178 1.83558282208589 0.00000000000000 -0.00000000000000 1.00000000000000
-0.21679180887372 -0.16819112627986 2.04232081911263 0.98340383948490 -0.00000000000000 0.18143012011887
-0.19079037800687 -0.16934707903780 2.05635738831615 0.00000000000000 0.00000000000000 -1.00000000000000
-0.16218430034130 -0.16819112627986 2.04232081911263 0.00000000000000 -0.00000000000000 1.00000000000000
-0.13442176870748 -0.16761904761905 2.03537414965986 0.00000000000000 0.00000000000000 1.00000000000000
-0.10684745762712 -0.16705084745763 2.02847457627119 0.00000000000000 0.00000000000000 -1.00000000000000
-0.07972881355932 -0.16705084745763 2.02847457627119 0.00000000000000 0.00000000000000 -1.00000000000000
-0.05278911564626 -0.16761904761905 2.03537414965986 0.00000000000000 0.00000000000000 -1.00000000000000
-0.02575342465753 -0.16876712328767 2.04931506849315 0.00000000000000 -0.00000000000000 1.00000000000000
0.00165517241379 -0.16993103448276 2.06344827586207 0.00000000000000 -0.00000000000000 1.00000000000000
0.02965034965035 -0.17230769230769 2.09230769230769 0.00000000000000 -0.00000000000000 1.00000000000000
0.05906810035842 -0.17663082437276 2.14480286738351 -0.00000000000000 0.00000000000000 1.00000000000000
0.16477611940299 -0.24517412935323 2.97711442786070 -0.50558638560358 0.85560772948298 0.11098567448677
0.19037037037037 -0.22814814814815 2.77037037037037 0.00000000000000 -0.00000000000000 1.00000000000000
0.13875706214689 -0.13920903954802 1.69039548022599 0.00000000000000 0.00000000000000 1.00000000000000
0.15955307262570 -0.13765363128492 1.67150837988827 0.00000000000000 0.00000000000000 1.00000000000000
0.18189944134078 -0.13765363128492 1.67150837988827 0.00000000000000 0.00000000000000 1.00000000000000
0.20772727272727 -0.14000000000000 1.70000000000000 0.00000000000000 0.00000000000000 1.00000000000000
0.25834394904459 -0.15694267515924 1.90573248407643 -0.00000000000000 0.00000000000000 -1.00000000000000
0.28113564668770 -0.15545741324921 1.88769716088328 0.00000000000000 -0.00000000000000 1.00000000000000
0.30540880503145 -0.15496855345912 1.88176100628931 0.00000000000000 -0.00000000000000 1.00000000000000
-0.44394366197183 -0.23061032863850 2.80938967136150 0.00000000000000 -0.00000000000000 1.00000000000000
-0.26716049382716 -0.15160493827160 1.84691358024691 -0.00000000000000 0.00000000000000 -1.00000000000000
-0.24024464831804 -0.15021406727829 1.82996941896024 0.00000000000000 -0.00000000000000 1.00000000000000
-0.21710769230769 -0.15113846153846 1.84123076923077 0.00000000000000 0.00000000000000 1.00000000000000
-0.21722222222222 -0.17055555555556 2.07777777777778 0.00000000000000 -0.00000000000000 -1.00000000000000
-0.18749140893471 -0.16879725085911 2.05635738831615 -0.00000000000000 0.00000000000000 -1.00000000000000
-0.15890784982935 -0.16764505119454 2.04232081911263 0.00000000000000 -0.00000000000000 1.00000000000000
-0.13071186440678 -0.16650847457627 2.02847457627119 0.00000000000000 -0.00000000000000 1.00000000000000
-0.10359322033898 -0.16650847457627 2.02847457627119 0.00000000000000 -0.00000000000000 1.00000000000000
-0.07647457627119 -0.16650847457627 2.02847457627119 0.00000000000000 -0.00000000000000 1.00000000000000
-0.04952380952381 -0.16707482993197 2.03537414965986 0.00000000000000 -0.00000000000000 1.00000000000000
-0.02246575342466 -0.16821917808219 2.04931506849315 0.00000000000000 -0.00000000000000 1.00000000000000
0.00498269896194 -0.16996539792388 2.07058823529412 0.00000000000000 0.00000000000000 1.00000000000000
0.03312280701754 -0.17235087719298 2.09964912280702 0.00000000000000 0.00000000000000 1.00000000000000
0.06273381294964 -0.17669064748201 2.15251798561151 -0.19512762685356 0.97563813426778 0.10027681786432
0.16546341463415 -0.23960975609756 2.91902439024390 -0.47758273451731 0.87556834661506 0.07276539078942
0.19407407407407 -0.22740740740741 2.77037037037037 0.00000000000000 -0.00000000000000 1.00000000000000
0.14101694915254 -0.13875706214689 1.69039548022599 0.00000000000000 -0.00000000000000 1.00000000000000
0.16178770949721 -0.13720670391061 1.67150837988827 0.00000000000000 -0.00000000000000 1.00000000000000
0.18413407821229 -0.13720670391061 1.67150837988827 0.00000000000000 -0.00000000000000 1.00000000000000
0.22332326283988 -0.14839879154079 1.80785498489426 0.84828798063281 -0.30846835659376 -0.43041233125255
0.26006349206349 -0.15593650793651 1.89968253968254 0.00000000000000 0.00000000000000 -1.00000000000000
0.28365930599369 -0.15495268138801 1.88769716088328 0.00000000000000 -0.00000000000000 1.00000000000000
0.30792452830189 -0.15446540880503 1.88176100628931 0.00000000000000 -0.00000000000000 1.00000000000000
-0.44018779342723 -0.22985915492958 2.80938967136150 0.00000000000000 -0.00000000000000 1.00000000000000
-0.26387692307692 -0.15064615384615 1.84123076923077 0.00000000000000 0.00000000000000 -1.00000000000000
-0.23779816513761 -0.14972477064220 1.82996941896024 0.00000000000000 -0.00000000000000 1.00000000000000
-0.21464615384615 -0.15064615384615 1.84123076923077 0.00000000000000 -0.00000000000000 1.00000000000000
-0.21444444444444 -0.17000000000000 2.07777777777778 0.17967071238272 -0.89835356191361 -0.40084824174370
-0.18410958904110 -0.16767123287671 2.04931506849315 0.00000000000000 0.00000000000000 -1.00000000000000
-0.15617747440273 -0.16709897610922 2.04232081911263 0.00000000000000 0.00000000000000 -1.00000000000000
-0.12800000000000 -0.16596610169492 2.02847457627119 0.00000000000000 -0.00000000000000 1.00000000000000
-0.10088135593220 -0.16596610169492 2.02847457627119 -0.00000000000000 0.00000000000000 1.00000000000000
-0.07376271186441 -0.16596610169492 2.02847457627119 0.00000000000000 -0.00000000000000 1.00000000000000
-0.04680272108844 -0.16653061224490 2.03537414965986 0.00000000000000 -0.00000000000000 1.00000000000000
-0.01972602739726 -0.16767123287671 2.04931506849315 0.00000000000000 -0.00000000000000 1.00000000000000
0.00775086505190 -0.16941176470588 2.07058823529412 0.00000000000000 -0.00000000000000 1.00000000000000
0.03592982456140 -0.17178947368421 2.09964912280702 0.00000000000000 -0.00000000000000 1.00000000000000
0.06561151079137 -0.17611510791367 2.15251798561151 0.17879916337718 -0.89399581688592 -0.41085561766404
0.16528301886792 -0.23094339622642 2.82264150943396 0.53645505066024 -0.84300079389466 -0.03956817046696
0.19925925925926 -0.22666666666667 2.77037037037037 0.00000000000000 -0.00000000000000 1.00000000000000
0.14377464788732 -0.13791549295775 1.68563380281690 0.00000000000000 -0.00000000000000 1.00000000000000
0.16491620111732 -0.13675977653631 1.67150837988827 0.00000000000000 -0.00000000000000 1.00000000000000
0.18778711484594 -0.13714285714286 1.67619047619048 0.00000000000000 0.00000000000000 1.00000000000000
0.24206451612903 -0.15793548387097 1.93032258064516 0.98323318363214 -0.06554887890882 0.17016418858975
0.26361904761905 -0.15542857142857 1.89968253968254 0.00000000000000 -0.00000000000000 1.00000000000000
0.28628930817610 -0.15396226415094 1.88176100628931 0.00000000000000 0.00000000000000 1.00000000000000
0.31144654088050 -0.15396226415094 1.88176100628931 0.00000000000000 -0.00000000000000 1.00000000000000
-0.43492957746479 -0.22910798122066 2.80938967136150 0.00000000000000 -0.00000000000000 1.00000000000000
-0.25963190184049 -0.14969325153374 1.83558282208589 0.00000000000000 0.00000000000000 1.00000000000000
-0.23437308868502 -0.14923547400612 1.82996941896024 0.00000000000000 -0.00000000000000 1.00000000000000
-0.21185185185185 -0.15061728395062 1.84691358024691 0.00000000000000 0.00000000000000 1.00000000000000
-0.20982698961938 -0.16885813148789 2.07058823529412 0.00000000000000 0.00000000000000 1.00000000000000
-0.18027397260274 -0.16712328767123 2.04931506849315 -0.00000000000000 0.00000000000000 -1.00000000000000
-0.15183673469388 -0.16598639455782 2.03537414965986 0.00000000000000 -0.00000000000000 1.00000000000000
-0.12420338983051 -0.16542372881356 2.02847457627119 0.00000000000000 -0.00000000000000 1.00000000000000
-0.09708474576271 -0.16542372881356 2.02847457627119 0.00000000000000 -0.00000000000000 1.00000000000000
-0.06996610169492 -0.16542372881356 2.02847457627119 0.00000000000000 -0.00000000000000 1.00000000000000
-0.04299319727891 -0.16598639455782 2.03537414965986 0.00000000000000 -0.00000000000000 1.00000000000000
-0.01589041095890 -0.16712328767123 2.04931506849315 0.00000000000000 -0.00000000000000 1.00000000000000
0.01162629757785 -0.16885813148789 2.07058823529412 0.00000000000000 -0.00000000000000 1.00000000000000
0.04000000000000 -0.17183098591549 2.10704225352113 0.00000000000000 0.00000000000000 1.00000000000000
0.07014492753623 -0.17681159420290 2.16811594202899 0.83164508459906 -0.55443005639938 -0.03120522108879
0.17116279069767 -0.22697674418605 2.78325581395349 -0.48824792341499 0.78119667746399 -0.38903176785473
0.20740740740741 -0.22592592592593 2.77037037037037 0.00000000000000 0.00000000000000 -1.00000000000000
0.14831460674157 -0.13707865168539 1.68089887640449 0.00000000000000 0.00000000000000 1.00000000000000
0.16983240223464 -0.13631284916201 1.67150837988827 0.00000000000000 0.00000000000000 -1.00000000000000
0.19271708683473 -0.13669467787115 1.67619047619048 0.00000000000000 0.00000000000000 -1.00000000000000
0.24615384615385 -0.15641025641026 1.91794871794872 0.00000000000000 0.00000000000000 1.00000000000000
