ply
        format ascii 1.0
        element vertex 37636
        property float x
        property float y
        property float z
        property float nx
        property float ny
        property float nz
end_header
70.50356775652440 30.55154602782724 2929.81492677112510 0.00000000000000 -0.99994563484919 0.01042724057730
71.27030434477901 30.54441614776243 2929.13118955465325 0.00000000000000 -0.99994563484919 0.01042724057731
72.03203784750134 30.53532039187557 2928.25892988755459 0.61780919160844 0.57765741522973 0.53350137150174
72.77302568312516 30.51772044776216 2926.57114037514066 0.99969097661173 0.00000000000001 -0.02485862588900
73.50990529575881 30.49879049504887 2924.75580644827596 0.99968429838175 0.00000000000001 -0.02512575509299
74.25363372769689 30.48307068821241 2923.24831727985656 0.99967754886284 -0.00000000000002 -0.02539287891502
-76.90865695907124 31.39128855472296 2935.08547986659642 -0.15608276966104 0.73607175860379 0.65866268696569
-76.12861227055033 31.39324217342282 2935.26814321503343 -0.00000000000000 -0.99994281139192 0.01069457552290
-75.32481128239033 31.38533803432930 2934.52910620978992 -0.00000000000007 -0.99994281139192 0.01069457552283
-74.52271899605331 31.37798694570666 2933.84177942357246 0.00000000000001 -0.99994281139192 0.01069457552292
-73.73237040954849 31.37547677002064 2933.60707799692955 -0.00000000000000 0.99994281139192 -0.01069457552289
-72.95647878530254 31.37913066034518 2933.94871674227397 0.99969097661173 -0.00000000000000 0.02485862588898
-72.18455134040546 31.38458753930672 2934.45893492517826 -0.29819992136837 -0.21975749238300 0.92886137363841
-71.40603335957319 31.38726741080140 2934.70950290993142 -0.29404367866575 -0.27123590396629 0.91649844486300
-70.60769236345067 31.38119660597807 2934.14188265894973 -0.51736858800004 0.44263252386339 -0.73239756483018
-69.80313862231480 31.37219713362463 2933.30043199390275 -0.31666386340121 0.67481002956869 -0.66659989619661
-69.00986988940247 31.36812267700112 2932.91947029960465 -0.00000000000002 -0.99994281139192 0.01069457552287
-68.21597877523990 31.36366840240915 2932.50299562525561 -0.00000000000000 -0.99994281139192 0.01069457552291
-67.41166306008419 31.35426188841125 2931.62348656645190 -0.00000000000003 -0.99994281139192 0.01069457552288
-66.61104482681874 31.34637403615000 2930.88597238002467 -0.00000000000000 -0.99994281139192 0.01069457552291
-65.83715128574769 31.35102442178462 2931.32078343686180 -0.00000000000000 0.99994281139192 -0.01069457552290
-65.06806987983920 31.35810596618757 2931.98290783853736 -0.00000000000001 0.99994281139192 -0.01069457552290
-64.29960649466859 31.36566170471638 2932.68936939098194 0.00000000000000 0.99994281139192 -0.01069457552291
-63.51749871703076 31.36666603310161 2932.78327409500071 -0.00000000000000 -0.99994281139192 0.01069457552290
-62.72187448405974 31.36093724202987 2932.24763212979269 -0.99977130441941 0.00000000000004 -0.02138548244761
-61.92692057066230 31.35540282058851 2931.73016372502570 0.20373364295737 -0.34059678635556 -0.91787059646313
-61.14663331357242 31.35724785311406 2931.90267426616447 0.20210550752161 -0.36129582201660 -0.91028495144256
-60.37819316932400 31.36529515289559 2932.65509679573734 0.99978812963634 0.00000000000001 0.02058387325727
-59.61497207705995 31.37630109318945 2933.68415221321357 0.99979359533546 0.00000000000001 0.02031666129563
-58.85490032685786 31.38928017432419 2934.89769629931197 0.99979898967542 0.00000000000000 0.02004944498012
-58.05629344017702 31.38178023793353 2934.19645224678470 -0.99980431265276 0.00000000000000 -0.01978222436801
-57.25253178121729 31.37125029107797 2933.21190221578991 -0.99980956426405 0.00000000000001 -0.01951499951641
-56.46132732600248 31.36740407000138 2932.85228054512891 0.38896045935238 0.35042453088516 0.85200493497063
-55.61513348936246 31.33246957147181 2929.58590493261408 -0.99981985337505 0.00000000000001 -0.01898053732344
-54.73421030294674 31.27669160168385 2924.37066475744041 0.99982489086815 0.00000000000000 0.01871330009646
-53.80713252193015 31.19254059242328 2916.50254539157640 -0.99982985698197 -0.00000000000000 -0.01844605885876
-52.83375180655079 31.07867753326518 2905.85634936029373 0.99983475171332 0.00000000000004 0.01817881366753
-51.95812049174126 31.01977342790523 2900.34881550913906 0.99983957505907 -0.00000000000001 0.01791156457993
-51.09924980860239 30.96924230824388 2895.62415582080257 -0.91982589837305 -0.35725720338536 -0.16213453460469
-50.26113191752047 30.92992733385875 2891.94820571579339 0.90688447123253 0.37311358251918 0.19582341631428
-49.44108029428442 30.90067518392776 2889.21312969724568 0.99985361675186 0.00000000000001 0.01710979451127
-48.61700603822118 30.86794034172773 2886.15242195154315 0.99985815452462 -0.00000000000001 0.01684253041042
-47.82542606371899 30.85511358949612 2884.95312061788763 0.99986262089671 -0.00000000000001 0.01657526269934
-47.03839722162866 30.84485063713355 2883.99353457198686 0.99986701586528 0.00000000000001 0.01630799143524
-46.24395567032564 30.82930378021710 2882.53990345029843 0.99987133942750 -0.00000000000000 0.01604071667530
-45.43717691930836 30.80486570800567 2880.25494369853004 0.99987559158058 0.00000000000004 0.01577343847685
-44.62980312017593 30.77917456563857 2877.85282188720657 0.99987977232180 0.00000000000000 0.01550615689697
-43.82543494028268 30.75469118616328 2875.56362590626668 0.99988388164845 0.00000000000001 0.01523887199307
-43.02418499828074 30.73156071305767 2873.40092667089220 0.99988791955791 -0.00000000000002 0.01497158382222
-42.23128076551263 30.71365873855464 2871.72709205485899 0.67164560511033 0.56342205921507 0.48109018315262
-41.44620153120593 30.70089002311550 2870.53321716129949 0.68521079479149 0.48253121389284 0.54557290467940
-40.65858428413181 30.68572398802401 2869.11519288024465 0.99989960475737 0.00000000000000 0.01416970028133
-39.85806676604887 30.66005135849913 2866.71480201966870 -0.99990335697253 -0.00000000000000 -0.01390239961566
-39.05908433843425 30.63457595171313 2864.33285148517825 -0.99990703775796 0.00000000000000 -0.01363509596944
-38.27826572205244 30.62261257764195 2863.21427600952211 -0.99991064711131 -0.00000000000000 -0.01336778939988
-37.50378813457794 30.61533725271669 2862.53403312900991 0.99991418503025 0.00000000000000 0.01310047996430
-36.72353013972783 30.60294178310652 2861.37505672045972 0.99991765151250 -0.00000000000000 0.01283316771995
-35.94481121701701 30.59132869533362 2860.28923301369377 0.99992104655584 0.00000000000000 0.01256585272402
-35.17379287320667 30.58590684626667 2859.78229012593374 0.28254371645142 0.32950921154706 -0.90088441422829
-34.41203108637448 30.58847207677731 2860.02213917867857 0.26370007934352 0.46967573503662 -0.84253603606732
-33.66113602585984 30.60103275078168 2861.19656219808667 -0.99993080303074 0.00000000000047 -0.01176389180106
-32.90973174240555 30.61370394642377 2862.38131899062228 0.41061661556351 0.43726530506994 -0.80012064590614
-32.14880027655737 30.61790502529272 2862.77411986487004 -0.00000000000000 0.99994281139192 -0.01069457552290
-31.38229977316986 30.61687782748279 2862.67807686964079 0.11150516963670 -0.43287555116323 0.89453080123013
-30.61156968039701 30.61156968039701 2862.18176511712045 -0.16489760380538 -0.27848034544557 -0.94618046770146
-29.84489150460485 30.61014513292805 2862.04856992877239 -0.16747697094400 -0.21705917309092 -0.96168434508445
-29.08449472005615 30.61525760005910 2862.52658560552572 -0.14867465668373 0.41929674207868 0.89559259071420
-28.32036197452905 30.61660754003141 2862.65280499293658 0.15756902538347 -0.26573670549695 -0.95108149261319
-27.54822803945775 30.60914226606417 2861.95480187700014 0.99995367647246 0.00000000000000 0.00962522255429
-26.77120403941862 30.59566175933557 2860.69437449787574 0.99995621409162 0.00000000000000 0.00935787900889
-25.99620327769270 30.58376856199142 2859.58236054619738 0.99995868024707 0.00000000000000 0.00909053345680
-25.22458609767394 30.57525587596840 2858.78642440304566 0.99996107493722 -0.00000000000001 0.00882318595526
-24.45679308511275 30.57099135639094 2858.38769182255282 -0.99996339816052 0.00000000000000 -0.00855583656181
-23.68683629804382 30.56365973941138 2857.70218563496383 -0.99996564991547 -0.00000000000000 -0.00828848533351
-22.90879321974038 30.54505762632050 2855.96288806096709 -0.99996783020064 -0.00000000000000 -0.00802113232781
-22.13378775781668 30.52936242457474 2854.49538669773801 0.24948802887068 0.42687790104961 -0.86921285140390
-21.37219889352604 30.53171270503720 2854.71513792097858 -0.22405657468355 -0.58064456195810 0.78271996525549
-20.61316383252292 30.53802049262655 2855.30491606058195 0.00000000000000 0.99994281139192 -0.01069457552291
-19.84654835247190 30.53315131149523 2854.84964762480422 -0.00000000000001 -0.99994281139192 0.01069457552290
-19.07813068501573 30.52500909602516 2854.08835047835237 0.00000000000000 -0.99994281139192 0.01069457552291
-18.31263039969540 30.52105066615900 2853.71823728586605 0.00000000000001 -0.99994281139192 0.01069457552292
-17.54804834356891 30.51834494533724 2853.46525238903178 -0.00000000000000 -0.99994281139192 0.01069457552290
-16.78603881269423 30.52007056853497 2853.62659815801999 0.00000000000001 0.99994281139192 -0.01069457552292
-16.02628719283435 30.52626131968448 2854.20543339049891 0.00000000000000 0.99994281139192 -0.01069457552292
-15.26200340419630 30.52400680839260 2853.99463658470768 -0.24671314023707 0.36335316155514 -0.89839139934788
-14.49540057804517 30.51663279588458 2853.30516641520762 -0.99998709596312 -0.00000000000000 -0.00508014834847
-13.72863223189252 30.50807162642781 2852.50469707100046 0.99998841851456 -0.00000000000000 0.00481277848483
-12.96250553670569 30.50001302754280 2851.75121807525193 -0.40605685370958 -0.14935756670303 -0.90155984206487
-12.19853578400967 30.49633946002417 2851.40773951226038 -0.07006975088846 0.35319684146415 0.93292133708592
-11.43635596671872 30.49694924458326 2851.46475436853507 0.06714810360984 -0.44526026060077 -0.89287985334609
-10.67547901853876 30.50136862439646 2851.87796638106875 -0.43451343047664 0.42218708689256 0.79558540861217
-9.91503310101360 30.50779415696493 2852.47875367622100 0.39547693080136 -0.34138528945483 -0.85267466324958
-9.15346674172754 30.51155580575846 2852.83046783841610 0.13323258733944 0.05951802650604 0.98929605386440
-8.39037578032019 30.51045738298250 2852.72776530886404 -0.13020683870610 0.20687854631103 -0.96966357373596
-7.62953003353972 30.51812013415887 2853.44423254385401 0.99999642542453 0.00000000000000 0.00267378723376
-6.86798514471755 30.52437842096690 2854.02938236040518 -0.28535664196603 -0.14678469567020 -0.94711448093822
-6.10438437942452 30.52192189712262 2853.79969738096497 0.99999771226728 -0.00000000000000 0.00213903253961
-5.34034288289634 30.51624504512195 2853.26891171890247 -0.99999824845323 0.00000000000000 -0.00187165447572
-4.57662018854640 30.51080125697601 2852.75991752725668 -0.48410143507492 0.42615275486821 -0.76422485570455
-3.81319976504188 30.50559812033507 2852.27342425132838 -0.00000000000001 -0.99994281139192 0.01069457552288
-3.05019311950770 30.50193119507695 2851.93056673969477 -0.00000000000000 -0.99994281139192 0.01069457552291
-2.28759501346659 30.50126684622115 2851.86845012167760 0.00000000000000 0.99994281139192 -0.01069457552292
-1.52518124322591 30.50362486451824 2852.08892483245563 0.25785572367507 0.36261142210557 -0.89555758180397
-0.76273638717497 30.50945548699882 2852.63408803439006 -0.58020634968613 -0.06186517230161 0.81211655089648
0.00000000000000 30.51670727724618 2853.31213042251784 -1.00000000000000 0.00000000000000 -0.00000000000000
0.76313114819734 30.52524592789344 2854.11049425803685 -0.99999996425406 0.00000000000000 0.00026737966959
1.52651716059651 30.53034321193021 2854.58709031547460 -0.99999985701625 0.00000000000000 0.00053475928183
2.29008628823956 30.53448384319416 2854.97423933865412 -0.36920286441537 0.06334699197501 0.92718736160239
3.05377338492616 30.53773384926160 2855.27811490595968 0.34967004233489 -0.33429785545157 -0.87520043723367
3.81776411445654 30.54211291565231 2855.68755761349121 0.00000000000007 0.99994281139192 -0.01069457552304
4.58191128672617 30.54607524484112 2856.05803539264434 -0.40203836602295 0.39717309415531 0.82499617303639
5.34675051942216 30.55286011098378 2856.69242037698314 -0.42713658576111 0.33910204398059 0.83819099307528
6.11140193138190 30.55700965690949 2857.08040292103760 0.99999771226728 0.00000000000000 -0.00213903253961
6.87640539368328 30.56180174970347 2857.52846359727482 0.99999710459092 0.00000000000000 -0.00240641014473
7.64157471328786 30.56629885315145 2857.94894276966033 0.00000000000003 0.99994281139192 -0.01069457552296
8.40676854388312 30.57006743230225 2858.30130492026046 -0.00000000000000 0.99994281139192 -0.01069457552290
9.17040972887112 30.56803242957042 2858.11103216483389 0.00000000000000 -0.99994281139192 0.01069457552292
9.93358903123049 30.56488932686304 2857.81715206169383 -0.00000000000000 0.99994281139192 -0.01069457552291
10.69900477336995 30.56858506677130 2858.16270374311625 -0.00000000000003 0.99994281139192 -0.01069457552285
11.46501837497139 30.57338233325705 2858.61124815953417 0.23582009139484 -0.43386172983090 -0.86957051691203
12.23023600915922 30.57559002289804 2858.81766714096648 -0.00000000000000 0.99994281139192 -0.01069457552293
12.99401859724471 30.57416140528166 2858.68409139383539 -0.00000000000000 -0.99994281139192 0.01069457552289
13.75738089221368 30.57195753825263 2858.47802982662097 0.00000000000001 -0.99994281139192 0.01069457552296
14.52044797140483 30.56936415032595 2858.23554805547656 0.00000000000000 -0.99994281139192 0.01069457552292
15.28421493974883 30.56842987949766 2858.14819373303089 -0.00000000000000 -0.99994281139192 0.01069457552290
16.04696753378151 30.56565244529811 2857.88850363537313 -0.00000000000000 -0.99994281139192 0.01069457552290
16.80913154107008 30.56205734740015 2857.55236198191369 -0.00000000000000 -0.99994281139192 0.01069457552290
17.57236642790625 30.56063726592392 2857.41958436388632 0.00000000000000 0.99994281139192 -0.01069457552291
18.33954668263289 30.56591113772149 2857.91269137695917 0.00000000000000 0.99994281139192 -0.01069457552291
19.10625917487144 30.57001467979431 2858.29637256076785 -0.00000000000000 -0.99994281139192 0.01069457552291
19.86619649102994 30.56337921696914 2857.67595678661473 0.53428983252942 0.51804509718291 0.66795482791910
20.62592990561771 30.55693319350771 2857.07325359297101 0.52901243672567 -0.40044504933065 -0.74819088757893
21.39389529419375 30.56270756313393 2857.61315715302226 0.99997197635605 -0.00000000000000 -0.00748642121337
22.16419910861847 30.57130911533582 2858.41740228389881 0.15079080870363 -0.02188614525560 -0.98832339274974
22.92941812212237 30.57255749616317 2858.53412589125628 -0.00000000000000 -0.99994281139192 0.01069457552289
23.69118197117000 30.56926705957419 2858.22647007018713 0.00000000000002 -0.99994281139192 0.01069457552295
24.45217409067199 30.56521761333999 2857.84784684728902 0.00000000000000 -0.99994281139192 0.01069457552292
25.21161613996438 30.55953471510834 2857.31649586262984 0.00000000000001 -0.99994281139192 0.01069457552293
25.97173050147343 30.55497706055698 2856.89035516207741 0.00000000000001 -0.99994281139192 0.01069457552292
26.73296445780705 30.55195938035092 2856.60820206281096 0.00000000000000 -0.99994281139192 0.01069457552290
27.49852148012115 30.55391275569017 2856.79084265703068 0.00000000000000 0.99994281139192 -0.01069457552291
28.26939688327325 30.56151014407919 2857.50119847140422 -0.60011509708993 -0.45754480953175 0.65613612727489
29.04632535686678 30.57507932301766 2858.76991670215148 0.70702990352198 0.70702990352197 -0.01474554344243
29.82533140186221 30.59008348908944 2860.17280622986300 0.67697461174088 0.48909378358105 -0.54999331443270
30.60285848336532 30.60285848336532 2861.36726819465730 0.61070648488561 0.33442738476643 -0.71777149124003
31.38062052588503 30.61523953744881 2862.52489675146398 -0.99993991647957 0.00000000000018 0.01096190817515
32.17861097064589 30.64629616251990 2865.42869119561055 -0.99993695011397 0.00000000000002 0.01122923847720
32.98450519376151 30.68326064535954 2868.88487034111722 -0.99993391229704 -0.00000000000001 0.01149656637134
33.78479847552263 30.71345315956602 2871.70787041942322 -0.60164033260294 -0.60146976692097 0.52560729605425
34.57382299182743 30.73228710384660 2873.46884420965716 -0.34153301326478 0.52892483585470 0.77691294162625
35.34627654040969 30.73589264383451 2873.80596219852714 0.00000000000000 0.99994281139192 -0.01069457552291
36.11299916893563 30.73446737781756 2873.67269982594189 -0.00000000000001 -0.99994281139192 0.01069457552288
36.87803775953233 30.73169813294361 2873.41377543022736 -0.00000000000000 -0.99994281139192 0.01069457552289
37.64671665668580 30.73201359729453 2873.44327134703826 -0.00000000000000 -0.99994281139192 0.01069457552290
38.40990746138062 30.72792596910450 2873.06107811127049 -0.41357509654696 0.37454558205696 -0.82986218523185
39.16176327804416 30.71510845336797 2871.86264038990521 -0.55082618902231 0.73045441214535 -0.40376584955213
39.91507049588538 30.70390038145029 2870.81468566560216 -0.32220516284498 0.77492647663192 -0.54375802417149
40.67617796251718 30.69900223586203 2870.35670905309917 -0.00000000000000 0.99994281139192 -0.01069457552291
41.45418919352729 30.70680681002021 2871.08643673688994 -0.58390679270458 -0.51440660306992 0.62804355275054
42.24522078532499 30.72379693478181 2872.67501340209901 0.70699274991879 0.70699274991880 -0.01795837198991
43.04925124907901 30.74946517791358 2875.07499413491951 -0.61822292574209 -0.48085793811530 0.62175240847012
43.86830391877472 30.78477467984191 2878.37643256521869 0.89427557927254 0.44713778963627 -0.01841155604386
44.70673178315462 30.83222881596870 2882.81339429307354 0.89427161676843 0.44713580838421 -0.01865058452085
45.56242289485343 30.88977823379894 2888.19426486020075 -0.99987559158058 -0.00000000000005 0.01577343847683
46.42026275633214 30.94684183755476 2893.52971181136945 0.92746038094047 0.34031193935756 -0.15493555342932
47.40864277829671 31.08763460871915 2906.69383591524092 -0.99986701586528 -0.00000000000011 0.01630799143530
48.28262087521525 31.15007798400984 2912.53229150492007 -0.99986262089671 -0.00000000000002 0.01657526269937
49.14866339878476 31.20550057065699 2917.71430335642845 -0.99985815452462 0.00000000000000 0.01684253041044
50.01418407805439 31.25886504878399 2922.70388206130337 -0.99985361675186 -0.00000000000000 0.01710979451134
50.85639642469631 31.29624395365926 2926.19880966714118 0.99984900758137 0.00000000000000 -0.01737705494459
51.68722347902790 31.32558998728964 2928.94266381158104 -0.53356788879458 0.60003956281211 0.59603509217793
52.49169898627259 31.33832775299856 2930.13364490536514 0.38598915027327 -0.67624867690696 -0.62745525964240
53.28391703565906 31.34348060921121 2930.61543696124818 0.00000000000000 0.99994281139192 -0.01069457552291
54.05819826849920 31.33808595275316 2930.11103658242018 -0.00000000000000 -0.99994281139192 0.01069457552291
54.84277007409811 31.33872575662749 2930.17085824467040 -0.06844771250872 0.44493084804616 0.89294537968974
55.60357416405294 31.32595727552279 2928.97700526138033 -0.99981985337505 -0.00000000000001 0.01898053732345
56.40942022113624 31.33856678952014 2930.15599482013295 0.40239391663448 -0.24280387388282 -0.88268081132596
57.19989753196329 31.34240960655522 2930.51529821291342 -0.99980956426406 0.00000000000008 0.01951499951607
58.01881414168858 31.36152115766950 2932.30222824209841 0.99980431265276 -0.00000000000000 -0.01978222436799
58.84160144252909 31.38218743601552 2934.23452526745086 -0.41987140730696 0.59920447944278 0.68166120114158
59.63600684859029 31.38737202557384 2934.71928439115391 -0.00000000000000 0.99994281139192 -0.01069457552291
60.42069240098590 31.38737267583683 2934.71934519074375 -0.00000000000000 0.99994281139192 -0.01069457552291
61.21895450835394 31.39433564530971 2935.37038283645779 0.00000000000000 0.99994281139192 -0.01069457552291
62.00918133810809 31.39705384208004 2935.62453423448414 0.00000000000000 -0.99994281139192 0.01069457552291
62.78291679742189 31.39145839871095 2935.10136027947328 0.55995596466419 0.03574233687433 0.82775105133836
63.53742791279827 31.37650761125840 2933.70346165266074 0.47610932441815 0.67404982398596 0.56478026345349
64.27893613340339 31.35557860166019 2931.74659925522792 -0.80602787104410 -0.47035415693129 -0.35928545497636
65.02057262281490 31.33521572183850 2929.84266999190004 0.99975383709928 -0.00000000000010 -0.02218705039564
65.77404619577860 31.32097437894219 2928.51110443109474 0.99974787198700 0.00000000000013 -0.02245423027979
66.50649388913945 31.29717359488915 2926.28573112213553 0.22006190510412 -0.75859743975388 -0.61327211115524
67.29534724947239 31.30016151138250 2926.56510131426421 -0.29693132519359 0.46602848228796 0.83345620269763
68.16301706576178 31.33931819115484 2930.22625087297774 -0.43834081369641 -0.59772320837898 -0.67125576140031
68.93475407957946 31.33397912708157 2929.72704838212712 0.37878189739469 0.72292646914931 0.57784218815295
69.69581213440959 31.32396050984701 2928.79030767069526 -0.00000000000001 -0.99994281139192 0.01069457552290
70.46919061854547 31.31964027490909 2928.38636570400013 -0.00000000000001 -0.99994281139192 0.01069457552290
71.24022796274511 31.31438591769016 2927.89508330402987 0.00000000000009 -0.99994281139192 0.01069457552304
72.01198723004498 31.30955966523695 2927.44382869965466 -0.42443739308617 -0.54901680076791 -0.72002323005913
72.76696643154527 31.29761997055711 2926.32746724708977 0.99969097661173 -0.00000000000000 -0.02485862588906
73.50937752586356 31.28058618121853 2924.73480794393299 -0.99968429838175 -0.00000000000001 0.02512575509303
74.24028158425396 31.25906593021220 2922.72266447484071 -0.99967754886284 -0.00000000000001 0.02539287891498
-76.87055484859076 32.16013008971654 2933.63137891560609 -0.44378848711973 0.78692616571014 0.42871784243336
-76.10627570882079 32.16863200063560 2934.40691908236886 -0.60866393940965 -0.51279766444422 0.60544757345527
-75.29913916530873 32.15900735185060 2933.52896331515285 -0.41540057201296 -0.66257721417450 -0.62324457480837
-74.50142327416823 32.15324583411471 2933.00340047778127 0.00000000000001 -0.99993991647956 0.01096190817532
-73.72080476864942 32.15481910121943 2933.14691313562571 0.16370483892186 -0.43446139367788 -0.88568844585274
-72.94938826656768 32.16048299923951 2933.66357115014080 -0.99969097661173 0.00000000000000 -0.02485862588898
-72.19267223349667 32.17282132144960 2934.78906688345114 0.36637578953451 -0.12512786815637 -0.92201507441777
-71.41547245786212 32.17620187661920 2935.09743947697098 -0.36461893044519 0.16062611426864 0.91719806311176
-70.62358429312611 32.17296617797967 2934.80228062546303 0.33850000553003 -0.23649703579592 0.91076171324662
-69.82760264887810 32.16777200678654 2934.32847086296715 0.00000000000001 -0.99993991647956 0.01096190817533
-69.04341760891921 32.16795593142827 2934.34524837906656 0.00000000000001 -0.99993991647956 0.01096190817544
-68.25760719409810 32.16737810296577 2934.29253914858464 -0.05738036227352 0.50537527299738 -0.86098973714451
-67.45227804216296 32.15748139219397 2933.38976601964487 0.48766403608030 -0.75212640090659 0.44327154766934
-66.64734828513832 32.14754446694907 2932.48332454608590 0.00000000000000 -0.99993991647956 0.01096190817531
-65.87429027460408 32.15292739593771 2932.97435270261030 -0.00000000000001 0.99993991647956 -0.01096190817529
-65.10928711577465 32.16241893670796 2933.84016642165307 -0.00000000000001 0.99993991647956 -0.01096190817530
-64.33143054623619 32.16571527311810 2934.14085662101661 0.33362493972575 0.36988360275300 -0.86711044279691
-63.53706263353146 32.16073540709617 2933.68659567169925 0.46642099729839 0.35137480236864 0.81178026678380
-62.72559108848070 32.14686543284636 2932.42138338647283 0.99977130441941 -0.00000000000001 0.02138548244746
-61.91964213817573 32.13551047677475 2931.38558983262328 0.23878822764215 -0.39421646334345 -0.88745341419621
-61.14020194643862 32.13779845902543 2931.59429845744125 -0.24247294639161 0.35820083484224 0.90160913492849
-60.37813480408369 32.14939645412248 2932.65226191263628 -0.78255525741135 0.00230914885654 0.62257685222743
-59.61353227765217 32.15993188662814 2933.61329892656704 -0.60354798902499 0.07289860064944 0.79398716549277
-58.84090941853854 32.16636381546773 2934.20001633778838 -0.43002463292003 0.49015993400550 0.75817020132535
-58.06501015298704 32.17115427395228 2934.63699962393957 -0.47432499683758 -0.24726026036748 0.84491310856090
-57.25785316529140 32.15852027091709 2933.48453202999781 0.74714728071641 -0.21298251196872 0.62961050699108
-56.45509149154488 32.14803821046306 2932.52836358858121 0.99981474450593 -0.00000000000001 0.01924777048244
-55.62723215240660 32.12276786265733 2930.22321478874210 -0.99981985337505 -0.00000000000001 -0.01898053732342
-54.71882541662460 32.04959774402298 2923.54867225965700 -0.99982489086815 -0.00000000000000 -0.01871330009646
-53.75299452993961 31.94018515547136 2913.56810930397296 0.99982985698197 0.00000000000000 0.01844605885876
-52.81507329011585 31.84438242492279 2904.82903095637130 0.99983475171332 -0.00000000000003 0.01817881366748
-51.92962691826522 31.77783139774439 2898.75827872107357 0.99983957505907 -0.00000000000002 0.01791156457993
-51.06666931254250 31.72323396688246 2893.77792771074155 -0.85273444411655 -0.42913396938228 -0.29780531247687
-50.23390336934973 31.68600058682059 2890.38151694412272 -0.86431917633448 -0.37657711659809 -0.33337971845202
-49.42192419247951 31.66092018580719 2888.09369499802142 0.99985361675186 0.00000000000003 0.01710979451128
-48.60642049796805 31.63274984788397 2885.52401051429342 0.99985815452462 0.00000000000001 0.01684253041044
-47.81471080055020 31.61940552939610 2884.30674829125428 0.99986262089671 0.00000000000000 0.01657526269935
-47.02480745644792 31.60683779859615 2883.16032601828238 0.99986701586528 -0.00000000000002 0.01630799143522
-46.23045143596281 31.59080848124125 2881.69813950834850 0.99987133942750 0.00000000000010 0.01604071667540
-45.42684406047481 31.56780688948250 2879.59994552840317 0.99987559158058 0.00000000000001 0.01577343847682
-44.62226127981823 31.54332262883702 2877.36650321586512 0.99987977232180 0.00000000000002 0.01550615689700
-43.82075595429031 31.52019287940180 2875.25661875518836 0.99988388164845 0.00000000000000 0.01523887199304
-43.01455216671756 31.49279712206107 2872.75759113435151 0.99988791955791 0.00000000000003 0.01497158382228
-42.21795403704733 31.47156573670802 2870.82087451921871 -0.70748473788720 -0.53696650892647 -0.45949136438892
-41.43631677526454 31.46090718121936 2869.84860628683964 0.99989578111488 0.00000000000095 0.01443699791019
-40.65683427192294 31.45151330469510 2868.99170145267544 0.99989960475737 0.00000000000000 0.01416970028132
-39.86292391566846 31.43038231812321 2867.06414316538530 -0.99990335697253 -0.00000000000000 -0.01390239961566
-39.06475658743995 31.40500039382427 2864.74881641226284 -0.99990703775796 0.00000000000000 -0.01363509596945
-38.28199373830812 31.39123486541266 2863.49313162544740 -0.99991064711131 0.00000000000000 -0.01336778939988
-37.50390751576774 31.38082057441790 2862.54314508104744 0.99991418503025 0.00000000000000 0.01310047996435
-36.72251052546115 31.36714440716473 2861.29561177551477 0.99991765151250 -0.00000000000001 0.01283316771990
-35.94499671111804 31.35627372671999 2860.30399360811634 0.99992104655583 -0.00000000000000 0.01256585272413
-35.17723527659955 31.35362274653438 2860.06217248874600 0.29655846974051 0.17045846898001 0.93967919226625
-34.41717232882587 31.35786812181912 2860.44943355130545 -0.45259510664932 0.08841126961101 0.88732244243165
-33.66726695740687 31.37177148303822 2861.71769137958427 -0.99993080303074 -0.00000000000001 -0.01176389180036
-32.91572767853911 31.38476360046752 2862.90282599386637 0.55521725961130 -0.05593322434968 -0.82982243223690
-32.15595018580844 31.39033232424157 2863.41080226008489 -0.00282813187828 0.00153459096926 0.99999482333692
-31.39035606012750 31.39035606012750 2863.41296743602106 0.00282790139056 0.00490835446135 -0.99998395538639
-30.61583039099807 31.38122615077302 2862.58014155831916 -0.99994281139192 0.00000000000000 -0.01069457552291
-29.84309156396015 31.37350651595811 2861.87596023617880 -0.35358521177486 0.20709600466520 0.91218898418356
-29.08087854491630 31.37673737740969 2862.17067784176197 -0.00000000000002 0.99993991647956 -0.01096190817527
-28.31825614242381 31.37968923890206 2862.43994520716342 0.99995106739120 -0.00000000000001 0.00989256403563
-27.54742020957840 31.37345079424206 2861.87087732842247 -0.99995367647246 -0.00000000000000 -0.00962522255427
-26.77138243171776 31.36076227715509 2860.71343698926876 -0.99995621409162 -0.00000000000000 -0.00935787900887
-25.99623496054957 31.34840098183919 2859.58584566045283 -0.99995868024707 -0.00000000000000 -0.00909053345679
-25.22386457459138 31.33874083509838 2858.70465178702307 0.22187866770973 0.10363356063641 0.96955141272919
-24.45800721253125 31.33682174105567 2858.52959296458994 -0.21887330830146 0.17743645232150 -0.95948464307707
-23.69066801311211 31.33281898508377 2858.16446351739705 0.37585153897785 -0.47599053191285 0.79509033082871
-22.91425467163772 31.31614805123822 2856.64374906416970 -0.18560017233658 -0.65112609921180 0.73592620482889
-22.14121636085718 31.30309899293601 2855.45342033123598 0.15500745178360 -0.65437507388922 -0.74011212161674
-21.37890995116608 31.30483242849319 2855.61154347718320 0.00000000000000 0.99993991647956 -0.01096190817532
-20.61937231464470 31.31089870001603 2856.16490580634036 0.00000000000000 0.99993991647956 -0.01096190817532
-19.85400272558107 31.30823506726246 2855.92193052589255 -0.00000000000001 -0.99993991647956 0.01096190817530
-19.08703185667224 31.30273224494248 2855.41996575816711 -0.00000000000000 -0.99993991647956 0.01096190817531
-18.32247643007091 31.30089723470448 2855.25257701938426 -0.00000000000000 -0.99993991647956 0.01096190817530
-17.55985664023779 31.30235314129344 2855.38538410823139 0.00000000000000 0.99993991647956 -0.01096190817529
-16.79567782613068 31.30103594869809 2855.26523044221585 0.00000000000000 -0.99993991647956 0.01096190817532
-16.03000183759852 31.29667025435901 2854.86699393421213 -0.00000000000001 -0.99993991647956 0.01096190817530
-15.26366365709415 31.29051049704302 2854.30510387660661 -0.99998570192809 -0.00000000000001 -0.00534751712260
-14.49675060220583 31.28246182581257 2853.57090801314644 -0.99998709596312 -0.00000000000005 -0.00508014834833
-13.72885338128998 31.27127714627162 2852.55064700136199 -0.99998841851456 0.00000000000000 -0.00481277848483
-12.96193122137392 31.26112823978416 2851.62486870226212 0.54622946345233 0.13677377342983 0.82639355524977
-12.19730644914399 31.25559777593148 2851.12038248740828 -0.04141499977458 -0.35360527701279 -0.93447745069765
-11.43483982785697 31.25522886280906 2851.08673041233851 0.03968543477779 0.44574467480716 0.89428001830945
-10.67397610880207 31.25950146149177 2851.47647477998134 -0.41423652029612 0.42660357709419 0.80400092864586
-9.91397802076790 31.26716145011413 2852.17521520553328 0.26040405924788 -0.35867737728156 -0.89640407459675
-9.15207138396102 31.26957722853348 2852.39558133451783 -0.24472107243101 0.48283938947052 0.84081967191780
-8.39085572711005 31.27500771013747 2852.89094721741822 -0.52579712814776 -0.17786665235619 0.83180576699803
-7.62934075802413 31.28029710789894 2853.37344350102558 0.53395709878174 -0.07832388371160 -0.84187599199699
-6.86770082088406 31.28619262847185 2853.91123001182177 -0.11943596456539 -0.15212048990962 -0.98111895655827
-6.10442453618756 31.28517574796124 2853.81847066768432 -0.99999771226728 0.00000000000000 -0.00213903253961
-5.34054080144950 31.28031040848991 2853.37465677444516 -0.99999824845323 -0.00000000000000 -0.00187165447571
-4.57730745429661 31.27826760436017 2853.18831317822060 0.23706874883953 0.04349916633875 0.97051853709834
-3.81416626840466 31.27616340091821 2852.99636876668546 0.24262453409596 0.11410325242141 0.96338662189257
-3.05094569676857 31.27219339187789 2852.63422647861762 0.30301647927951 0.34069504071475 0.89000443960546
-2.28800178235088 31.26935769212863 2852.37555533075783 -0.00000000000000 -0.99993991647956 0.01096190817529
-1.52534707306145 31.26961499775968 2852.39902662490749 0.00000000000001 0.99993991647956 -0.01096190817533
-0.76275193288411 31.27282924824851 2852.69222898657108 0.35770453167171 0.07092565088846 -0.93113748719916
0.00000000000000 31.28144576127795 2853.47822310193988 -0.68021156468253 -0.15557582183242 0.71631584579242
0.76315632187805 31.28940919700008 2854.20464382390992 -0.30275116818451 -0.11653294276877 0.94591849723566
1.52644346111479 31.29209095285313 2854.44927228465122 -0.21877813044167 0.17369969508645 0.96018984871083
2.28980443230401 31.29399390815476 2854.62285893899571 0.00000000000006 0.99993991647956 -0.01096190817554
3.05327944314346 31.29611429222043 2854.81627933913160 -0.00000000000000 0.99993991647956 -0.01096190817531
3.81712442167058 31.30042025769879 2855.20906740959708 -0.42152077478065 0.39685216481937 0.81537022002677
4.58132412895192 31.30571488117146 2855.69204038003090 0.99999871314841 0.00000000000000 -0.00160427601039
5.34599069717398 31.31223122630473 2856.28645820438305 0.99999824845323 -0.00000000000000 -0.00187165447572
6.11073339815723 31.31750866555580 2856.76786363850488 -0.37420625134821 0.35221937650241 0.85785266349658
6.87537412720027 31.32114880169012 2857.09991508100165 0.00000000000008 0.99993991647956 -0.01096190817550
7.64025030558888 31.32502625291440 2857.45361429024024 -0.12958597805445 0.32808102810769 0.93571914231113
8.40458547153958 31.32618221210208 2857.55906032345774 0.12282326167774 -0.44834778574501 -0.88538054496831
9.16732620239057 31.32169785816779 2857.14999974506190 -0.00000000000002 -0.99993991647956 0.01096190817527
9.93023370960122 31.31842939181923 2856.85185183912017 0.00000000000000 0.99993991647956 -0.01096190817532
10.69591560059925 31.32375283032637 2857.33745330294232 -0.00000000000003 0.99993991647956 -0.01096190817528
11.46242831310348 31.33063738914951 2857.96545940046781 -0.09486540864405 0.63013413919449 0.77066952766047
12.22698924826695 31.33165994868407 2858.05873678240050 0.00000000000000 -0.99993991647956 0.01096190817528
12.99047593756360 31.32997137882986 2857.90470626399156 -0.15708665721013 -0.61605404976622 -0.77188159059093
13.75169286560525 31.32330041610084 2857.29618429797938 0.00000000000002 -0.99993991647956 0.01096190817534
14.51323342743228 31.31803002761702 2856.81542203140634 0.00000000000001 -0.99993991647956 0.01096190817532
15.27649065645886 31.31680584574067 2856.70375275780771 0.00000000000001 -0.99993991647956 0.01096190817536
16.03910916221252 31.31445122146254 2856.48896507975405 -0.00000000000000 -0.99993991647956 0.01096190817531
16.79966362168285 31.30846402222712 2855.94281568608358 0.00000000000001 -0.99993991647956 0.01096190817533
17.56219122376723 31.30651479019376 2855.76500769084532 -0.00000000000000 0.99993991647956 -0.01096190817531
18.32747747386013 31.30944068451106 2856.03190634320345 -0.00000000000001 0.99993991647956 -0.01096190817530
19.09532118802427 31.31632674835980 2856.66004972843075 0.00000000000000 0.99993991647956 -0.01096190817531
19.85699589242139 31.31295506112604 2856.35248606369260 -0.00000000000000 0.99993991647956 -0.01096190817532
20.62298045430694 31.31637772691055 2856.66469996696196 -0.33980441450958 0.44454555464357 0.82880167092402
21.39116475481455 31.32277696240703 2857.24843510737264 0.56759976373031 -0.35452283550903 -0.74306397255952
22.16406774981144 31.33540612904376 2858.40046152740661 -0.51481138662978 0.01891410252416 0.85709479809530
22.93204518670409 31.34046175516226 2858.86163327577651 -0.09286729805700 0.39087859794103 -0.91574537215497
23.69580167759240 31.33960867036415 2858.78381529663193 -0.10074912791648 -0.12131519382291 -0.98748784142985
24.45919155515728 31.33833918004526 2858.66801300900715 -0.00000000000001 -0.99993991647956 0.01096190817527
25.22157866608609 31.33590076695544 2858.44558215642337 0.00000000000000 -0.99993991647956 0.01096190817530
25.98595097263919 31.33599970230020 2858.45460699031082 -0.00000000000000 0.99993991647956 -0.01096190817525
26.75070429944163 31.33653932220305 2858.50383085461999 -0.00000000000000 0.99993991647956 -0.01096190817522
27.51539167285057 31.33697384963537 2858.54346823503192 0.00000000000000 0.99993991647956 -0.01096190817532
28.28339911236756 31.34106388127216 2858.91655892580184 -0.37162082833674 -0.51767375674267 0.77065675986541
29.05638006549128 31.35030480750374 2859.75951170887811 -0.68823636172496 -0.35094655226066 0.63495450849328
29.83258692936699 31.36246318215504 2860.86859271365483 0.48622398684114 0.58233786716697 -0.65151273439875
30.60672589633523 31.37189404374361 2861.72887130734398 0.29409212403428 0.40548291659821 -0.86550183531176
31.38989607382543 31.38989607382543 2863.37100770992902 0.77241529083702 0.46420023434038 -0.43346598588528
32.18798507512742 31.42160447810058 2866.26343288039425 -0.99993695011397 0.00000000000001 0.01122923847721
32.99274601207748 31.45819968593435 2869.60162988766979 -0.99993391229704 -0.00000000000002 0.01149656637135
33.79541172242377 31.49117910498579 2872.60999640602040 -0.99993080303074 0.00000000000005 0.01176389180032
34.58798544636917 31.51349785113636 2874.64590154268262 -0.33950660966370 -0.59177371718166 0.73112182955213
35.36106224676242 31.51746852428824 2875.00810441068370 -0.30820820632348 0.22968294662509 -0.92317573927421
36.12656054220348 31.51465919639027 2874.75183889023447 -0.29958476159553 -0.34070006028404 -0.89116353131297
36.89907384860793 31.51795891235260 2875.05283737070113 -0.00000000000000 0.99993991647956 -0.01096190817531
37.66718568757403 31.51744108552113 2875.00560145973213 -0.05409306074626 -0.48230820717573 -0.87432987714594
38.42637064803921 31.50962393139216 2874.29252447333329 0.63719053431985 0.37323954284199 0.67429998267261
39.17761384617047 31.49572877829390 2873.02501538583374 -0.12091944228859 0.16686489850880 0.97853696615011
39.93439482829258 31.48673438384607 2872.20455111181218 0.16792468270983 -0.47990548713592 0.86109931155102
40.70023452184959 31.48508708294025 2872.05428512674507 0.00000000000000 0.99993991647956 -0.01096190817531
41.48008128849843 31.49413579311918 2872.87970405526175 -0.70699274991873 -0.70699274991885 0.01795837199033
42.27795793321356 31.51629591385011 2874.90113945852227 0.70699033722149 0.70699033722167 -0.01814734555353
43.07493127492438 31.53700325485535 2876.79005300387826 -0.08114337729793 -0.19232054740798 0.97797165570653
43.89426156432097 31.57306533573964 2880.07961843088469 -0.87128478766946 -0.43092609157529 0.23487341777098
44.73750870944682 31.62479063943655 2884.79797540226082 -0.99987977232180 0.00000000000005 0.01550615689695
45.59650605594960 31.68570759820227 2890.35479066527978 0.92460150046736 0.34220146454962 -0.16736254955515
46.45411120843647 31.74364265909825 2895.63959865920606 -0.99987133942750 -0.00000000000007 0.01604071667533
47.43073426339564 31.87967384916756 2908.04829746065070 -0.99986701586528 -0.00000000000041 0.01630799143548
48.29911088073809 31.93973461468164 2913.52701119291078 -0.99986262089671 -0.00000000000000 0.01657526269936
49.16303990947156 31.99499422679895 2918.56776605434334 -0.99985815452462 0.00000000000001 0.01684253041044
50.01323257148151 32.03972711610535 2922.64827839595091 -0.99985361675186 -0.00000000000001 0.01710979451127
50.85253092853846 32.07621181646272 2925.97639496513602 -0.99984900758137 0.00000000000000 0.01737705494460
51.67104310175122 32.09867829048182 2928.02577576590238 0.71992541972910 -0.05166211252767 -0.69212601176163
52.46879075106072 32.10776747452969 2928.85488670100131 0.33628754050873 -0.30521458108633 -0.89092914959096
53.25729819755949 32.11101803088145 2929.15140086577185 -0.00000000000001 0.99993991647956 -0.01096190817528
54.04244524075150 32.11217760682335 2929.25717681754486 0.00000000000001 0.99993991647956 -0.01096190817538
54.82682406013194 32.11285409236299 2929.31888549847827 -0.07840689301756 0.03739704558329 0.99621976496603
55.61729684679261 32.11703057349996 2929.69986207048396 0.00000000000002 0.99993991647956 -0.01096190817537
56.40524729172876 32.11965470778999 2929.93923432035535 0.28182962910134 -0.25516751243403 -0.92491167186863
57.20428144199224 32.12843204276277 2930.73989853494504 0.69325233618982 0.19443118299041 -0.69397241548083
58.02945703744331 32.15145592615102 2932.84012594645901 -0.99980431265276 0.00000000000000 0.01978222436799
58.82773387480371 32.15916118489270 2933.54299589021184 -0.31577912701899 0.49910173420937 0.80695786869472
59.61834825859530 32.16252998161062 2933.85029588350562 -0.00000000000000 0.99993991647956 -0.01096190817531
60.39881683896510 32.16040896620220 2933.65681789259042 -0.00000000000000 -0.99993991647956 0.01096190817529
61.18282680625651 32.16020383405791 2933.63810583845316 0.00000000000000 0.99993991647956 -0.01096190817535
61.96773119263525 32.16046808731703 2933.66221089184592 -0.00000000000000 -0.99993991647956 0.01096190817532
62.74731212507823 32.15799746410259 2933.43684184740732 0.23859508139489 0.52085780215335 0.81962158162786
63.50996903234593 32.14702136205164 2932.43560717251557 -0.58304323664020 -0.61510393919678 -0.53076146072668
64.25487788594815 32.12743894297407 2930.64930845665958 0.99975973087797 -0.00000000000001 -0.02191986575723
65.00449949648994 32.11065637778419 2929.11841104665564 0.99975383709929 0.00000000000019 -0.02218705039534
65.75528474343828 32.09484136286869 2927.67577310070419 -0.33111361217546 -0.69589563326437 -0.63725430044504
66.52905640862203 32.09048603239415 2927.27848197936919 0.29946755785075 -0.74866484659012 0.59145594026529
67.33565798959900 32.10188346015767 2928.31814978023567 0.00000000000004 0.99993991647956 -0.01096190817534
68.13789484677622 32.11096193928535 2929.14628421773659 -0.00000000000000 0.99993991647956 -0.01096190817530
68.90137892941344 32.10177881938581 2928.30860450007140 0.48333958939823 0.76131517647843 0.43218288187290
69.65550595545874 32.08849150757087 2927.09654239792872 0.00000000000001 -0.99993991647956 0.01096190817532
70.43103976387300 32.08525144798659 2926.80098574316662 -0.00000000000000 -0.99993991647956 0.01096190817528
71.21137402492246 32.08424543980023 2926.70921816714281 -0.00000000000000 0.99993991647956 -0.01096190817533
71.99763377823109 32.08590200986386 2926.86032968026393 0.00000000000000 -0.99993991647956 0.01096190817532
72.76662418522334 32.07990958703395 2926.31370379285272 0.99969097661173 -0.00000000000000 -0.02485862588900
73.51724437886190 32.06603212269509 2925.04780826535671 -0.99968429838175 -0.00000000000003 0.02512575509309
74.26569534836379 32.05151062403069 2923.72316424084829 -0.99967754886283 -0.00000000000046 0.02539287891534
-76.83467295883894 32.92914555378812 2932.26200883732281 -0.58365838034445 0.57564982848340 0.57268679923736
-76.07061634071984 32.93779264237353 2933.03201148754806 -0.00000000000000 0.99993695011397 -0.01122923847721
-75.27221604635476 32.93159452028021 2932.48008347257110 -0.00000000000002 -0.99993695011397 0.01122923847718
-74.48253992570154 32.92912291452068 2932.25999286446086 -0.25053005084109 -0.36969601947703 -0.89473993249905
-73.71123280611556 32.93480614741333 2932.76607122204450 0.99968429838175 -0.00000000000001 0.02512575509298
-72.96006999781557 32.94970903127155 2934.09313754656159 -0.99969097661173 -0.00000000000000 -0.02485862588898
-72.19008188580038 32.95634173047409 2934.68376361840728 -0.33407199970221 0.12663211847553 0.93400225138131
-71.41216687511880 32.95946163467021 2934.96158365872861 0.05898830237839 -0.17084168665700 -0.98353113742408
-70.62854656527729 32.95998839712940 2935.00849060152314 0.00000000000001 -0.99993695011397 0.01122923847708
-69.84307473839925 32.95965324733449 2934.97864631026096 -0.03727181385364 0.17990768657616 -0.98297712903347
-69.06612945005567 32.96337996479929 2935.31050162736574 -0.13998299724297 -0.32515125258014 0.93524404485056
-68.28402085246060 32.96469972187753 2935.42802285290372 0.14225778649351 0.27844537131312 -0.94985835648072
-67.48250103347105 32.95657027216028 2934.70411471141551 0.56573590467367 -0.52924275032453 0.63233297983894
-66.67907443024141 32.94730736553106 2933.87927493062261 -0.00000000000000 -0.99993695011397 0.01122923847721
-65.90414686545779 32.95207343272889 2934.30368186681108 0.00000000000000 0.99993695011397 -0.01122923847722
-65.13121378540305 32.95796360225214 2934.82818743864345 0.35339039441568 -0.49003261967904 0.79685836933876
-64.33874129659009 32.95398944459492 2934.47429816154772 -0.37931411351286 0.35748105022257 -0.85342140939967
-63.52965305594221 32.94130158456263 2933.34447443486260 0.99976555331926 -0.00000000000000 0.02165267642215
-62.70849405906027 32.92195938100664 2931.62209726106767 0.67608999574127 0.52167321897328 0.52034543359639
-61.88685890934507 32.90187435686699 2929.83357368291809 -0.25276802080016 -0.60211341986190 0.75734256270394
-61.10894455514694 32.90481629892528 2930.09554661858419 0.31584259369547 -0.15453723296527 -0.93614192280613
-60.34725444501644 32.91668424273624 2931.15235875794133 0.70692788096100 -0.70692788096100 0.02249315984876
-59.58231865560963 32.92707083599480 2932.07726015763183 -0.61938744793391 0.60067675205504 0.50551620041550
-58.83092413082595 32.94531751326253 2933.70208332385391 0.99979898967542 0.00000000000000 0.02004944498012
-58.06951833710407 32.95837527241042 2934.86484568607057 0.30663195591893 -0.26300671489098 0.91477008670572
-57.27961024755956 32.95539219722605 2934.59920994346248 -0.27860855207945 -0.49514950903451 -0.82292419967520
-56.45441780079042 32.93174371712774 2932.49336909661361 -0.99981474450593 0.00000000000001 -0.01924777048247
-55.63383868993783 32.91015809827308 2930.57122113193645 -0.99981985337505 -0.00000000000002 -0.01898053732340
-54.74021468184536 32.84412880910722 2924.69147014430928 -0.99982489086815 -0.00000000000001 -0.01871330009645
-53.82619669389847 32.76377190063385 2917.53587877072869 -0.99982985698197 -0.00000000000001 -0.01844605885874
-52.80233759587608 32.61320851509993 2904.12856777318439 0.99983475171332 -0.00000000000001 0.01817881366751
-51.91112996253507 32.54130534964885 2897.72576208777900 0.99983957505907 0.00000000000001 0.01791156457995
-51.04629392535787 32.48400522522773 2892.62332243694573 0.99984432701610 0.00000000000001 0.01764431165323
-50.21822386628492 32.44869849821487 2889.47934246008663 0.99984900758137 0.00000000000021 0.01737705494478
-49.40597049531741 32.42266813755205 2887.16140082011134 0.99985361675186 0.00000000000002 0.01710979451127
-48.60023800661854 32.40015867107902 2885.15698642465577 0.99985815452462 0.00000000000002 0.01684253041047
-47.80812266764776 32.38614761356784 2883.90933511294543 0.99986262089671 0.00000000000000 0.01657526269936
-47.01536783867967 32.37123687253354 2882.58156912560617 -0.72579064043441 -0.40953180811028 -0.55273107783418
-46.21832719130325 32.35282903391228 2880.94239492456927 0.99987133942754 -0.00000000000223 0.01604071667305
-45.42021135692134 32.33303181340163 2879.17949957433575 0.99987559158058 -0.00000000000000 0.01577343847680
-44.61911014914304 32.31039010800013 2877.16330961715448 0.99987977232180 0.00000000000001 0.01550615689699
-43.81352184074856 32.28364767213051 2874.78195937543160 0.99988388164845 -0.00000000000000 0.01523887199303
-43.00329117690431 32.25246838267823 2872.00551788610937 0.99988791955791 0.00000000000000 0.01497158382226
-42.20436112460320 32.22878485878790 2869.89655647301743 -0.58272328798832 -0.54521808085599 -0.60263655211395
