ply
        format ascii 1.0
        element vertex 37636
        property float x
        property float y
        property float z
        property float nx
        property float ny
        property float nz
end_header
53.97643188438294 55.54096614190129 2925.67906155930723 0.00310532843279 -0.08172871052713 -0.99664977540302
54.75874456396338 55.54101234344856 2925.68149527461446 -0.00000000000001 -0.99981985337505 0.01898053732341
55.53479398074602 55.53479398074602 2925.35393645056547 -0.36662315521883 -0.35017903868082 -0.86195249458771
56.32558536619956 55.54328556944679 2925.80123985536602 -0.00000000000000 0.99981985337505 -0.01898053732344
57.10330725558384 55.53883308419798 2925.56670049155582 0.00000000000000 0.99981985337505 -0.01898053732344
57.89352894124674 55.54649398416916 2925.97024649003743 0.44128279396636 -0.25892255338481 -0.85920230859672
58.69243223690270 55.56216918426789 2926.79595421354816 0.49602224249796 0.48473418487105 0.72041287118200
59.46433421179781 55.55220696102163 2926.27118358057623 -0.41062946843910 -0.45776523327486 -0.78856479179217
60.23854983651808 55.54463686224394 2925.87242063087797 0.43202740070702 0.34755141274071 0.83220210318184
60.99448863441802 55.52062426979077 2924.60753195799225 0.66873165341030 -0.36614578266529 -0.64709755181391
61.79713692240486 55.53919900621196 2925.58597582017956 0.99977698417473 -0.00000000000003 -0.02111828389035
62.59669587537233 55.55456758939294 2926.39553217365619 0.99977130441941 0.00000000000001 -0.02138548244746
63.39971049565566 55.57258574310558 2927.34465745373063 0.46275537476717 0.29611713919421 -0.83556693508033
64.19210994940887 55.58097324887841 2927.78647818035597 -0.51083997673165 -0.20757550312026 -0.83423913159068
64.96449366146261 55.57203674655236 2927.31573848036351 0.45369592521861 -0.47588757825881 0.75345273262428
65.75913646923144 55.58212725375514 2927.84726660625665 0.00000000000002 0.99981985337505 -0.01898053732346
66.55866228824402 55.59605908782736 2928.58114068273699 -0.66772168961054 -0.14474414184871 0.73020331321086
67.36873543253061 55.61837460127528 2929.75663392633169 0.37369002718281 -0.48087823351447 -0.79316573811286
68.16067339629107 55.62537713950191 2930.12550002446687 -0.00000000000000 -0.99981985337505 0.01898053732343
68.93334467782542 55.61667581960915 2929.66714880758036 0.20126210947177 0.49757990676563 0.84374628868759
69.71230544623592 55.61318749081742 2929.48339740362189 -0.00000000000001 -0.99981985337505 0.01898053732341
70.49377659605659 55.61175709244464 2929.40804965835150 -0.00000000000001 -0.99981985337505 0.01898053732341
71.27675317246951 55.61153269500367 2929.39622928610925 -0.01509555781526 -0.03586319049241 -0.99924269109258
72.07336925698820 55.62183931789307 2929.93914153408559 -0.27904636123136 0.34008979309732 0.89803789503259
72.86283182985069 55.62646300988602 2930.18269939399579 -0.20142663882164 0.31802475674887 0.92643810547054
73.65057998111759 55.62969338999308 2930.35286307850856 -0.23789561330659 0.16068201907026 -0.95790759779688
74.42916949456905 55.62601088541476 2930.15888325987589 0.20198362783789 -0.53422559450604 0.82085664294084
-76.89427911111767 56.49375608163746 2934.53677424061289 0.26572259560305 0.50959536639821 0.81835448598481
-76.10305931997144 56.48886877358705 2934.28290573910499 0.00000000000002 -0.99981474450593 0.01924777048250
-75.30837483320997 56.48128112490748 2933.88876954380476 -0.34113723203973 -0.65397541938302 -0.67523443318530
-74.49817646224710 56.46177584507149 2932.87557861899131 0.99967754886284 0.00000000000000 0.02539287891497
-73.68191509213446 56.43721155993277 2931.59960047428558 -0.56399060507101 -0.61474687473602 -0.55136274574361
-72.86335714511135 56.41034101557009 2930.20382497544597 0.70710120785010 0.70710120785010 0.00397035437566
-72.03698682323922 56.37677229644808 2928.46011650994205 0.51039824953230 0.48376494150297 0.71096069388328
-71.24023876622583 56.36590319965121 2927.89552731521553 0.00000000000000 -0.99981474450593 0.01924777048246
-70.46472326470563 56.37177861176450 2928.20072233332257 -0.00000000000000 0.99981474450593 -0.01924777048246
-69.69402603693042 56.38168398493249 2928.71525143954841 -0.00000000000000 0.99981474450593 -0.01924777048246
-68.91705045606392 56.38667764587048 2928.97464438271663 0.17570286087646 -0.84198732046570 -0.51008416644198
-68.16543129026849 56.41277072298082 2930.33003477705915 0.51726167246619 -0.81002282961327 -0.27623066032355
-67.41260446146809 56.43845954913608 2931.66442658012420 0.70679149464091 -0.70679149464090 0.02985910592336
-66.68470291496796 56.48586599856109 2934.12692825858994 -0.63128895174898 0.66784351740947 0.39428326829048
-65.92657872294284 56.50849604823672 2935.30243361674047 -0.01935236775951 -0.69514573679970 -0.71860830114277
-65.14127774391925 56.50809635617091 2935.28167183443338 0.00000000000000 -0.99981474450593 0.01924777048250
-64.35344502443793 56.50546392389672 2935.14493160241318 -0.00000000000002 -0.99981474450593 0.01924777048237
-63.56338769134346 56.50078905897198 2934.90209834104417 0.00000000000000 -0.99981474450593 0.01924777048246
-62.78135832167676 56.50322248950908 2935.02850153838835 -0.00000000000001 0.99981474450593 -0.01924777048245
-62.00388901351361 56.50987353130355 2935.37398620937893 -0.00000000000000 0.99981474450593 -0.01924777048246
-61.23380201150606 56.52350954908251 2936.08230157734170 -0.58679995263305 0.50839001079202 0.63024234427460
-60.46329728850274 56.53710915288568 2936.78872544156184 -0.39186776100220 0.12197000368380 0.91190074903385
-59.68484000797979 56.54353263913875 2937.12238986637431 0.22055561068753 -0.14768335059372 -0.96412906322321
-58.90308887600229 56.54696532096220 2937.30069861664788 -0.22197485097859 -0.04427232153322 0.97404677869140
-58.12446365128756 56.55353220125276 2937.64181156507357 -0.38548461651973 -0.26131404375855 0.88493874418583
-57.35419476480325 56.56852086391553 2938.42038932005653 -0.99980956426405 0.00000000000002 -0.01951499951642
-56.59519732471065 56.59519732471065 2939.80608325580306 -0.35960152097981 0.22907071787562 -0.90455146471660
-55.80314601223906 56.58910581522834 2939.48966317991653 -0.99981985337505 -0.00000000000000 -0.01898053732346
-54.93429894418191 56.50385034258711 2935.06111501771920 0.99982489086815 -0.00000000000000 0.01871330009646
-53.96771861747100 56.31414116605670 2925.20677723683411 -0.99982985698197 0.00000000000001 -0.01844605885875
-53.03942702866770 56.15939332447169 2917.16848657672381 -0.99983475171332 -0.00000000000001 -0.01817881366750
-52.14052651575128 56.03161058409092 2910.53088311805641 -0.99983957505907 0.00000000000000 -0.01791156457993
-51.25848805602985 55.91835060657802 2904.64765650835852 -0.99984432701610 0.00000000000000 -0.01764431165323
-50.37428375500254 55.79920662092589 2898.45878836476140 -0.99984900758137 0.00000000000000 -0.01737705494460
-49.46462248783368 55.64770029881289 2890.58887663278074 -0.99985361675186 -0.00000000000005 -0.01710979451123
-48.57625087671809 55.51571528767782 2883.73298855437542 -0.82744022857711 0.48453651050710 -0.28384333375627
-47.76147138885179 55.46493451608595 2881.09520958557550 0.41106387801085 -0.80310009292876 0.43134293657426
-46.97850268501841 55.45003595608730 2880.32131216342350 0.58846988971450 -0.53559009185703 0.60567849755789
-46.18981928607665 55.42778314329198 2879.16540216544445 0.70688667773367 -0.70688667773367 0.02494894156706
-45.39819198259243 55.40118343638397 2877.78369516772318 -0.99987559158058 0.00000000000018 -0.01577343847702
-44.60079500419369 55.36650414313699 2875.98229854628244 -0.99987977232179 0.00000000000005 -0.01550615689708
-43.80560161272593 55.33339151081170 2874.26228125605257 -0.99988388164845 0.00000000000001 -0.01523887199310
-43.01790073916894 55.30872952178864 2872.98122793735456 0.99988791955791 0.00000000000012 0.01497158382264
-42.23337651886742 55.28732926106280 2871.86960328298437 0.99989188604758 -0.00000000000002 0.01470429244185
-41.44816262700945 55.26421683601261 2870.66904120398840 -0.51257012666500 -0.61457038489217 -0.59964581818279
-40.66353350004173 55.24102664156612 2869.46443943690701 0.29026691621410 0.72675192493414 0.62255662951741
-39.89140159947388 55.23424836850230 2869.11234580831388 0.00000000000000 -0.99981474450593 0.01924777048246
-39.12674125109499 55.23775235448705 2869.29435841363284 0.00000000000001 0.99981474450593 -0.01924777048250
-38.36298650606036 55.24270056872692 2869.55139065331468 -0.00000000000001 0.99981474450593 -0.01924777048244
-37.60143200994022 55.25108376970808 2869.98685137094753 -0.00000000000003 0.99981474450593 -0.01924777048241
-36.83933324962783 55.25899987444174 2870.39804903350159 0.00000000000001 0.99981474450593 -0.01924777048247
-36.07499087542352 55.26381580915942 2870.64821008689250 -0.00000000000000 0.99981474450593 -0.01924777048245
-35.30538881493921 55.26060857990484 2870.48161234505687 0.00000000000001 -0.99981474450593 0.01924777048249
-34.53439519331582 55.25503230930531 2870.19195606669246 0.31879249921523 0.43886933287275 0.84009823896252
-33.75797172557811 55.24031736912782 2869.42759667413929 0.99993080303075 -0.00000000000004 0.01176389180030
-32.98145243811320 55.22475757079420 2868.61935159403174 0.99993391229704 0.00000000000004 0.01149656637138
-32.20378192763039 55.20648330450924 2867.67010498422997 0.99993695011397 -0.00000000000001 0.01122923847719
-31.42793532750114 55.19052057512396 2866.84092987449458 0.39160178903819 0.03531122463843 0.91945698987860
-30.65789527140372 55.18421148852670 2866.51320787624809 0.14454124552166 0.26045601339882 -0.95460488864631
-29.89266251364987 55.18645387135360 2866.62968720642311 0.14531214498216 -0.27881367197840 -0.94928779452735
-29.13283367816736 55.19905328494868 2867.28415674594544 0.59834858195546 -0.20912694826001 -0.77346292347038
-28.37197305060926 55.21032593632073 2867.86970835888224 -0.11254423606787 -0.10383442640782 -0.98820656080622
-27.60432313692721 55.20864627385441 2867.78245922521546 -0.00000000000001 -0.99981474450593 0.01924777048243
-26.83550600357124 55.20446949306084 2867.56549866732712 -0.00000000000000 0.99981474450593 -0.01924777048247
-26.07177948997442 55.21082715523995 2867.89574389718655 -0.00000000000000 0.99981474450593 -0.01924777048247
-25.31133830201962 55.22473811349737 2868.61834089555759 0.56195152901630 0.56696440155743 -0.60229714128731
-24.55123286079921 55.24027393679822 2869.42534060590742 -0.39649268516780 -0.30933980154862 0.86435087654626
-23.78693301716735 55.24707023342095 2869.77837045825481 -0.39034553624274 -0.34935004237620 0.85181272016044
-23.00261686938248 55.20628048651795 2867.65956971634932 -0.99996783020064 0.00000000000002 -0.00802113232784
-22.22067246603962 55.16856612258112 2865.70051803407478 0.75384750907335 -0.50861374880610 0.41596392582687
-21.43968303871947 55.13061352813579 2863.72909160038671 0.72838476206554 -0.43320066765425 0.53084161473517
-20.66548522775370 55.10796060734319 2862.55239821477153 -0.99997394222361 -0.00000000000000 -0.00721906321925
-19.88881984737506 55.07673188503863 2860.93023958395133 -0.99997583661606 0.00000000000000 -0.00695170367702
-19.11063802248920 55.03863750476891 2858.95144816438506 -0.99997765953216 -0.00000000000000 -0.00668434264393
-18.33176226662433 54.99528679987301 2856.69961988229215 -0.99997941097075 -0.00000000000000 -0.00641698017736
-17.55905729560814 54.96748370799069 2855.25540372062733 0.99998109093069 0.00000000000000 0.00614961633459
-16.79954126811497 54.98031687746717 2855.92201557954468 0.99998269941091 0.00000000000000 0.00588225117302
-16.04415721112515 55.00853900957196 2857.38799855276557 0.99998423641038 0.00000000000000 0.00561488474992
-15.28894671941586 55.04020818989708 2859.03303653076500 0.99998570192809 -0.00000000000000 0.00534751712261
-14.53047714368675 55.06286075502348 2860.20971144149735 -0.99998709596312 0.00000000000000 -0.00508014834849
-13.77006595419824 55.08026381679296 2861.11370381674533 -0.99998841851456 -0.00000000000000 -0.00481277848483
-13.00888537382268 55.09645570089608 2861.95478224099088 0.43463874301882 0.45437649795526 -0.77758032457935
-12.24861274325978 55.11875734466899 2863.11322873697236 -0.49029044383782 -0.59658055423086 0.63537935361082
-11.48547970811726 55.13030259896286 2863.71294055723729 0.49029044383782 0.59658055423086 -0.63537935361082
-10.71483240551473 55.10485237121862 2862.39094261607806 -0.54104768995818 0.68881252419552 -0.48249839761632
-9.94117684889094 55.05882562462676 2860.00010883477898 0.83087812026452 -0.45387662796239 0.32192787368476
-9.16960481460206 55.01762888761234 2857.86016721764099 0.81476334380514 -0.43130520191642 0.38747453644246
-8.40086055800867 54.98745092514769 2856.29258972294929 -0.99999567476855 -0.00000000000001 -0.00294116374931
-7.63261435571243 54.95482336112952 2854.59776903645025 -0.65704457554752 0.54483444196623 -0.52100658018007
-6.86687426884469 54.93499415075752 2853.56775171990466 -0.06706991398284 0.70221413346047 -0.70879964546174
-6.10373077111214 54.93357694000922 2853.49413549492328 0.07745316516014 -0.57567545362860 0.81400170718259
-5.34188522361031 54.94510515713463 2854.09296232893803 0.58594296667462 0.30367494294192 -0.75130045177263
-4.58021875683410 54.96262508200923 2855.00302509325729 -0.99999871314841 -0.00000000000000 -0.00160427601040
-3.81829994083875 54.98351914807801 2856.08835574738532 -0.99999910635254 -0.00000000000000 -0.00133689720100
-3.05568070239965 55.00225264319374 2857.06145674367463 -0.99999942806535 0.00000000000000 -0.00106951810488
-2.29257893011200 55.02189432268788 2858.08173287295403 -0.99999967828664 0.00000000000000 -0.00080213877937
-1.52914319651547 55.04915507455704 2859.49777748393490 -0.99999985701625 0.00000000000000 -0.00053475928183
-0.76490124548774 55.07288967511710 2860.73065812413824 -0.99999996425406 -0.00000000000000 -0.00026737966959
0.00000000000000 55.08720895741502 2861.47446528794717 1.00000000000000 -0.00000000000000 -0.00000000000000
0.76528185446172 55.10029352124354 2862.15413568681743 0.99999996425406 -0.00000000000000 -0.00026737966959
1.53129465934918 55.12660773657052 2863.52101298296884 0.99999985701625 -0.00000000000000 -0.00053475928183
2.29787894606699 55.14909470560780 2864.68908609684968 -0.30761062910118 0.23752768633897 0.92138824557644
3.06411083809928 55.15399508578712 2864.94363362283048 0.25513060420272 0.11829970130447 0.95964241020832
3.82986702089346 55.15008510086586 2864.74053162830978 0.99999910635254 -0.00000000000000 -0.00133689720100
4.59485919827359 55.13831037928313 2864.12890025720708 0.99999871314841 0.00000000000000 -0.00160427601039
5.35890311583078 55.12014633425942 2863.18537902958678 0.99999824845323 0.00000000000000 -0.00187165447571
6.12133842017761 55.09204578159846 2861.72571143303139 -0.99999771226728 -0.00000000000000 0.00213903253961
6.88391309771047 55.07130478168372 2860.64833171523787 -0.99999710459092 -0.00000000000000 0.00240641014474
7.64501202298666 55.04408656550398 2859.23449659701237 0.57272475841609 -0.12547990201868 0.81008712203479
8.40606176790436 55.02149520810129 2858.06100108748342 0.63193370070529 0.07254238729398 0.77161998416228
9.16825000878396 55.00950005270373 2857.43791940433266 -0.99999485262346 0.00000000000000 0.00320853963409
9.93023138615237 54.99820460022850 2856.85118340075815 0.99999395898980 -0.00000000000000 -0.00347591483071
10.69052475929425 54.97984161922756 2855.89732855432067 0.99999299386813 -0.00000000000000 -0.00374328928186
11.44972659432907 54.95868765277954 2854.79849751938127 0.01742269829970 -0.47897521528592 -0.87765550914112
12.20909921214191 54.94094645463858 2853.87694083817041 -0.63287956891518 -0.41788639043350 -0.65179323097144
12.96885556956007 54.92691770637204 2853.14822530321453 0.57774679161294 0.56240658634378 0.59152977644248
13.72692467086269 54.90769868345077 2852.14990383480426 0.49801898274734 0.53334218179496 0.68375668913839
14.48676163589356 54.89720198864928 2851.60465885483745 0.49185738068321 -0.20471956953753 -0.84626604263424
15.25158889143019 54.90572000914870 2852.04712269744641 -0.46826059517150 0.37021678309081 0.80229143615493
16.02012076209615 54.92612832718681 2853.10722143998146 -0.66554603008985 0.49366893683219 0.55976732902038
16.78848585439746 54.94413552348261 2854.04259524756890 -0.46401243365287 0.60387027035251 0.64809965128823
17.55749061535651 54.96257931763778 2855.00064788840700 0.99998109093069 0.00000000000000 -0.00614961633460
18.32979896504969 54.98939689514906 2856.39367205357621 0.99997941097075 0.00000000000000 -0.00641698017735
19.10439444618318 55.02065600500757 2858.01740914900392 0.99997765953216 0.00000000000003 -0.00668434264390
19.87915155924152 55.04995816405343 2859.53949352166410 -0.66281728231782 0.56323969622617 0.49339061083067
20.65277652928296 55.07407074475456 2860.79200813030684 -0.50872613787777 0.69872725950187 0.50296911780842
21.42337742475254 55.08868480650653 2861.55112744908911 0.60009495833533 -0.53021525325685 -0.59896396068069
22.19610847370279 55.10757965884831 2862.53261005684271 0.54444695278124 -0.64097250379252 -0.54104691570063
22.97728642054913 55.14548740931792 2864.50170709512531 -0.77503171179679 0.49592581832833 0.39164196458592
23.75808001870194 55.18005681763032 2866.29739580468595 0.41072508705098 -0.72792527354481 -0.54902613690213
24.52928317937817 55.19088715360088 2866.85997158982354 0.00000000000001 0.99981474450593 -0.01924777048249
25.29607815684351 55.19144325129492 2866.88885777559744 0.00000000000001 0.99981474450593 -0.01924777048254
26.06464357503777 55.19571580596234 2867.11079325415449 -0.00000000000005 0.99981474450593 -0.01924777048232
26.83412957860254 55.20163799026809 2867.41841782781466 -0.00000000000003 0.99981474450593 -0.01924777048238
27.60309804263228 55.20619608526455 2867.65518554013079 0.00000000000000 0.99981474450593 -0.01924777048248
28.36870593733334 55.20396831048650 2867.53946501693781 0.14945202577787 0.03769963683707 0.98805001359913
29.13192770730179 55.19733670857182 2867.19499013970290 -0.20720286978208 0.13675656905319 -0.96869221715407
29.89684657970015 55.19417830098489 2867.03092841227044 0.20709759855353 -0.13992344307435 0.96826236875734
30.66647562164345 55.19965611895822 2867.31547062366280 -0.33867029862956 -0.19795637261523 0.91984547798377
31.44090555856708 55.21329756626415 2868.02406802538735 -0.99993991647956 0.00000000000005 0.01096190817519
32.22134513046822 55.23659165223122 2869.23406637978860 -0.99993695011396 -0.00000000000011 0.01122923847742
33.00132195770806 55.25802746406931 2870.34753771693340 -0.99993391229704 0.00000000000002 0.01149656637128
33.77782384613349 55.27280265730934 2871.11502692134627 -0.99993080303074 -0.00000000000002 0.01176389180063
34.55508032565271 55.28812852104434 2871.91112039869222 0.99992762231707 -0.00000000000000 -0.01203121470703
35.33512976242331 55.30715962814084 2872.89968068398230 0.99992437015807 0.00000000000007 -0.01229853503393
36.11184796677167 55.32027773633106 2873.58109352608608 -0.21120695933723 -0.56070711198941 -0.80062422826943
36.87762694664119 55.31644041996177 2873.38176625912547 0.21593132634353 0.53108182786038 0.81934471037531
37.63691677385182 55.30322464729248 2872.69528028991499 0.99991418503025 0.00000000000002 -0.01310047996427
38.38923239242234 55.28049464508817 2871.51458295319117 -0.51758509083993 -0.40370241071717 -0.75440707666443
39.14997238629825 55.27054925124459 2870.99797499520537 -0.29189653264892 0.52621512972023 0.79868269762219
39.92149021858750 55.27590953342885 2871.27641187533209 0.29088533190227 -0.53114070488368 -0.79578594816683
40.69760483444002 55.28731222791852 2871.86871850576745 -0.36648649910309 0.47660306805239 0.79908520290280
41.47054444893623 55.29405926524831 2872.21918961150914 0.37426681851473 -0.43872411786216 -0.81697337592172
42.24428236090348 55.30160599972819 2872.61120054143657 0.39890358606439 -0.48538106467017 -0.77799816907537
43.02594464069038 55.31907168088763 2873.51844564610747 -0.14729960576178 0.50651341105098 0.84955693780224
43.82497770416401 55.35786657368085 2875.53362479953330 0.99988388164845 0.00000000000001 -0.01523887199302
44.66010196395161 55.44012657593992 2879.80657491687953 0.99987977232180 0.00000000000001 -0.01550615689696
45.51487831658407 55.54358031854327 2885.18042210210888 0.99987559158058 0.00000000000000 -0.01577343847681
46.37239595667202 55.64687514800643 2890.54601463255631 0.99987133942750 -0.00000000000001 -0.01604071667532
47.23069881972915 55.74771008230326 2895.78382927519715 0.99986701586528 -0.00000000000000 -0.01630799143524
48.10834549321416 55.86775605663579 2902.01955071969269 0.99986262089671 0.00000000000000 -0.01657526269936
48.98322451166624 55.98082801333285 2907.89301069256726 0.99985815452462 0.00000000000000 -0.01684253041043
49.85221227483792 56.08373880919266 2913.23865481084113 0.99985361675186 0.00000000000000 -0.01710979451126
50.71872856685103 56.18074548943498 2918.27761292342802 -0.99984900758137 0.00000000000000 0.01737705494458
51.56402667926749 56.25166546829181 2921.96151182515814 -0.99984432701610 -0.00000000000000 0.01764431165324
52.38848345145774 56.29807176873070 2924.37206132017809 -0.99983957505907 -0.00000000000000 0.01791156457992
53.19119789476944 56.32009188857941 2925.51588421231918 -0.45015829639986 -0.10935082772544 0.88622790785335
53.98083893307049 56.32783193016051 2925.91793637222645 0.43621073789352 0.25915529660567 -0.86171847165279
54.74814093437202 56.31237353249694 2925.11495849359108 0.99982489086815 0.00000000000000 -0.01871330009646
55.51516680890150 56.29707056677335 2924.32005444072684 0.71472109811348 -0.10386403879083 0.69165454770248
56.31564640613308 56.31564640613308 2925.28496609635704 0.99981474450593 0.00000000000001 -0.01924777048246
57.08570770510183 56.30371170914152 2924.66502489151799 0.30740005321083 0.36201458253483 0.88002877755112
57.86237798411319 56.29852993048851 2924.39586027815312 0.31679829646588 0.27119655898796 0.90889562973391
58.67921880682457 56.33205005455159 2926.13704450031855 0.59123458723968 0.53024259168837 0.60768779550944
59.44668572784587 56.31791279480135 2925.40269239662575 0.00000000000000 -0.99981474450593 0.01924777048247
60.23194693383056 56.32078154851690 2925.55170821462752 -0.18463222383839 0.15882398073423 0.96988962519671
60.98516129732889 56.29399504368820 2924.16029810269265 0.99978259258158 0.00000000000000 -0.02085108080784
61.78427844962279 56.30972213130178 2924.97723293150921 0.99977698417473 0.00000000000000 -0.02111828389032
62.59736377080202 56.33762739372182 2926.42675628499455 -0.99977130441941 -0.00000000000001 0.02138548244748
63.40583326603539 56.36074068092035 2927.62736314780705 -0.03843556419158 0.33764522898245 -0.94048838735556
64.18791568548652 56.36012108969548 2927.59517882584851 0.04011979842024 0.23845381757406 0.97032477998816
64.97592956253693 56.36466178918866 2927.83104293841097 -0.24098879789750 -0.52655088121059 0.81527208267196
65.77778516097933 56.38095870941086 2928.67757740550860 -0.07512638819720 -0.31505252151338 0.94609615498875
66.56227894109219 56.38216569127810 2928.74027340805651 0.07876143643586 0.13238831208600 -0.98806374842597
67.34782109662363 56.38422231345234 2928.84710350432988 -0.13474284739443 0.04237154326846 0.98997425087580
68.13616896065874 56.38855362261413 2929.07209095245616 0.17625252981135 -0.00576694414033 -0.98432808965831
68.92265653010710 56.39126443372399 2929.21290252955168 -0.00000000000000 0.99981474450593 -0.01924777048242
69.70428343750362 56.38998210674450 2929.14629276700589 0.00000000000000 0.99981474450593 -0.01924777048236
70.48885671140341 56.39108536912273 2929.20360111831951 0.00000000000001 0.99981474450593 -0.01924777048251
71.27606989864287 56.39425310661853 2929.36814748268489 0.20461190012710 -0.03491716969158 -0.97822020097068
72.06606870807310 56.39953203240504 2929.64235834992860 -0.30822286598157 0.33665463018342 0.88975408111577
72.85615212590054 56.40476293618105 2929.91407474051584 0.31126040509318 -0.30766196970414 -0.89914463387099
73.65387336090787 56.41573278707836 2930.48389755101516 -0.36041206682875 -0.15191260405297 0.92033999305369
74.44532304966835 56.42171852185391 2930.79482321852265 -0.29030496790018 -0.59383005749968 0.75039248958288
-76.88152277960684 57.26888941746224 2934.04995097683241 0.99965687261612 0.00000000000001 0.02619421751777
-76.08126945377819 57.25703783634854 2933.44276038278804 -0.00000000000001 -0.99980956426405 0.01951499951637
-75.28898794529846 57.25100125007070 2933.13348870225263 -0.31584415870259 -0.51149368510785 -0.79913495575418
-74.48301166226464 57.23431422468757 2932.27856438810295 0.99967754886284 -0.00000000000002 0.02539287891494
-73.65499753180670 57.20015765767967 2930.52862520167082 -0.67085984167786 -0.42149061379482 -0.61015795930794
-72.82073028629132 57.16035818171255 2928.48958355623154 -0.58609672727859 -0.56435173387372 -0.58137573629027
-71.99373288205277 57.12546196075927 2926.70174977040597 -0.62470850538486 -0.57149073820371 -0.53210677447969
-71.18866705619051 57.10739225386712 2925.77598670497309 -0.25878305477432 0.69645242408725 0.66931707847975
-70.41344320401241 57.11312615436562 2926.06975092229368 0.27426679934217 -0.64735096539160 -0.71113602804608
-69.64904005244226 57.12786431267737 2926.82482917004563 -0.44692160839165 0.61278155121378 0.65173602512417
-68.87867249455873 57.13798968298622 2927.34358101874568 -0.00000000000000 0.99980956426405 -0.01951499951638
-68.11102619784175 57.15063117749940 2927.99124114859933 0.55856425903535 -0.51269218181866 -0.65203734189870
-67.36456641837796 57.18155056443710 2929.57533028759963 0.70678749375360 -0.70678749375361 0.03004791751518
-66.62946293901967 57.22295052409925 2931.69636931686546 -0.61216632475487 0.58966189295701 0.52683132293977
-65.86510847072327 57.23991569479522 2932.56554381553588 -0.00000000000001 0.99980956426405 -0.01951499951637
-65.08073618177529 57.23968362975418 2932.55365445589860 0.00000000000001 -0.99980956426405 0.01951499951642
-64.29037139767092 57.23411112231680 2932.26815886938130 0.00000000000003 -0.99980956426405 0.01951499951648
-63.50030081838540 57.22866616965597 2931.98919828100452 0.00000000000000 0.99980956426405 -0.01951499951638
-62.72620740141015 57.23766425378676 2932.45019601592458 0.41200792615118 -0.60651397727346 -0.67999284125682
-61.95995360117215 57.25413434032364 2933.29400592890943 0.54527887747652 -0.68597872206732 -0.48177187407407
-61.21125150766616 57.28745333409781 2935.00103382912084 -0.20656443582014 0.58627646078556 0.78333329137926
-60.45386394695463 57.31340348217776 2936.33053456636753 0.99978812963634 -0.00000000000001 0.02058387325721
-59.68241404563528 57.32652928067598 2937.00300698257797 -0.39060308205805 0.13993600937757 0.90986105838542
-58.90380209427835 57.33303403843094 2937.33626443468074 -0.99979898967542 -0.00000000000000 -0.02004944498011
-58.12903978435762 57.34351221970413 2937.87309180402008 -0.99980431265276 -0.00000000000002 -0.01978222436790
-57.35950163431455 57.35950163431455 2938.69227551145786 -0.99980956426405 -0.00000000000001 -0.01951499951631
-56.59907837713737 57.38517668793095 2940.00768236796921 -0.99981474450593 -0.00000000000000 -0.01924777048246
-55.80231832336042 57.37421461415930 2939.44606379391507 0.99981985337505 0.00000000000000 0.01898053732349
-54.92592888617513 57.27989726701121 2934.61391477564257 0.99982489086815 -0.00000000000001 0.01871330009645
-53.92744317532672 57.05367176520073 2923.02373153220196 0.99982985698197 -0.00000000000001 0.01844605885875
-53.04101040020531 56.94108469433805 2917.25557201129186 0.99983475171332 0.00000000000000 0.01817881366754
-52.13868691135112 56.80782305266614 2910.42819475303259 0.99983957505903 0.00000000000027 0.01791156458199
-51.25953922093676 56.69615701709672 2904.70722251974985 0.99984432701610 -0.00000000000000 0.01764431165321
-50.38097511571237 56.58171051456927 2898.84379896560404 -0.99984900758137 -0.00000000000001 -0.01737705494457
-49.48542636017687 56.44431444207675 2891.80460292283578 -0.99985361675186 -0.00000000000000 -0.01710979451126
-48.60229280301471 56.31694245428688 2885.27896957579378 -0.99985815452462 -0.00000000000000 -0.01684253041045
-47.78838467551762 56.26696905343204 2882.71868849090151 -0.74763689483541 -0.04762651828915 -0.66239775681725
-47.00316951241880 56.24969466240283 2881.83367174502155 0.71994301285765 0.28412359556438 0.63321073954965
-46.20724797174911 56.21881836562808 2880.25179023902774 -0.33746688048510 0.41496106741504 0.84493988964034
-45.40787378878858 56.18262350138248 2878.39742322151324 -0.99987559158058 0.00000000000000 -0.01577343847680
-44.60696093174664 56.14324393133629 2876.37989456435207 -0.99987977232180 0.00000000000000 -0.01550615689699
-43.80738285786759 56.10419208112868 2874.37915593727757 0.99988388164845 0.00000000000000 0.01523887199302
-43.01452842765261 56.07251027176143 2872.75600570394181 0.99988791955791 0.00000000000001 0.01497158382226
-42.22650066410819 56.04608269963452 2871.40204515935739 0.99989188604758 0.00000000000001 0.01470429244190
-41.43689077349754 56.01653752713556 2869.88836097927378 0.99989578111490 -0.00000000000000 0.01443699790913
-40.65104325498077 55.99105957761503 2868.58305233260535 -0.52702989280341 0.23416731743582 -0.81694868843554
-39.87706108307158 55.98125882815818 2868.08093174399437 -0.21384938979991 -0.44729073239288 0.86844656669115
-39.11278691622733 55.98496950754108 2868.27104052333743 0.22596694813996 0.33435372581961 -0.91495711614198
-38.35061732141693 55.99190128926872 2868.62617564198626 -0.42219795884500 0.05010614607216 0.90511781425012
-37.59066495746682 56.00241922234853 2869.16503961073295 -0.40558713292963 0.44796747910198 0.79675856774116
-36.82843429179132 56.00991048543265 2869.54883856874130 -0.00000000000003 0.99980956426405 -0.01951499951633
-36.06408523843373 56.01443026395026 2869.78039982430073 0.00000000000000 0.99980956426405 -0.01951499951642
-35.29649122473449 56.01399694360040 2869.75819957623935 -0.02874160554002 -0.12880483706476 -0.99125336521986
-34.52543849430884 56.00793355743434 2869.44755486033455 0.37326913350220 -0.03297789185159 0.92713678204650
-33.75023351682115 55.99470560745328 2868.76984892979772 0.99993080303074 -0.00000000000002 0.01176389180033
-32.97274431768832 55.97698453933133 2867.86194763149570 0.99993391229704 0.00000000000000 0.01149656637134
-32.19657759384238 55.96071819882129 2867.02857621358362 -0.60758875543968 -0.06597596313811 -0.79150683923215
-31.42349731228489 55.94915375114140 2866.43609629135381 -0.30015363178111 0.01406733588707 -0.95378713945495
-30.65448149614764 55.94442873046944 2866.19401988980417 0.26678405900512 -0.09666876183188 -0.95889593614044
-29.89033207427272 55.94857029286946 2866.40620404564061 -0.25879399148850 0.27253358816005 0.92668825032697
-29.13075487563385 55.96171331371767 2867.07955881238422 0.99994838684954 0.00000000000001 0.01015990339581
-28.37117668888489 55.97556481861073 2867.78921125485112 -0.35170481968059 0.09829316391736 0.93093618134680
-27.60716079593495 55.98118716953475 2868.07726046657490 -0.20911352658121 0.28866535138068 0.93431464074638
-26.84188849152560 55.98451028232481 2868.24751309444946 0.20890502950944 0.25539880143217 -0.94399689664356
-26.07908672571618 55.99333326403768 2868.69953982877951 0.45571904288704 0.43338972273946 -0.77749180199789
-25.31777429040466 56.00598555150123 2869.34775291252890 0.54532595070481 0.52829726469012 -0.65078537753151
-24.55770973848406 56.02227534091677 2870.18232568532494 -0.08046802564913 0.69292124519242 -0.71650892863182
-23.78955249276570 56.02055909586763 2870.09439751431410 0.10455686522924 -0.37584597852654 0.92076471606967
-23.00889122823264 55.98830198869941 2868.44177311966860 -0.99996783020064 -0.00000000000002 -0.00802113232780
-22.22822349731841 55.95380397600842 2866.67434068865077 -0.99996993901462 -0.00000000000002 -0.00775377760196
-21.45092888245037 55.92563601495989 2865.23121501301375 0.73370658382428 -0.41021660539821 0.54166131993015
-20.67082472231055 55.88778536032112 2863.29201709042445 -0.73637660280261 0.46292532901307 -0.49340615987544
-19.89198337902292 55.85056871802589 2861.38530144406650 -0.99997583661606 -0.00000000000002 -0.00695170367699
-19.11196847419289 55.80694794464322 2859.15048373925538 -0.99997765953216 -0.00000000000000 -0.00668434264393
-18.33301414431646 55.76291802229590 2856.89470415598134 -0.99997941097075 -0.00000000000001 -0.00641698017734
-17.56030223735785 55.73487231857055 2855.45784207471024 -0.50362208692589 -0.22112952785864 0.83514461350681
-16.79952354237034 55.74387357241067 2855.91900220295793 0.51839556479610 -0.00338682177871 -0.85513423965947
-16.04381982262470 55.77137366912395 2857.32791126744632 -0.99998423641038 -0.00000000000000 -0.00561488474989
-15.28808089343946 55.80149526105401 2858.87112707317829 0.99998570192809 -0.00000000000000 0.00534751712261
-14.53011157985874 55.82621817524674 2860.13775308798358 0.99998709596312 -0.00000000000000 0.00508014834847
-13.77059459404513 55.84741140918303 2861.22354342937706 0.99998841851456 0.00000000000000 0.00481277848483
-13.01093609326980 55.87049028286445 2862.40594051935659 -0.99998966958157 -0.00000000000000 -0.00454540758901
-12.25173469636586 55.89853955216925 2863.84298527552028 -0.99999084916333 -0.00000000000000 -0.00427803571834
-11.48937569183978 55.91496170028692 2864.68433916538515 -0.66454567081871 0.45430527038526 0.59328388878873
-10.71905784194078 55.89223017583406 2863.51973777560761 -0.34370971867762 0.54046866937627 0.76795653959660
-9.94506630825012 55.84537234632761 2861.11907637349668 -0.99999395898980 -0.00000000000000 -0.00347591483071
-9.17328001431851 55.80412008710425 2859.00560446260124 -0.99999485262346 -0.00000000000000 -0.00320853963408
-8.40318306265959 55.76657850674089 2857.08224130425924 -0.99999567476855 0.00000000000001 -0.00294116374933
-7.63484993798212 55.73440454726950 2855.43387680531396 -0.39498035737819 0.67140087216075 -0.62706569524028
-6.86894784378342 55.71479917735441 2854.42943730555498 -0.21383232080618 -0.00150202794343 -0.97686922486621
-6.10537390243439 55.71153685971378 2854.26229938807592 -0.00000000000000 0.99980956426405 -0.01951499951638
-5.34313943461621 55.72131124671190 2854.76306935208913 -0.43903878957718 -0.58753610024840 0.67973985623289
-4.58109192505040 55.73661842144655 2855.54729994808349 0.63857384568777 0.44314832579230 -0.62916055578128
-3.81887869145624 55.75562889526117 2856.52126120927096 -0.74009708057630 -0.32931078987526 0.58635374561280
-3.05616772007935 55.77506089144805 2857.51681827418770 -0.75130412801149 -0.33538237537342 0.56838435017317
-2.29306444392390 55.79790146881499 2858.68700675846640 -0.82132498277130 -0.35116658967995 0.44956345377297
-1.52943341931466 55.82431980498508 2860.04049411841379 -0.79337416300997 -0.34932924190556 0.49852434064740
-0.76500453930364 55.84533136916554 2861.11697699560409 0.30934888905739 0.42539658167625 -0.85049456972818
0.00000000000000 55.85081607123588 2861.39797406057778 0.34386813206554 -0.09359389364879 -0.93434195604255
0.76519112269680 55.85895195686611 2861.81479888601689 0.44836486855747 -0.36491709390302 -0.81596841802904
1.53101015033226 55.88187048712757 2862.98898112133065 0.99999985701624 -0.00000000000000 -0.00053475928183
2.29749075847634 55.90560845625754 2864.20514556716716 0.99999967828664 -0.00000000000000 -0.00080213877938
3.06384032135335 55.91508586469866 2864.69070046538354 0.04815504101609 -0.04171117101750 0.99796857176821
3.82975095288254 55.91436391208512 2864.65371275614189 -0.04807180393233 -0.10416417066371 -0.99339766821582
4.59490036141908 55.90462106393209 2864.15455861789087 0.99999871314841 0.00000000000000 -0.00160427601040
5.35884757419992 55.88512470237057 2863.15570392967038 0.99999824845323 0.00000000000000 -0.00187165447570
6.12213338766971 55.86446716248611 2862.09735873559021 -0.99999771226728 0.00000000000000 0.00213903253960
6.88523119498446 55.84687524820729 2861.19607436020897 -0.99999710459092 -0.00000000000011 0.00240641014490
7.64737387680164 55.82582930065195 2860.11782992381222 -0.99999642542453 -0.00000000000001 0.00267378723377
8.40827064903211 55.80034157994039 2858.81202067091863 0.62992895870764 -0.54002328533398 0.55817950363535
9.16970675047754 55.78238273207169 2857.89193723216613 0.53877087500222 -0.42746270640476 0.72594874397747
9.93066501781565 55.76450356158018 2856.97593589465578 -0.99999395898980 0.00000000000000 0.00347591483071
10.68998570374213 55.74063974094111 2855.75332371396917 -0.99999299386813 0.00000000000000 0.00374328928186
11.44807331988917 55.71395682346063 2854.38628109236697 -0.99999195725909 0.00000000000000 0.00401066293019
12.20704056822564 55.69462259252948 2853.39573282274296 0.99999084916333 -0.00000000000000 -0.00427803571835
12.96488223356265 55.67272959118078 2852.27409138378243 -0.67803385991266 0.09509170618936 -0.72885365624790
13.72411440941019 55.65890843816354 2851.56599395522790 0.16461788493400 -0.46271250759491 0.87109017172454
14.48582626354101 55.65606932834176 2851.42053819175590 0.18328614102913 0.23200392643180 0.95529072466285
15.24971812840585 55.66147116868133 2851.69729001189307 -0.31496524983996 0.39804952998571 0.86159936343489
16.01638249920625 55.67599630676457 2852.44145462054121 0.99998423641038 0.00000000000000 -0.00561488474989
16.78436094439190 55.69356131548221 2853.34136054662304 0.99998269941091 -0.00000000000000 -0.00588225117301
17.55407683529407 55.71511343375943 2854.44553756520963 -0.99998109093069 -0.00000000000000 0.00614961633460
18.32653320503838 55.74320516532506 2855.88475778514703 -0.99997941097075 0.00000000000000 0.00641698017735
19.09993035748589 55.77179664385881 2857.34958147988937 0.99997765953216 0.00000000000000 -0.00668434264393
19.87316132698324 55.79772218729908 2858.67782165066546 0.99997583661606 -0.00000000000000 -0.00695170367701
20.64483447303096 55.81751542708371 2859.69188626428877 -0.53532536838056 0.38472624039059 0.75193913977339
21.41557234975088 55.83345648327908 2860.50859243101058 0.03400911747450 0.31929186126790 0.94704597948393
22.18918368710377 55.85553135029568 2861.63955137131325 -0.34767100404607 0.24277117169085 0.90564177859761
22.96899619227368 55.89122406786596 2863.46819197011882 0.71679540199032 -0.45978402441242 -0.52421656076536
23.74768292516382 55.92196301732126 2865.04303677782900 0.56687904074084 0.01182315787941 -0.82371619269413
24.51827598074491 55.93231708107432 2865.57350524956155 -0.00000000000002 0.99980956426405 -0.01951499951634
25.28717961200173 55.93830641442806 2865.88035602686250 -0.00000000000001 0.99980956426405 -0.01951499951637
26.05417669342843 55.93984995941987 2865.95943627712722 -0.00000000000001 0.99980956426405 -0.01951499951637
26.82523605379458 55.94977805505727 2866.46808117690671 0.47940800051501 -0.50624409302604 -0.71685764787609
27.59878322123162 55.96419930971969 2867.20692353906315 0.32487555745711 -0.48004274580180 -0.81487105382999
28.36841716610228 55.97012035474233 2867.51027570871656 0.26131395112874 0.03684649447542 0.96455033813190
29.13302801197880 55.96608012827507 2867.30328328422956 0.20409426840188 -0.13684332929199 0.96933968908417
29.89800244611301 55.96292765554487 2867.14177303750421 -0.99994563484919 0.00000000000001 0.01042724057726
30.66825470281036 55.96956483262890 2867.48181471276848 0.39486486935913 0.19315120112900 -0.89820618370640
31.44456720805073 55.98666844360252 2868.35808190511534 -0.99993991647956 -0.00000000000001 0.01096190817533
32.22580645731430 56.01152074723676 2869.63133691322582 -0.99993695011397 -0.00000000000001 0.01122923847723
33.00529764107501 56.03224948368548 2870.69332971210542 -0.48528270554465 -0.35448887453586 0.79927362869643
33.77843343314655 56.04149183226588 2871.16684181745723 -0.40600456293719 -0.06114115455223 0.91182347748575
34.55026560131827 56.04820864213854 2871.51096330956352 -0.37060322125306 0.43083933042292 0.82281876726141
35.32801748870303 56.06402775381132 2872.32142190759396 0.99992437015807 -0.00000000000000 -0.01229853503403
36.10439554581605 56.07703989031003 2872.98807109259633 0.12782478493772 -0.56105352171691 0.81785070161043
36.87101553625455 56.07466946138714 2872.86662719983406 0.13153596691964 0.55787103581486 0.81943773210987
37.62877294944954 56.05919235326157 2872.07369042737355 -0.99991418503025 0.00000000000000 0.01310047996431
38.38384527712425 56.04041410460141 2871.11162672889441 0.58531157358459 0.38307760437301 0.71460612287873
39.14312946264603 56.02840099555215 2870.49616059404207 0.28570442457486 -0.52728530546785 -0.80021446401326
39.91442197544563 56.03370777322176 2870.76804208012845 -0.28471107296631 0.53221416493081 0.79730024932730
40.69114779509056 56.04629790644548 2871.41307082337153 0.40590069967950 -0.46786022007111 -0.78508052865595
41.46461280007660 56.05401360010354 2871.80836800530506 0.35145475477680 -0.44308680452828 -0.82471427718798
42.23726794835957 56.06037382236816 2872.13422048845086 -0.34041689381099 0.49816004778667 0.79746655428128
43.01914715330764 56.07853111056173 2873.06447059590255 -0.35189308736543 -0.48258364514693 -0.80205004862610
43.82117045626981 56.12184988259116 2875.28381590261597 -0.99988388164845 -0.00000000000000 0.01523887199305
44.65539558687541 56.20420479037767 2879.50309473989728 -0.99987977232180 -0.00000000000000 0.01550615689697
45.50749390232113 56.30588228592275 2884.71232533357670 -0.99987559158058 -0.00000000000000 0.01577343847681
46.36889018817723 56.41548306228231 2890.32748839638089 -0.99987133942750 0.00000000000000 0.01604071667531
47.23213739948589 56.52370541249950 2895.87203072257716 -0.99986701586528 0.00000000000001 0.01630799143523
48.10833428381800 56.64368391481797 2902.01887453998916 -0.99986262089671 -0.00000000000000 0.01657526269936
48.98734960646785 56.76311938527228 2908.13789727285348 -0.99985815452462 -0.00000000000000 0.01684253041043
49.86099374051413 56.87269598527393 2913.75182171129427 -0.99985361675186 -0.00000000000000 0.01710979451126
50.72992516011696 56.97360825674674 2918.92184767442222 -0.99984900758137 0.00000000000000 0.01737705494458
51.56977680539313 57.03929858778331 2922.28735230561051 -0.99984432701610 0.00000000000001 0.01764431165322
52.39543739324513 57.08756611502829 2924.76023657816131 -0.99983957505907 -0.00000000000002 0.01791156457996
53.20120143853944 57.11305448549086 2926.06607911966876 0.47334838913744 0.49811725357140 -0.72651256299907
53.99322150025404 57.12326332635573 2926.58910740507417 -0.44647944571970 -0.57296947687891 0.68728602714950
54.75632048539536 57.10301993476945 2925.55198021969500 -0.99982489086814 -0.00000000000005 0.01871330009655
55.51735925627049 57.08122853109501 2924.43554392185388 -0.51564670587515 -0.12343029671514 0.84786404368443
56.30858404117031 57.09064770840879 2924.91811547190218 0.99981474450592 -0.00000000000012 -0.01924777048274
57.07952064625484 57.07952064625484 2924.34804406839839 -0.21368511977515 -0.37095225021063 -0.90373286852385
57.85781965967874 57.07595723184524 2924.16548009727694 -0.00000000000001 -0.99980956426405 0.01951499951635
58.63630864816021 57.07267375087594 2923.99725792158915 0.00000000000000 0.99980956426405 -0.01951499951639
59.42480213336401 57.07908625967859 2924.32578919449224 0.30565598203112 0.59271427473814 -0.74516052577296
60.22930778937384 57.10051257953624 2925.42352119815814 0.99978812963634 0.00000000000001 -0.02058387325713
60.98937766802031 57.07980217648055 2924.36246767174316 -0.99978259258158 -0.00000000000001 0.02085108080786
61.79308444382642 57.09993878986491 2925.39412430266839 0.65072671989115 0.34861880288909 -0.67455145562950
62.61089170579370 57.13243868153675 2927.05918724585581 0.71632767191257 0.42695041120267 -0.55189492915427
63.42311368512868 57.15910245696783 2928.42524916520097 0.14271486291546 0.69811295438109 -0.70162010435016
64.20969250225542 57.16228722761763 2928.58841412725951 0.00000000000000 0.99980956426405 -0.01951499951637
64.98944603308379 57.15939229415804 2928.44009835823363 -0.00000000000000 0.99980956426405 -0.01951499951637
65.78369081061403 57.16915987112885 2928.94051942495798 -0.11368955294636 0.31516801495195 -0.94220157498388
66.56467417602396 57.16730840999704 2928.84566374505403 -0.00000000000000 -0.99980956426405 0.01951499951635
67.34704859412972 57.16668078338918 2928.81350862843192 0.04106128040095 0.04289979592937 0.99823523217779
68.13606179026218 57.17163805389814 2929.06748385724723 0.30643391660268 -0.00555820188723 -0.95187570677443
68.92914519016777 57.17985907820736 2929.48867058213045 0.10722125151556 0.32740525705981 -0.93878080555209
69.71458030428950 57.18162204733858 2929.57899256227802 0.00000000000001 0.99980956426405 -0.01951499951648
70.50227587539757 57.18517932115581 2929.76124193318810 -0.00000000000002 0.99980956426405 -0.01951499951632
71.29235721680935 57.19057227282509 2930.03753836117539 -0.00000000000001 0.99980956426405 -0.01951499951636
72.08590061700437 57.19859505479695 2930.44856856082970 0.00000000000000 0.99980956426405 -0.01951499951639
72.88112602395773 57.20776558869801 2930.91840139356918 -0.00000000000003 0.99980956426405 -0.01951499951633
73.67968394725398 57.21932902286743 2931.51082939074286 -0.00000000000004 0.99980956426405 -0.01951499951632
74.47138197741890 57.22537773001662 2931.82072205838585 0.28072530432483 0.62388073412620 -0.72936008466181
-76.87404873725511 58.04775108731508 2933.76471711565409 0.99965687261612 0.00000000000001 0.02619421751776
-76.06429439246118 58.02843077363018 2932.78825801860648 0.17526498433925 0.44204953082327 0.87970131156177
-75.27613545520170 58.02535441338463 2932.63277710889906 0.19343100170564 0.05828414248814 0.97938113434637
-74.47192765783664 58.00971207031487 2931.84220463483234 0.99967754886284 0.00000000000000 0.02539287891498
-73.64120054022602 57.97285999975241 2929.97968106856752 0.99968429838175 0.00000000000000 0.02512575509303
-72.80171821192324 57.92824889980989 2927.72501196336452 0.99969097661173 -0.00000000000003 0.02485862588897
-71.97289951068208 57.89124525859210 2925.85482793424944 0.02505269108520 0.12482794219343 -0.99186206073080
-71.16943776066458 57.87404828889207 2924.98568378995060 0.42435878808645 0.32420997412034 -0.84546289785814
-70.39676009234680 57.88178052037404 2925.37647494863359 0.41273531880218 0.38868341714522 -0.82375649184063
-69.63212123854936 57.89637046800733 2926.11385878847886 -0.29145326897931 -0.34039504713480 0.89397214939134
-68.85573874926672 57.90141667551974 2926.36889684383550 -0.31212728790189 0.02888942348441 0.94960094637576
-68.08480780746768 57.91121583623687 2926.86415172332318 -0.49422152993530 0.42025361048834 0.76100721561620
-67.32936419633016 57.93456919219107 2928.04444295668372 -0.52230711240328 0.47261978107439 0.70980689125293
-66.58525194139669 57.96833698427477 2929.75108542145472 -0.43162141562396 0.58155866663893 -0.68955962094073
-65.79053389449939 57.95832747848755 2929.24519958842529 0.00000000000000 -0.99980431265276 0.01978222436801
-65.00872518074361 57.95958630572322 2929.30882139736286 -0.00000000000001 0.99980431265276 -0.01978222436799
-64.22878235840622 57.96255968929341 2929.45909781023465 -0.00000000000001 0.99980431265276 -0.01978222436798
-63.45987014292479 57.97568383427696 2930.12239919183594 -0.00000000000154 0.99980431265279 -0.01978222436620
-62.69048014482393 57.98869413396213 2930.77994677051856 0.64254424910093 -0.16351040458158 -0.74859951612387
-61.93753234983815 58.01743536567118 2932.23254415689462 0.52117886069931 -0.67345738161654 -0.52424016472068
-61.19924590075613 58.06082303405069 2934.42538036958877 0.99978259258158 0.00000000000012 0.02085108080803
-60.45532424264356 58.09992199942369 2936.40146321411612 -0.99978812963634 -0.00000000000000 -0.02058387325709
-59.69005967335621 58.11926862932052 2937.37925234674003 0.19657352148416 0.14085458330826 -0.97031893571772
