0.000000000000000000e+00 0.000000000000000000e+00 1.027213122647642794e-05
0.000000000000000000e+00 0.000000000000000000e+00 1.021417855660887958e-05
0.000000000000000000e+00 0.000000000000000000e+00 8.911104768137351943e-06
-0.000000000000000000e+00 0.000000000000000000e+00 -6.945670167485262780e-20
-0.000000000000000000e+00 0.000000000000000000e+00 -2.286988957586610915e-20
-2.347456474883479345e-05 8.536205363212711762e-06 1.268961705030003287e-05
0.000000000000000000e+00 0.000000000000000000e+00 0.000000000000000000e+00
-1.126833204765396524e-04 1.252036894183762866e-05 -1.183074434236723303e-05
-5.231392516433594773e-05 -0.000000000000000000e+00 -9.693462603980218290e-06
-0.000000000000000000e+00 0.000000000000000000e+00 -8.329862557267845460e-06
-0.000000000000000000e+00 0.000000000000000000e+00 -8.458839156495048792e-06
-0.000000000000000000e+00 0.000000000000000000e+00 -8.680555555555609758e-06
-4.112215133409077036e-05 -1.174918609545443249e-05 -3.291814077572800806e-05
-0.000000000000000000e+00 0.000000000000000000e+00 -2.456395547037470983e-20
0.000000000000000000e+00 -0.000000000000000000e+00 9.451795841209768053e-06
0.000000000000000000e+00 0.000000000000000000e+00 9.349890430971416618e-06
0.000000000000000000e+00 0.000000000000000000e+00 9.200094875978374252e-06
-1.780022275968488324e-05 6.472808276249047217e-06 6.615158137404519082e-06
0.000000000000000000e+00 0.000000000000000000e+00 8.958315836622630744e-06
0.000000000000000000e+00 0.000000000000000000e+00 8.817795413368619285e-06
0.000000000000000000e+00 0.000000000000000000e+00 -8.680555555555597900e-06
0.000000000000000000e+00 -0.000000000000000000e+00 8.546494935534019739e-06
-0.000000000000000000e+00 0.000000000000000000e+00 -8.458839156495079285e-06
0.000000000000000000e+00 -0.000000000000000000e+00 8.329862557267772615e-06
-0.000000000000000000e+00 0.000000000000000000e+00 -8.245510062098939749e-06
0.000000000000000000e+00 0.000000000000000000e+00 -8.121363627711665389e-06
0.000000000000000000e+00 0.000000000000000000e+00 6.225692162319107492e-20
4.655533574932270305e-05 -1.692921299975381770e-05 -1.161506966774563395e-05
0.000000000000000000e+00 0.000000000000000000e+00 -1.021417855660893040e-05
0.000000000000000000e+00 0.000000000000000000e+00 1.021417855660896936e-05
0.000000000000000000e+00 0.000000000000000000e+00 -8.817795413368661637e-06
0.000000000000000000e+00 -0.000000000000000000e+00 1.160435137738391465e-19
-0.000000000000000000e+00 0.000000000000000000e+00 -8.725944003981240472e-06
0.000000000000000000e+00 0.000000000000000000e+00 2.261577969168981905e-19
-1.420648487133387511e-05 -4.058995677524110005e-06 -7.085335101795523086e-06
0.000000000000000000e+00 -0.000000000000000000e+00 1.422222222222213895e-05
0.000000000000000000e+00 0.000000000000000000e+00 8.287525331986669234e-06
-0.000000000000000000e+00 0.000000000000000000e+00 -6.860966872759832746e-20
0.000000000000000000e+00 0.000000000000000000e+00 8.502497608672555297e-06
0.000000000000000000e+00 0.000000000000000000e+00 -5.844527336054672340e-20
0.000000000000000000e+00 -0.000000000000000000e+00 -7.369186641112412950e-20
0.000000000000000000e+00 0.000000000000000000e+00 -9.555376392248077254e-06
0.000000000000000000e+00 0.000000000000000000e+00 -9.400636011780117045e-06
-0.000000000000000000e+00 0.000000000000000000e+00 -9.299554638516069075e-06
-0.000000000000000000e+00 0.000000000000000000e+00 -2.371692252312040949e-20
0.000000000000000000e+00 0.000000000000000000e+00 -9.005903088039694308e-06
-0.000000000000000000e+00 0.000000000000000000e+00 -8.911104768137148655e-06
0.000000000000000000e+00 -0.000000000000000000e+00 0.000000000000000000e+00
0.000000000000000000e+00 0.000000000000000000e+00 -8.635520323831959868e-06
0.000000000000000000e+00 0.000000000000000000e+00 8.546494935534111218e-06
0.000000000000000000e+00 -0.000000000000000000e+00 8.415516107823768578e-06
0.000000000000000000e+00 -0.000000000000000000e+00 8.287525331986650599e-06
-0.000000000000000000e+00 0.000000000000000000e+00 -8.203813491427631402e-06
0.000000000000000000e+00 -0.000000000000000000e+00 -6.776263578034402713e-20
-0.000000000000000000e+00 -0.000000000000000000e+00 6.310395457044537526e-20
1.135024149320762454e-19 1.626303258728256651e-19 1.020674701441431909e-19
0.000000000000000000e+00 0.000000000000000000e+00 1.021417855660883045e-05
8.584432512157403830e-06 -1.287664876823603968e-05 4.326645798239953963e-07
0.000000000000000000e+00 0.000000000000000000e+00 -8.771689372550159973e-06
-0.000000000000000000e+00 0.000000000000000000e+00 -1.389134033497052556e-19
-0.000000000000000000e+00 0.000000000000000000e+00 -8.771689372550076964e-06
-0.000000000000000000e+00 0.000000000000000000e+00 1.009973488195927397e-05
1.958995534642539018e-05 -5.659320433411822753e-05 1.263453180676034789e-05
0.000000000000000000e+00 -0.000000000000000000e+00 1.412787938322983322e-05
0.000000000000000000e+00 -0.000000000000000000e+00 8.329862557267936939e-06
0.000000000000000000e+00 -0.000000000000000000e+00 8.415516107823717756e-06
-0.000000000000000000e+00 -0.000000000000000000e+00 -5.759824041329242306e-20
0.000000000000000000e+00 0.000000000000000000e+00 8.864265927977870474e-06
0.000000000000000000e+00 -0.000000000000000000e+00 9.660669001328456710e-06
0.000000000000000000e+00 -0.000000000000000000e+00 9.503374440377403116e-06
0.000000000000000000e+00 0.000000000000000000e+00 9.400636011780274593e-06
-0.000000000000000000e+00 0.000000000000000000e+00 -2.371692252312040949e-20
-0.000000000000000000e+00 -0.000000000000000000e+00 0.000000000000000000e+00
0.000000000000000000e+00 0.000000000000000000e+00 9.005903088039711248e-06
0.000000000000000000e+00 -0.000000000000000000e+00 1.168905467210934468e-19
0.000000000000000000e+00 0.000000000000000000e+00 -8.725944003981203203e-06
0.000000000000000000e+00 -0.000000000000000000e+00 8.590834653279353375e-06
-0.000000000000000000e+00 0.000000000000000000e+00 -7.030373462210692814e-20
0.000000000000000000e+00 0.000000000000000000e+00 -8.372525035812124349e-06
-0.000000000000000000e+00 0.000000000000000000e+00 -8.287525331986535403e-06
0.000000000000000000e+00 0.000000000000000000e+00 -8.162432404856613102e-06
1.081987242324799936e-05 3.091392120928030430e-06 -8.443468052213944716e-07
1.171388197294942570e-05 3.346823420842613255e-06 -1.070715032897995187e-06
1.041850525122789417e-19 1.660184576618428665e-19 9.740878893424453899e-20
0.000000000000000000e+00 -0.000000000000000000e+00 1.015671493751242102e-05
-4.854152633828016526e-05 -1.386900752522314298e-05 4.902916657613262213e-05
0.000000000000000000e+00 0.000000000000000000e+00 -8.725944003981323481e-06
-0.000000000000000000e+00 0.000000000000000000e+00 -6.945670167485262780e-20
-3.165697885875695910e-05 3.517442095417193696e-06 1.306438185760522744e-05
-0.000000000000000000e+00 0.000000000000000000e+00 -1.004323297946632481e-05
-1.958995534642538679e-05 5.659320433411822753e-05 -1.263453180676034620e-05
-0.000000000000000000e+00 0.000000000000000000e+00 2.354751593366954943e-19
0.000000000000000000e+00 -0.000000000000000000e+00 9.063252535621013628e-20
0.000000000000000000e+00 0.000000000000000000e+00 -8.458839156495048792e-06
0.000000000000000000e+00 0.000000000000000000e+00 -8.680555555555564018e-06
2.694547144368409985e-05 -1.796364762912261578e-05 -3.973856648650981888e-05
0.000000000000000000e+00 0.000000000000000000e+00 -9.607806342653314047e-06
-0.000000000000000000e+00 0.000000000000000000e+00 -9.503374440377379399e-06
0.000000000000000000e+00 -0.000000000000000000e+00 1.202786785101106481e-19
0.000000000000000000e+00 0.000000000000000000e+00 -9.200094875978289549e-06
0.000000000000000000e+00 0.000000000000000000e+00 -8.415516107823739779e-06
-0.000000000000000000e+00 0.000000000000000000e+00 -9.402065714522733764e-20
0.000000000000000000e+00 -0.000000000000000000e+00 8.817795413368639614e-06
0.000000000000000000e+00 0.000000000000000000e+00 8.725944003981211673e-06
0.000000000000000000e+00 0.000000000000000000e+00 8.590834653279265284e-06
0.000000000000000000e+00 0.000000000000000000e+00 -8.458839156495077591e-06
0.000000000000000000e+00 -0.000000000000000000e+00 8.329862557267808190e-06
0.000000000000000000e+00 -0.000000000000000000e+00 -8.978549240895583594e-20
0.000000000000000000e+00 -0.000000000000000000e+00 8.121363627711614567e-06
1.106976597915367107e-05 3.162790279758199540e-06 -9.061309584921887790e-07
1.199179257302183837e-05 3.426226449434834983e-06 -1.141922799256780830e-06
0.000000000000000000e+00 -0.000000000000000000e+00 1.015671493751237189e-05
-6.402154022409501211e-06 -1.707241072642542352e-05 -7.818958695996143570e-06
6.997858484567500338e-06 -1.049678772685125093e-05 3.059224230553413514e-07
-0.000000000000000000e+00 0.000000000000000000e+00 0.000000000000000000e+00
0.000000000000000000e+00 -0.000000000000000000e+00 4.658681209898651865e-20
0.000000000000000000e+00 0.000000000000000000e+00 -1.021417855660887958e-05
0.000000000000000000e+00 0.000000000000000000e+00 0.000000000000000000e+00
3.255730444670567946e-05 -1.302292177868220131e-04 -8.643354969287021913e-05
0.000000000000000000e+00 0.000000000000000000e+00 -1.579716446629270132e-19
0.000000000000000000e+00 -0.000000000000000000e+00 8.372525035812092162e-06
0.000000000000000000e+00 -0.000000000000000000e+00 8.502497608672406220e-06
1.205474161539936571e-05 3.444211890114185681e-06 -7.410120581230872819e-06
0.000000000000000000e+00 0.000000000000000000e+00 -9.713969142969821127e-06
-0.000000000000000000e+00 0.000000000000000000e+00 -9.607806342653400444e-06
0.000000000000000000e+00 -0.000000000000000000e+00 -1.448426339804853580e-19
0.000000000000000000e+00 0.000000000000000000e+00 -9.299554638516201212e-06
0.000000000000000000e+00 0.000000000000000000e+00 -9.150962280877303044e-06
-2.488385676463064839e-05 -7.109673361323140653e-06 8.143807668424726177e-06
0.000000000000000000e+00 -0.000000000000000000e+00 8.911104768137141879e-06
0.000000000000000000e+00 -0.000000000000000000e+00 8.771689372550026142e-06
0.000000000000000000e+00 0.000000000000000000e+00 8.680555555555597900e-06
0.000000000000000000e+00 0.000000000000000000e+00 8.546494935534011269e-06
0.000000000000000000e+00 -0.000000000000000000e+00 8.415516107823883775e-06
-0.000000000000000000e+00 0.000000000000000000e+00 -8.329862557267711629e-06
0.000000000000000000e+00 0.000000000000000000e+00 -8.203813491427661896e-06
0.000000000000000000e+00 0.000000000000000000e+00 8.121363627711665389e-06
1.132741448343594274e-05 3.236404138124523609e-06 -9.704885670873913472e-07
0.000000000000000000e+00 0.000000000000000000e+00 1.015671493751244643e-05
0.000000000000000000e+00 0.000000000000000000e+00 1.021417855660893040e-05
0.000000000000000000e+00 -0.000000000000000000e+00 1.009973488195932310e-05
-0.000000000000000000e+00 0.000000000000000000e+00 -2.286988957586610915e-20
-0.000000000000000000e+00 0.000000000000000000e+00 4.658681209898651865e-20
0.000000000000000000e+00 0.000000000000000000e+00 -5.802175688691957323e-20
0.000000000000000000e+00 0.000000000000000000e+00 -1.015671493751239561e-05
8.095565964564596409e-06 -1.214334894684663966e-05 -1.060649016745954377e-07
-0.000000000000000000e+00 0.000000000000000000e+00 -1.422222222222213895e-05
0.000000000000000000e+00 -0.000000000000000000e+00 8.329862557267755674e-06
0.000000000000000000e+00 0.000000000000000000e+00 8.372525035812273427e-06
0.000000000000000000e+00 0.000000000000000000e+00 -1.376428539288238051e-19
0.000000000000000000e+00 0.000000000000000000e+00 2.329340604949325932e-20
-0.000000000000000000e+00 0.000000000000000000e+00 -9.713969142969797410e-06
0.000000000000000000e+00 0.000000000000000000e+00 9.555376392248124688e-06
0.000000000000000000e+00 -0.000000000000000000e+00 4.828087799349511933e-20
0.000000000000000000e+00 0.000000000000000000e+00 -9.249624234015583663e-06
0.000000000000000000e+00 0.000000000000000000e+00 9.150962280877296268e-06
0.000000000000000000e+00 -0.000000000000000000e+00 -9.402065714522733764e-20
0.000000000000000000e+00 -0.000000000000000000e+00 8.864265927977829816e-06
0.000000000000000000e+00 0.000000000000000000e+00 8.771689372550095599e-06
0.000000000000000000e+00 0.000000000000000000e+00 8.635520323831966645e-06
0.000000000000000000e+00 0.000000000000000000e+00 -8.502497608672534969e-06
0.000000000000000000e+00 0.000000000000000000e+00 8.415516107823770272e-06
0.000000000000000000e+00 -0.000000000000000000e+00 -6.183340514956392475e-20
0.000000000000000000e+00 -0.000000000000000000e+00 8.162432404856682558e-06
0.000000000000000000e+00 0.000000000000000000e+00 8.121363627711536640e-06
1.159312110944508303e-05 3.312320316984309497e-06 -1.037535628702472251e-06
0.000000000000000000e+00 -0.000000000000000000e+00 1.015671493751240238e-05
0.000000000000000000e+00 -0.000000000000000000e+00 1.015671493751242102e-05
8.536205363212711762e-06 -1.280430804481900242e-05 -9.697950959435936333e-06
0.000000000000000000e+00 -0.000000000000000000e+00 4.658681209898651865e-20
0.000000000000000000e+00 -0.000000000000000000e+00 -9.232659125071873696e-20
0.000000000000000000e+00 0.000000000000000000e+00 8.817795413368546440e-06
0.000000000000000000e+00 0.000000000000000000e+00 -1.004323297946627568e-05
3.254862080386885647e-05 1.255446802434862440e-04 7.839642406529450313e-05
0.000000000000000000e+00 -0.000000000000000000e+00 2.956144985917508183e-19
0.000000000000000000e+00 -0.000000000000000000e+00 2.286988957586610915e-20
-0.000000000000000000e+00 0.000000000000000000e+00 -8.415516107823785519e-06
0.000000000000000000e+00 0.000000000000000000e+00 -8.635520323832017467e-06
-5.262241868342380071e-06 -1.403264498224623166e-05 9.589755747058086716e-06
-0.000000000000000000e+00 0.000000000000000000e+00 -9.660669001328432993e-06
-0.000000000000000000e+00 0.000000000000000000e+00 4.828087799349511933e-20
0.000000000000000000e+00 0.000000000000000000e+00 -9.349890430971487769e-06
-0.000000000000000000e+00 0.000000000000000000e+00 -9.249624234015559946e-06
-1.991837352245878019e-05 7.243044917257786994e-06 -1.121364728132393375e-05
0.000000000000000000e+00 -0.000000000000000000e+00 8.958315836622725612e-06
-0.000000000000000000e+00 0.000000000000000000e+00 -8.864265927977677350e-06
-0.000000000000000000e+00 0.000000000000000000e+00 0.000000000000000000e+00
-0.000000000000000000e+00 0.000000000000000000e+00 0.000000000000000000e+00
0.000000000000000000e+00 0.000000000000000000e+00 8.502497608672560380e-06
0.000000000000000000e+00 0.000000000000000000e+00 8.372525035812124349e-06
0.000000000000000000e+00 -0.000000000000000000e+00 8.245510062098982101e-06
0.000000000000000000e+00 0.000000000000000000e+00 8.162432404856545339e-06
1.090232676170391041e-05 3.114950503343997393e-06 -8.716031288099864399e-07
1.186720336524472719e-05 3.390629532927073078e-06 -1.107394110820928449e-06
0.000000000000000000e+00 -0.000000000000000000e+00 1.015671493751232107e-05
-0.000000000000000000e+00 0.000000000000000000e+00 -1.015671493751242271e-05
1.254119908749359412e-05 3.583199739283816875e-06 7.356577325692755868e-06
0.000000000000000000e+00 -0.000000000000000000e+00 4.658681209898651865e-20
-0.000000000000000000e+00 0.000000000000000000e+00 9.232659125071873696e-20
2.340862496021459805e-05 -8.512227258260020470e-06 -1.265397205858583632e-05
1.444502206600551840e-05 4.127149161715862883e-06 7.204303021995386160e-06
0.000000000000000000e+00 0.000000000000000000e+00 9.767711608314959311e-06
-0.000000000000000000e+00 0.000000000000000000e+00 -1.412787938323006870e-05
0.000000000000000000e+00 0.000000000000000000e+00 8.329862557267687912e-06
0.000000000000000000e+00 0.000000000000000000e+00 8.458839156495048792e-06
-0.000000000000000000e+00 0.000000000000000000e+00 -8.680555555555516585e-06
8.028783335846942639e-06 -1.204317500377022338e-05 1.199702023325696321e-05
-0.000000000000000000e+00 0.000000000000000000e+00 1.219727444046192488e-19
0.000000000000000000e+00 0.000000000000000000e+00 -9.451795841209683350e-06
-0.000000000000000000e+00 0.000000000000000000e+00 -9.349890430971477605e-06
-0.000000000000000000e+00 0.000000000000000000e+00 -9.200094875978289549e-06
-0.000000000000000000e+00 0.000000000000000000e+00 -8.415516107823717756e-06
-0.000000000000000000e+00 0.000000000000000000e+00 -8.958315836622678178e-06
-0.000000000000000000e+00 0.000000000000000000e+00 -8.817795413368639614e-06
0.000000000000000000e+00 -0.000000000000000000e+00 8.680555555555528443e-06
0.000000000000000000e+00 0.000000000000000000e+00 -8.546494935534019739e-06
0.000000000000000000e+00 0.000000000000000000e+00 8.458839156495077591e-06
-0.000000000000000000e+00 0.000000000000000000e+00 0.000000000000000000e+00
0.000000000000000000e+00 0.000000000000000000e+00 8.245510062098914338e-06
-0.000000000000000000e+00 0.000000000000000000e+00 -8.121363627711548498e-06
1.118330129783527621e-05 3.195228942238688887e-06 -9.367830307926675482e-07
-0.000000000000000000e+00 0.000000000000000000e+00 -8.958315836622849279e-06
-0.000000000000000000e+00 0.000000000000000000e+00 -7.538593230563273018e-20
0.000000000000000000e+00 -0.000000000000000000e+00 1.009973488195938409e-05
-0.000000000000000000e+00 0.000000000000000000e+00 -8.864265927977789159e-06
-0.000000000000000000e+00 0.000000000000000000e+00 0.000000000000000000e+00
-0.000000000000000000e+00 0.000000000000000000e+00 -8.725944003981148992e-06
0.000000000000000000e+00 0.000000000000000000e+00 1.021417855660888127e-05
0.000000000000000000e+00 0.000000000000000000e+00 -9.821901305238587906e-06
0.000000000000000000e+00 0.000000000000000000e+00 -1.422222222222213895e-05
0.000000000000000000e+00 -0.000000000000000000e+00 8.329862557267823437e-06
0.000000000000000000e+00 0.000000000000000000e+00 8.372525035812183642e-06
0.000000000000000000e+00 0.000000000000000000e+00 8.502497608672521416e-06
-0.000000000000000000e+00 -0.000000000000000000e+00 -8.173867941003998272e-20
0.000000000000000000e+00 -0.000000000000000000e+00 -7.369186641112412950e-20
0.000000000000000000e+00 -0.000000000000000000e+00 9.555376392248065396e-06
-0.000000000000000000e+00 0.000000000000000000e+00 -9.451795841209842592e-06
0.000000000000000000e+00 -0.000000000000000000e+00 -2.456395547037470983e-20
0.000000000000000000e+00 -0.000000000000000000e+00 -9.486769009248163798e-20
0.000000000000000000e+00 0.000000000000000000e+00 -9.005903088039734965e-06
0.000000000000000000e+00 0.000000000000000000e+00 8.911104768137141879e-06
-0.000000000000000000e+00 0.000000000000000000e+00 -8.771689372550095599e-06
0.000000000000000000e+00 -0.000000000000000000e+00 8.635520323832039489e-06
0.000000000000000000e+00 0.000000000000000000e+00 -8.502497608672560380e-06
0.000000000000000000e+00 -0.000000000000000000e+00 -7.030373462210692814e-20
0.000000000000000000e+00 -0.000000000000000000e+00 8.287525331986618412e-06
0.000000000000000000e+00 0.000000000000000000e+00 8.203813491427651731e-06
0.000000000000000000e+00 -0.000000000000000000e+00 8.080604025150948754e-06
1.144449292519502503e-05 3.269855121484269451e-06 -1.002376710369458761e-06
0.000000000000000000e+00 -0.000000000000000000e+00 0.000000000000000000e+00
0.000000000000000000e+00 -0.000000000000000000e+00 1.015671493751240916e-05
-0.000000000000000000e+00 0.000000000000000000e+00 4.997494388800372001e-20
-0.000000000000000000e+00 0.000000000000000000e+00 -8.817795413368697212e-06
0.000000000000000000e+00 -0.000000000000000000e+00 4.658681209898651865e-20
0.000000000000000000e+00 0.000000000000000000e+00 -8.817795413368546440e-06
-0.000000000000000000e+00 0.000000000000000000e+00 -1.015671493751247184e-05
-0.000000000000000000e+00 0.000000000000000000e+00 -9.767711608314788211e-06
0.000000000000000000e+00 0.000000000000000000e+00 -1.412787938323006870e-05
-0.000000000000000000e+00 0.000000000000000000e+00 -6.776263578034402713e-20
0.000000000000000000e+00 0.000000000000000000e+00 -8.415516107823739779e-06
0.000000000000000000e+00 0.000000000000000000e+00 -3.430483436379916373e-20
0.000000000000000000e+00 0.000000000000000000e+00 -8.911104768137201172e-06
0.000000000000000000e+00 -0.000000000000000000e+00 9.660669001328321185e-06
0.000000000000000000e+00 0.000000000000000000e+00 -9.503374440377487819e-06
-0.000000000000000000e+00 0.000000000000000000e+00 1.685595565036057675e-19
-0.000000000000000000e+00 0.000000000000000000e+00 -7.115076756936122848e-20
0.000000000000000000e+00 0.000000000000000000e+00 -9.102222222222230318e-06
-0.000000000000000000e+00 0.000000000000000000e+00 -9.005903088039711248e-06
0.000000000000000000e+00 -0.000000000000000000e+00 -4.658681209898651865e-20
0.000000000000000000e+00 -0.000000000000000000e+00 8.725944003981181180e-06
0.000000000000000000e+00 -0.000000000000000000e+00 8.590834653279192439e-06
-0.000000000000000000e+00 0.000000000000000000e+00 -6.437450399132682577e-20
0.000000000000000000e+00 -0.000000000000000000e+00 8.372525035812156536e-06
0.000000000000000000e+00 0.000000000000000000e+00 8.287525331986533709e-06
0.000000000000000000e+00 -0.000000000000000000e+00 -8.978549240895583594e-20
1.076536424983085515e-05 3.075818357094560051e-06 -8.400931689229520913e-07
0.000000000000000000e+00 0.000000000000000000e+00 8.590834653279165334e-06
0.000000000000000000e+00 -0.000000000000000000e+00 -9.994988777600744001e-20
0.000000000000000000e+00 0.000000000000000000e+00 1.015671493751242102e-05
4.854152633828016526e-05 1.386900752522314298e-05 -4.902916657613262213e-05
-0.000000000000000000e+00 0.000000000000000000e+00 -8.771689372550031224e-06
-0.000000000000000000e+00 0.000000000000000000e+00 0.000000000000000000e+00
-6.877907531704918753e-19 -1.677125235563514671e-19 1.355252715606880543e-19
-0.000000000000000000e+00 0.000000000000000000e+00 -1.004323297946637563e-05
-1.385842818930301146e-05 -3.959550911229538814e-06 -6.885277901384966468e-06
-0.000000000000000000e+00 0.000000000000000000e+00 2.956144985917508183e-19
-0.000000000000000000e+00 0.000000000000000000e+00 -8.329862557267755674e-06
0.000000000000000000e+00 -0.000000000000000000e+00 8.458839156495048792e-06
-0.000000000000000000e+00 0.000000000000000000e+00 -8.635520323832017467e-06
-2.959858480529923183e-05 4.439787720794866987e-05 -8.515528676604793682e-06
0.000000000000000000e+00 0.000000000000000000e+00 -9.607806342653497006e-06
0.000000000000000000e+00 -0.000000000000000000e+00 -7.284483346386982916e-20
0.000000000000000000e+00 -0.000000000000000000e+00 4.828087799349511933e-20
0.000000000000000000e+00 0.000000000000000000e+00 -9.200094875978421686e-06
-1.780022275968487985e-05 6.472808276249103121e-06 -1.028077523074563890e-05
-0.000000000000000000e+00 0.000000000000000000e+00 2.286988957586610915e-20
0.000000000000000000e+00 -0.000000000000000000e+00 8.817795413368570157e-06
0.000000000000000000e+00 0.000000000000000000e+00 8.725944003981284518e-06
0.000000000000000000e+00 0.000000000000000000e+00 8.590834653279294083e-06
0.000000000000000000e+00 -0.000000000000000000e+00 8.458839156495125025e-06
0.000000000000000000e+00 0.000000000000000000e+00 -8.329862557267808190e-06
0.000000000000000000e+00 0.000000000000000000e+00 8.245510062098982101e-06
0.000000000000000000e+00 -0.000000000000000000e+00 8.121363627711524781e-06
1.101357427367562996e-05 3.146735506764473628e-06 -9.015313089567599578e-07
0.000000000000000000e+00 0.000000000000000000e+00 8.725944003981194732e-06
-0.000000000000000000e+00 0.000000000000000000e+00 -7.538593230563273018e-20
0.000000000000000000e+00 -0.000000000000000000e+00 1.009973488195923670e-05
-1.227856435946532395e-05 -3.508161245561586714e-06 -7.225967955930922083e-06
0.000000000000000000e+00 -0.000000000000000000e+00 -6.945670167485262780e-20
0.000000000000000000e+00 -0.000000000000000000e+00 2.286988957586610915e-20
0.000000000000000000e+00 -0.000000000000000000e+00 -1.015671493751234478e-05
0.000000000000000000e+00 0.000000000000000000e+00 -9.876543209876472156e-06
-1.704604386188259566e-04 -4.870298246252144825e-05 -6.873761843005769562e-05
-1.106976597915367107e-05 -3.162790279758037756e-06 6.593233801105316625e-06
0.000000000000000000e+00 0.000000000000000000e+00 -8.372525035811932920e-06
0.000000000000000000e+00 0.000000000000000000e+00 -8.502497608672451959e-06
-0.000000000000000000e+00 -0.000000000000000000e+00 2.329340604949325932e-20
4.112215133409076359e-05 1.174918609545443418e-05 3.291814077572800806e-05
0.000000000000000000e+00 0.000000000000000000e+00 9.607806342653376727e-06
-0.000000000000000000e+00 0.000000000000000000e+00 1.211257114573649485e-19
0.000000000000000000e+00 0.000000000000000000e+00 -9.299554638516201212e-06
0.000000000000000000e+00 0.000000000000000000e+00 -9.150962280877374195e-06
-3.587594256682507138e-05 1.304579729702732394e-05 -3.628580384554132628e-06
0.000000000000000000e+00 0.000000000000000000e+00 -8.911104768137148655e-06
0.000000000000000000e+00 0.000000000000000000e+00 -8.771689372550048165e-06
-0.000000000000000000e+00 0.000000000000000000e+00 -8.680555555555540301e-06
-0.000000000000000000e+00 0.000000000000000000e+00 -1.346782386134337539e-19
0.000000000000000000e+00 -0.000000000000000000e+00 8.415516107823768578e-06
0.000000000000000000e+00 0.000000000000000000e+00 8.329862557267677747e-06
0.000000000000000000e+00 -0.000000000000000000e+00 8.203813491427605991e-06
0.000000000000000000e+00 -0.000000000000000000e+00 8.080604025150948754e-06
1.126947374438987645e-05 3.219849641254219196e-06 -9.655244311943077822e-07
-2.321228116714799239e-05 8.440829515326596588e-06 7.554993797473729360e-07
0.000000000000000000e+00 0.000000000000000000e+00 1.015671493751237189e-05
0.000000000000000000e+00 0.000000000000000000e+00 1.009973488195943491e-05
0.000000000000000000e+00 0.000000000000000000e+00 -8.817795413368742952e-06
-0.000000000000000000e+00 0.000000000000000000e+00 1.160435137738391465e-19
0.000000000000000000e+00 0.000000000000000000e+00 -8.771689372549985484e-06
-0.000000000000000000e+00 -0.000000000000000000e+00 -1.015671493751229735e-05
-0.000000000000000000e+00 0.000000000000000000e+00 -9.821901305238660751e-06
0.000000000000000000e+00 0.000000000000000000e+00 1.422222222222213895e-05
0.000000000000000000e+00 -0.000000000000000000e+00 9.063252535621013628e-20
0.000000000000000000e+00 -0.000000000000000000e+00 8.415516107823717756e-06
-0.000000000000000000e+00 -0.000000000000000000e+00 -1.376428539288238051e-19
1.218196755876379910e-05 3.480562159646816199e-06 1.352673021135581442e-06
0.000000000000000000e+00 0.000000000000000000e+00 9.713969142969797410e-06
-0.000000000000000000e+00 0.000000000000000000e+00 -4.912791094074941967e-20
0.000000000000000000e+00 0.000000000000000000e+00 -9.400636011780140762e-06
-0.000000000000000000e+00 0.000000000000000000e+00 -9.299554638516094486e-06
-0.000000000000000000e+00 0.000000000000000000e+00 -9.150962280877319985e-06
-0.000000000000000000e+00 0.000000000000000000e+00 -7.030373462210692814e-20
0.000000000000000000e+00 0.000000000000000000e+00 -8.864265927977789159e-06
0.000000000000000000e+00 0.000000000000000000e+00 -8.725944003981181180e-06
-0.000000000000000000e+00 0.000000000000000000e+00 -8.635520323832046266e-06
-0.000000000000000000e+00 0.000000000000000000e+00 2.541098841762901017e-21
-0.000000000000000000e+00 0.000000000000000000e+00 -8.415516107823724532e-06
-0.000000000000000000e+00 0.000000000000000000e+00 -6.776263578034402713e-20
0.000000000000000000e+00 -0.000000000000000000e+00 8.162432404856635124e-06
-0.000000000000000000e+00 0.000000000000000000e+00 -8.080604025150816617e-06
1.153336275321028384e-05 3.295246500917223530e-06 -1.032187506904923241e-06
0.000000000000000000e+00 0.000000000000000000e+00 1.015671493751244643e-05
0.000000000000000000e+00 0.000000000000000000e+00 1.015671493751250911e-05
-0.000000000000000000e+00 0.000000000000000000e+00 -1.009973488195956027e-05
0.000000000000000000e+00 -0.000000000000000000e+00 8.771689372550112539e-06
0.000000000000000000e+00 -0.000000000000000000e+00 -6.945670167485262780e-20
0.000000000000000000e+00 0.000000000000000000e+00 8.817795413368546440e-06
0.000000000000000000e+00 0.000000000000000000e+00 1.009973488195927228e-05
-1.397317099796451645e-05 -3.992334570846969125e-06 -6.942285529813602175e-06
0.000000000000000000e+00 -0.000000000000000000e+00 3.244136187983970299e-19
-0.000000000000000000e+00 0.000000000000000000e+00 1.583951611365541634e-19
-0.000000000000000000e+00 0.000000000000000000e+00 -8.415516107823739779e-06
0.000000000000000000e+00 -0.000000000000000000e+00 8.635520323831995444e-06
-1.072116112468227229e-05 -2.858976299915324900e-05 -1.653371220502525672e-05
0.000000000000000000e+00 -0.000000000000000000e+00 1.219727444046192488e-19
0.000000000000000000e+00 -0.000000000000000000e+00 0.000000000000000000e+00
-0.000000000000000000e+00 0.000000000000000000e+00 -9.400636011780178031e-06
-0.000000000000000000e+00 0.000000000000000000e+00 -9.249624234015488795e-06
0.000000000000000000e+00 -0.000000000000000000e+00 2.371692252312040949e-20
0.000000000000000000e+00 -0.000000000000000000e+00 8.958315836622673096e-06
0.000000000000000000e+00 0.000000000000000000e+00 8.864265927977672268e-06
-0.000000000000000000e+00 0.000000000000000000e+00 -8.725944003981169321e-06
-0.000000000000000000e+00 0.000000000000000000e+00 -1.329841727189251532e-19
-0.000000000000000000e+00 0.000000000000000000e+00 -8.502497608672499393e-06
-0.000000000000000000e+00 0.000000000000000000e+00 -8.372525035812159925e-06
0.000000000000000000e+00 0.000000000000000000e+00 -8.245510062098961772e-06
0.000000000000000000e+00 0.000000000000000000e+00 8.162432404856631736e-06
1.084726450533216374e-05 3.099218430094927039e-06 -8.672010928059125421e-07
1.180555555555569080e-05 3.373015873015919583e-06 -1.101641414141465359e-06
0.000000000000000000e+00 0.000000000000000000e+00 1.015671493751232107e-05
-0.000000000000000000e+00 -0.000000000000000000e+00 6.268043809681822509e-20
1.247484353676570247e-05 3.564241010504419565e-06 7.317653636138905142e-06
0.000000000000000000e+00 -0.000000000000000000e+00 8.725944003981148992e-06
-0.000000000000000000e+00 0.000000000000000000e+00 -6.945670167485262780e-20
3.735185274849092240e-05 -4.150205860943436481e-06 -3.483398721413759639e-05
-1.456629515160730110e-05 -4.161798614744795183e-06 -7.236967190105236335e-06
1.382045989289395926e-05 3.948702826540916798e-06 6.866414126312584611e-06
0.000000000000000000e+00 0.000000000000000000e+00 1.412787938322983322e-05
0.000000000000000000e+00 -0.000000000000000000e+00 8.372525035812115879e-06
0.000000000000000000e+00 0.000000000000000000e+00 8.458839156495094532e-06
0.000000000000000000e+00 0.000000000000000000e+00 0.000000000000000000e+00
2.959858480529922845e-05 -4.439787720794866987e-05 8.515528676604790294e-06
-0.000000000000000000e+00 0.000000000000000000e+00 -7.284483346386982916e-20
-0.000000000000000000e+00 0.000000000000000000e+00 -9.503374440377560664e-06
-0.000000000000000000e+00 0.000000000000000000e+00 -9.349890430971428477e-06
-0.000000000000000000e+00 0.000000000000000000e+00 -1.431485680859767573e-19
0.000000000000000000e+00 0.000000000000000000e+00 -8.415516107823677099e-06
0.000000000000000000e+00 0.000000000000000000e+00 8.958315836622696813e-06
-0.000000000000000000e+00 0.000000000000000000e+00 -8.817795413368639614e-06
0.000000000000000000e+00 0.000000000000000000e+00 -8.680555555555508114e-06
0.000000000000000000e+00 -0.000000000000000000e+00 8.546494935534014657e-06
0.000000000000000000e+00 0.000000000000000000e+00 8.458839156495125025e-06
-0.000000000000000000e+00 0.000000000000000000e+00 0.000000000000000000e+00
0.000000000000000000e+00 -0.000000000000000000e+00 8.203813491427628014e-06
0.000000000000000000e+00 0.000000000000000000e+00 8.121363627711524781e-06
5.183841637196318075e-19 8.216219588366713289e-20 -8.555032767268433425e-20
-3.099790701102721289e-05 3.444211890114128083e-06 1.051313447527901519e-05
0.000000000000000000e+00 0.000000000000000000e+00 1.015671493751247014e-05
0.000000000000000000e+00 0.000000000000000000e+00 1.009973488195936037e-05
0.000000000000000000e+00 0.000000000000000000e+00 -8.864265927977870474e-06
-0.000000000000000000e+00 0.000000000000000000e+00 -6.945670167485262780e-20
0.000000000000000000e+00 0.000000000000000000e+00 8.725944003981125276e-06
0.000000000000000000e+00 0.000000000000000000e+00 1.015671493751237189e-05
-0.000000000000000000e+00 0.000000000000000000e+00 -9.876543209876472156e-06
0.000000000000000000e+00 0.000000000000000000e+00 -1.422222222222246421e-05
0.000000000000000000e+00 -0.000000000000000000e+00 8.329862557267687912e-06
0.000000000000000000e+00 0.000000000000000000e+00 8.372525035812024399e-06
-0.000000000000000000e+00 0.000000000000000000e+00 -8.502497608672612896e-06
0.000000000000000000e+00 0.000000000000000000e+00 -8.817795413368615897e-06
8.157383280947567820e-05 2.330680937413577060e-05 3.678923773802425686e-05
0.000000000000000000e+00 0.000000000000000000e+00 -9.555376392248173816e-06
-0.000000000000000000e+00 0.000000000000000000e+00 -9.451795841209817181e-06
0.000000000000000000e+00 -0.000000000000000000e+00 -2.456395547037470983e-20
-0.000000000000000000e+00 0.000000000000000000e+00 -7.115076756936122848e-20
0.000000000000000000e+00 0.000000000000000000e+00 -9.005903088039782399e-06
-0.000000000000000000e+00 0.000000000000000000e+00 -8.911104768137124939e-06
0.000000000000000000e+00 -0.000000000000000000e+00 -6.945670167485262780e-20
0.000000000000000000e+00 -0.000000000000000000e+00 8.635520323831959868e-06
-0.000000000000000000e+00 0.000000000000000000e+00 -8.546494935534065479e-06
-0.000000000000000000e+00 0.000000000000000000e+00 -6.522153693858112611e-20
0.000000000000000000e+00 -0.000000000000000000e+00 8.287525331986554038e-06
-0.000000000000000000e+00 0.000000000000000000e+00 -8.203813491427605991e-06
0.000000000000000000e+00 -0.000000000000000000e+00 -1.338312056661794536e-19
1.141507263489890252e-05 3.261449324256789904e-06 -9.997999064867716458e-07
0.000000000000000000e+00 0.000000000000000000e+00 1.015671493751244643e-05
0.000000000000000000e+00 -0.000000000000000000e+00 1.009973488195927397e-05
0.000000000000000000e+00 -0.000000000000000000e+00 1.004323297946633666e-05
0.000000000000000000e+00 0.000000000000000000e+00 8.817795413368675189e-06
0.000000000000000000e+00 -0.000000000000000000e+00 4.658681209898651865e-20
-0.000000000000000000e+00 0.000000000000000000e+00 -8.771689372549985484e-06
0.000000000000000000e+00 0.000000000000000000e+00 -1.009973488195927397e-05
0.000000000000000000e+00 0.000000000000000000e+00 -1.473837328222482590e-19
0.000000000000000000e+00 -0.000000000000000000e+00 1.412787938322983153e-05
-0.000000000000000000e+00 0.000000000000000000e+00 2.286988957586610915e-20
0.000000000000000000e+00 -0.000000000000000000e+00 -6.860966872759832746e-20
-0.000000000000000000e+00 -0.000000000000000000e+00 -5.717472393966527289e-20
1.227856435946532395e-05 3.508161245561471517e-06 -7.547705738612186311e-06
0.000000000000000000e+00 0.000000000000000000e+00 -9.660669001328432993e-06
-0.000000000000000000e+00 0.000000000000000000e+00 -9.555376392248307647e-06
-0.000000000000000000e+00 0.000000000000000000e+00 -2.456395547037470983e-20
0.000000000000000000e+00 0.000000000000000000e+00 -9.249624234015488795e-06
0.000000000000000000e+00 0.000000000000000000e+00 -9.102222222222213378e-06
0.000000000000000000e+00 0.000000000000000000e+00 9.005903088039734965e-06
-0.000000000000000000e+00 0.000000000000000000e+00 0.000000000000000000e+00
-0.000000000000000000e+00 0.000000000000000000e+00 1.101142831430590441e-20
0.000000000000000000e+00 0.000000000000000000e+00 -8.590834653279226320e-06
0.000000000000000000e+00 -0.000000000000000000e+00 -1.355252715606880543e-19
0.000000000000000000e+00 0.000000000000000000e+00 -8.372525035812151454e-06
-0.000000000000000000e+00 0.000000000000000000e+00 -8.287525331986635353e-06
0.000000000000000000e+00 -0.000000000000000000e+00 -5.675120746603812272e-20
1.073824746330728478e-05 3.068070703802073741e-06 -8.379770652229132216e-07
1.162315510195654544e-05 3.320901457701853971e-06 -1.062422083994738069e-06
0.000000000000000000e+00 -0.000000000000000000e+00 1.009973488195917402e-05
-0.000000000000000000e+00 -0.000000000000000000e+00 -2.371692252312040949e-19
6.330622136494930501e-06 1.688165903065319318e-05 7.675174057285623775e-06
0.000000000000000000e+00 0.000000000000000000e+00 8.771689372550112539e-06
0.000000000000000000e+00 -0.000000000000000000e+00 0.000000000000000000e+00
1.224625234799318340e-05 3.498929242283750169e-06 -2.101696401815696646e-06
0.000000000000000000e+00 0.000000000000000000e+00 -1.744887871343858698e-19
-0.000000000000000000e+00 -0.000000000000000000e+00 1.952410943421162282e-19
-0.000000000000000000e+00 0.000000000000000000e+00 2.956144985917508183e-19
0.000000000000000000e+00 0.000000000000000000e+00 8.329862557267914917e-06
0.000000000000000000e+00 -0.000000000000000000e+00 8.458839156495094532e-06
-0.000000000000000000e+00 0.000000000000000000e+00 -8.635520323831995444e-06
-1.262079091408907505e-19 4.404571325722361763e-20 -8.131516293641283255e-20
-0.000000000000000000e+00 0.000000000000000000e+00 -9.660669001328285610e-06
-0.000000000000000000e+00 0.000000000000000000e+00 -7.284483346386982916e-20
0.000000000000000000e+00 -0.000000000000000000e+00 9.349890430971596189e-06
0.000000000000000000e+00 0.000000000000000000e+00 -9.200094875978445403e-06
-0.000000000000000000e+00 0.000000000000000000e+00 -9.102222222222260811e-06
-0.000000000000000000e+00 0.000000000000000000e+00 -1.651714247145885661e-19
0.000000000000000000e+00 0.000000000000000000e+00 -8.817795413368593874e-06
0.000000000000000000e+00 -0.000000000000000000e+00 8.680555555555474233e-06
-0.000000000000000000e+00 0.000000000000000000e+00 -8.590834653279243261e-06
0.000000000000000000e+00 -0.000000000000000000e+00 8.458839156495077591e-06
0.000000000000000000e+00 -0.000000000000000000e+00 8.329862557267818355e-06
-0.000000000000000000e+00 0.000000000000000000e+00 -8.245510062098961772e-06
0.000000000000000000e+00 0.000000000000000000e+00 -8.121363627711548498e-06
1.098562103947843141e-05 3.138748868422393667e-06 -8.992431584264233500e-07
-0.000000000000000000e+00 -0.000000000000000000e+00 -4.065758146820641628e-20
-6.348404782945681632e-06 -1.692907942118874524e-05 -7.809895830570569739e-06
0.000000000000000000e+00 -0.000000000000000000e+00 1.004323297946623671e-05
0.000000000000000000e+00 0.000000000000000000e+00 -8.911104768137189313e-06
0.000000000000000000e+00 -0.000000000000000000e+00 -6.945670167485262780e-20
-0.000000000000000000e+00 0.000000000000000000e+00 1.160435137738391465e-19
2.327748420413443026e-05 -8.464539710594504756e-06 7.559807157303128150e-06
-1.444502206600539134e-05 -4.127149161715862883e-06 -7.176715126529257803e-06
3.254862080386885647e-05 1.255446802434862440e-04 7.839642406529450313e-05
0.000000000000000000e+00 0.000000000000000000e+00 -8.329862557267869177e-06
0.000000000000000000e+00 -0.000000000000000000e+00 -6.860966872759832746e-20
0.000000000000000000e+00 -0.000000000000000000e+00 8.502497608672521416e-06
-1.205474161539947921e-05 -3.444211890114185681e-06 7.410120581230938887e-06
0.000000000000000000e+00 -0.000000000000000000e+00 -9.053870529651439456e-06
0.000000000000000000e+00 -0.000000000000000000e+00 -7.284483346386982916e-20
0.000000000000000000e+00 0.000000000000000000e+00 -9.451795841209817181e-06
0.000000000000000000e+00 0.000000000000000000e+00 -9.299554638516272363e-06
-0.000000000000000000e+00 0.000000000000000000e+00 -9.200094875978421686e-06
-0.000000000000000000e+00 0.000000000000000000e+00 -8.415516107823700815e-06
0.000000000000000000e+00 -0.000000000000000000e+00 8.911104768137277404e-06
0.000000000000000000e+00 0.000000000000000000e+00 -8.771689372550159973e-06
-0.000000000000000000e+00 0.000000000000000000e+00 -8.680555555555508114e-06
-0.000000000000000000e+00 0.000000000000000000e+00 -7.115076756936122848e-20
0.000000000000000000e+00 -0.000000000000000000e+00 8.415516107823724532e-06
-0.000000000000000000e+00 0.000000000000000000e+00 -8.329862557267808190e-06
0.000000000000000000e+00 -0.000000000000000000e+00 -6.776263578034402713e-20
0.000000000000000000e+00 -0.000000000000000000e+00 8.080604025150860662e-06
1.124065156090024721e-05 3.211614731685768945e-06 -9.630550592474969581e-07
-1.659641681802348739e-04 -4.047906540981259965e-06 2.168335819305348088e-05
6.348404782945812922e-06 1.692907942118848435e-05 7.781605256671566439e-06
0.000000000000000000e+00 0.000000000000000000e+00 1.004323297946625027e-05
-0.000000000000000000e+00 0.000000000000000000e+00 -8.864265927977987364e-06
0.000000000000000000e+00 -0.000000000000000000e+00 -6.945670167485262780e-20
0.000000000000000000e+00 -0.000000000000000000e+00 8.771689372550112539e-06
6.348404782945812922e-06 1.692907942118874524e-05 7.357246648186013799e-06
-0.000000000000000000e+00 -0.000000000000000000e+00 1.965116437629976787e-19
0.000000000000000000e+00 0.000000000000000000e+00 1.422222222222234562e-05
0.000000000000000000e+00 -0.000000000000000000e+00 0.000000000000000000e+00
0.000000000000000000e+00 0.000000000000000000e+00 -8.415516107823739779e-06
1.153336275321039395e-05 3.295246500917334491e-06 1.434841959022434159e-06
-6.942853651789021942e-06 1.041428047768341899e-05 6.773923255448921354e-06
0.000000000000000000e+00 0.000000000000000000e+00 -9.713969142969821127e-06
-0.000000000000000000e+00 0.000000000000000000e+00 -2.456395547037470983e-20
0.000000000000000000e+00 0.000000000000000000e+00 -9.400636011780140762e-06
0.000000000000000000e+00 0.000000000000000000e+00 9.299554638516094486e-06
-0.000000000000000000e+00 0.000000000000000000e+00 -4.743384504624081899e-20
-0.000000000000000000e+00 0.000000000000000000e+00 -7.030373462210692814e-20
0.000000000000000000e+00 0.000000000000000000e+00 -8.864265927977858615e-06
-0.000000000000000000e+00 0.000000000000000000e+00 -8.771689372550026142e-06
-0.000000000000000000e+00 0.000000000000000000e+00 5.929230630780102373e-21
0.000000000000000000e+00 -0.000000000000000000e+00 8.502497608672470594e-06
0.000000000000000000e+00 0.000000000000000000e+00 8.415516107823727920e-06
-0.000000000000000000e+00 0.000000000000000000e+00 -7.369186641112412950e-20
0.000000000000000000e+00 0.000000000000000000e+00 -8.162432404856635124e-06
0.000000000000000000e+00 0.000000000000000000e+00 8.080604025150770877e-06
1.150363759147514901e-05 3.286753597564391756e-06 -1.029527229825226972e-06
-0.000000000000000000e+00 -0.000000000000000000e+00 1.812650507124202726e-19
0.000000000000000000e+00 0.000000000000000000e+00 1.009973488195922315e-05
0.000000000000000000e+00 0.000000000000000000e+00 1.004323297946633666e-05
0.000000000000000000e+00 0.000000000000000000e+00 -8.771689372550031224e-06
0.000000000000000000e+00 0.000000000000000000e+00 8.725944003981101559e-06
0.000000000000000000e+00 0.000000000000000000e+00 -5.844527336054672340e-20
0.000000000000000000e+00 0.000000000000000000e+00 1.009973488195927397e-05
-0.000000000000000000e+00 -0.000000000000000000e+00 -1.711006553453686685e-19
0.000000000000000000e+00 -0.000000000000000000e+00 1.177375796683477471e-19
0.000000000000000000e+00 -0.000000000000000000e+00 2.286988957586610915e-20
0.000000000000000000e+00 0.000000000000000000e+00 8.415516107823694039e-06
0.000000000000000000e+00 0.000000000000000000e+00 -8.635520323831995444e-06
6.234162491791650496e-19 -8.927727264060325574e-19 1.965116437629976787e-19
0.000000000000000000e+00 -0.000000000000000000e+00 9.740878893424453899e-20
0.000000000000000000e+00 0.000000000000000000e+00 -9.503374440377511536e-06
0.000000000000000000e+00 0.000000000000000000e+00 9.400636011780201748e-06
0.000000000000000000e+00 -0.000000000000000000e+00 -2.371692252312040949e-20
0.000000000000000000e+00 -0.000000000000000000e+00 -9.486769009248163798e-20
0.000000000000000000e+00 0.000000000000000000e+00 -8.958315836622678178e-06
-0.000000000000000000e+00 0.000000000000000000e+00 -8.864265927977836592e-06
0.000000000000000000e+00 0.000000000000000000e+00 8.725944003981189650e-06
-0.000000000000000000e+00 0.000000000000000000e+00 0.000000000000000000e+00
0.000000000000000000e+00 0.000000000000000000e+00 8.502497608672448571e-06
-0.000000000000000000e+00 0.000000000000000000e+00 -8.372525035812151454e-06
0.000000000000000000e+00 -0.000000000000000000e+00 8.245510062098982101e-06
-0.000000000000000000e+00 0.000000000000000000e+00 -8.162432404856592773e-06
1.081987242324799936e-05 3.091392120928030430e-06 -8.650111910563986503e-07
1.177489177489189322e-05 3.364254792826206986e-06 -1.098780007871000984e-06
0.000000000000000000e+00 0.000000000000000000e+00 1.009973488195929769e-05
0.000000000000000000e+00 -0.000000000000000000e+00 1.004323297946637563e-05
-1.963576702214931357e-04 3.740146099457050281e-05 7.122778233524586074e-06
0.000000000000000000e+00 0.000000000000000000e+00 -8.725944003981148992e-06
-0.000000000000000000e+00 0.000000000000000000e+00 -6.945670167485262780e-20
2.090430182898201630e-04 -5.919802287853306400e-05 4.959367787324835570e-05
-0.000000000000000000e+00 -0.000000000000000000e+00 -1.736417541871315695e-19
0.000000000000000000e+00 0.000000000000000000e+00 -9.607806342653131088e-06
0.000000000000000000e+00 0.000000000000000000e+00 1.412787938322980273e-05
0.000000000000000000e+00 0.000000000000000000e+00 -8.372525035812115879e-06
-0.000000000000000000e+00 0.000000000000000000e+00 -8.458839156495048792e-06
0.000000000000000000e+00 0.000000000000000000e+00 -8.680555555555516585e-06
7.053445890546778733e-06 -1.058016883582005206e-05 2.052854505845036807e-06
0.000000000000000000e+00 0.000000000000000000e+00 -9.607806342653315741e-06
-0.000000000000000000e+00 0.000000000000000000e+00 -9.503374440377560664e-06
0.000000000000000000e+00 -0.000000000000000000e+00 -2.456395547037470983e-20
-0.000000000000000000e+00 0.000000000000000000e+00 -7.115076756936122848e-20
0.000000000000000000e+00 0.000000000000000000e+00 -8.415516107823854975e-06
-0.000000000000000000e+00 0.000000000000000000e+00 -8.958315836622678178e-06
0.000000000000000000e+00 -0.000000000000000000e+00 -5.844527336054672340e-20
-0.000000000000000000e+00 0.000000000000000000e+00 -1.270549420881450509e-19
0.000000000000000000e+00 0.000000000000000000e+00 -8.546494935534038374e-06
-0.000000000000000000e+00 0.000000000000000000e+00 -8.458839156495077591e-06
0.000000000000000000e+00 -0.000000000000000000e+00 5.929230630780102373e-21
0.000000000000000000e+00 0.000000000000000000e+00 -8.203813491427607685e-06
0.000000000000000000e+00 0.000000000000000000e+00 8.121363627711614567e-06
1.106976597915345593e-05 3.162790279758199540e-06 -9.272726047471742617e-07
1.205474161539947921e-05 3.444211890114128930e-06 -1.170939951411836587e-06
0.000000000000000000e+00 -0.000000000000000000e+00 1.004323297946628754e-05
-0.000000000000000000e+00 0.000000000000000000e+00 4.997494388800372001e-20
-0.000000000000000000e+00 0.000000000000000000e+00 -8.911104768137258770e-06
-0.000000000000000000e+00 0.000000000000000000e+00 -2.286988957586610915e-20
-0.000000000000000000e+00 0.000000000000000000e+00 -8.725944003981252331e-06
0.000000000000000000e+00 -0.000000000000000000e+00 1.004323297946633666e-05
1.432509148114000796e-05 4.092883280325680502e-06 7.117130057111476405e-06
8.912364128628052801e-05 -1.336854619294205006e-04 -1.465535812595517189e-06
0.000000000000000000e+00 -0.000000000000000000e+00 2.286988957586610915e-20
-0.000000000000000000e+00 0.000000000000000000e+00 -8.372525035812183642e-06
0.000000000000000000e+00 -0.000000000000000000e+00 -1.829591166069288732e-19
1.695314766463564279e-06 -2.373440673048922737e-05 -5.937681317087356852e-06
7.185459051649116784e-06 -1.077818857747361588e-05 -6.962594546303749785e-06
-0.000000000000000000e+00 0.000000000000000000e+00 -9.607806342653449572e-06
0.000000000000000000e+00 -0.000000000000000000e+00 0.000000000000000000e+00
0.000000000000000000e+00 -0.000000000000000000e+00 -9.571472303973593831e-20
0.000000000000000000e+00 0.000000000000000000e+00 -9.150962280877333538e-06
1.784598168708762393e-05 -6.489447886213686434e-06 -6.632163685315600331e-06
0.000000000000000000e+00 -0.000000000000000000e+00 1.168905467210934468e-19
