ply
            format ascii 1.0
            element vertex 30659
            property float x
            property float y
            property float z
            property float nx
            property float ny
            property float nz
end_header
-0.27155216284987 0.14493638676845 1.52264631043257 -0.00000000000000 0.00000000000000 -1.00000000000000
-0.25248081841432 0.14567774936061 1.53043478260870 -0.00000000000000 0.00000000000000 -1.00000000000000
-0.23441860465116 0.14718346253230 1.54625322997416 0.00000000000000 0.00000000000000 1.00000000000000
-0.21711286089239 0.14950131233596 1.57060367454068 0.00000000000000 -0.00000000000000 1.00000000000000
-0.20527472527473 0.15648351648352 1.64395604395604 0.00000000000000 0.00000000000000 -1.00000000000000
-0.18229508196721 0.15562841530055 1.63497267759563 -0.00000000000000 0.00000000000000 -1.00000000000000
-0.15913279132791 0.15436314363144 1.62168021680217 0.00000000000000 -0.00000000000000 1.00000000000000
-0.13671159029650 0.15353099730458 1.61293800539084 0.00000000000000 0.00000000000000 1.00000000000000
-0.11422459893048 0.15229946524064 1.60000000000000 -0.00000000000000 0.00000000000000 -1.00000000000000
-0.09209549071618 0.15108753315650 1.58726790450928 0.00000000000000 0.00000000000000 -1.00000000000000
-0.07050131926121 0.15029023746702 1.57889182058047 0.00000000000000 0.00000000000000 1.00000000000000
-0.04900523560209 0.14910994764398 1.56649214659686 -0.00000000000000 0.00000000000000 -1.00000000000000
-0.02784415584416 0.14794805194805 1.55428571428571 0.00000000000000 -0.00000000000000 1.00000000000000
-0.00702842377261 0.14718346253230 1.54625322997416 -0.00000000000000 0.00000000000000 -1.00000000000000
0.01353846153846 0.14605128205128 1.53435897435897 0.00000000000000 -0.00000000000000 1.00000000000000
0.03387755102041 0.14530612244898 1.52653061224490 0.00000000000000 0.00000000000000 1.00000000000000
0.05387341772152 0.14420253164557 1.51493670886076 0.00000000000000 -0.00000000000000 1.00000000000000
0.07393939393939 0.14383838383838 1.51111111111111 0.00000000000000 0.00000000000000 1.00000000000000
0.09658031088083 0.14756476683938 1.55025906735751 0.95798355201856 0.27370958629101 -0.08573550276469
0.12863636363636 0.16181818181818 1.70000000000000 -0.00000000000000 0.00000000000000 -1.00000000000000
0.15136363636364 0.16181818181818 1.70000000000000 0.00000000000000 0.00000000000000 1.00000000000000
0.16652173913043 0.15478260869565 1.62608695652174 0.99748830947307 -0.06045383693776 -0.03691078519983
0.18088772845953 0.14872062663185 1.56240208877285 0.00000000000000 0.00000000000000 -1.00000000000000
0.20125000000000 0.14833333333333 1.55833333333333 0.00000000000000 0.00000000000000 1.00000000000000
0.22442105263158 0.14989473684211 1.57473684210526 -0.00000000000000 -0.00000000000000 1.00000000000000
0.26128851540616 0.15955182072829 1.67619047619048 -0.00000000000000 0.00000000000000 -1.00000000000000
0.31067484662577 0.17472392638037 1.83558282208589 -0.49604962381995 0.09137756228261 -0.86347258892183
0.36305647840532 0.18923588039867 1.98803986710963 -0.00000000000000 0.00000000000000 1.00000000000000
-0.26653061224490 0.14571428571429 1.52653061224490 0.00000000000000 -0.00000000000000 1.00000000000000
-0.24738461538462 0.14646153846154 1.53435897435897 -0.00000000000000 -0.00000000000000 -1.00000000000000
-0.22922279792746 0.14797927461140 1.55025906735751 -0.00000000000000 0.00000000000000 -1.00000000000000
-0.21123359580052 0.14992125984252 1.57060367454068 0.00000000000000 0.00000000000000 1.00000000000000
-0.19912087912088 0.15692307692308 1.64395604395604 0.00000000000000 0.00000000000000 1.00000000000000
-0.17569482288828 0.15564032697548 1.63051771117166 nan nan nan
-0.15264864864865 0.15437837837838 1.61729729729730 0.00000000000000 -0.00000000000000 1.00000000000000
-0.13032258064516 0.15354838709677 1.60860215053763 0.00000000000000 0.00000000000000 1.00000000000000
-0.10379487179487 0.14646153846154 1.53435897435897 -0.00000000000000 0.00000000000000 -1.00000000000000
-0.08615384615385 0.15151193633952 1.58726790450928 0.00000000000000 0.00000000000000 1.00000000000000
-0.06442105263158 0.15031578947368 1.57473684210526 0.00000000000000 0.00000000000000 1.00000000000000
-0.04302872062663 0.14913838120104 1.56240208877285 0.00000000000000 -0.00000000000000 1.00000000000000
-0.02202597402597 0.14836363636364 1.55428571428571 0.00000000000000 0.00000000000000 1.00000000000000
-0.00123711340206 0.14721649484536 1.54226804123711 0.00000000000000 0.00000000000000 -1.00000000000000
0.01923273657289 0.14608695652174 1.53043478260870 0.00000000000000 -0.00000000000000 1.00000000000000
0.03949109414758 0.14534351145038 1.52264631043257 -0.00000000000000 0.00000000000000 -1.00000000000000
0.05939393939394 0.14424242424242 1.51111111111111 0.00000000000000 -0.00000000000000 1.00000000000000
0.08020356234097 0.14534351145038 1.52264631043257 0.95869561831239 0.27391303380354 -0.07664438231963
0.10318537859008 0.14913838120104 1.56240208877285 0.00000000000000 0.00000000000000 1.00000000000000
0.13500000000000 0.16227272727273 1.70000000000000 0.00000000000000 0.00000000000000 1.00000000000000
0.15728045325779 0.16181303116147 1.69518413597734 -0.32252036288513 -0.86005430102703 -0.39533177814254
0.16715789473684 0.15031578947368 1.57473684210526 0.00000000000000 0.00000000000000 -1.00000000000000
0.18673629242820 0.14913838120104 1.56240208877285 0.00000000000000 -0.00000000000000 -1.00000000000000
0.20762402088773 0.14913838120104 1.56240208877285 0.00000000000000 -0.00000000000000 1.00000000000000
0.24793201133144 0.16181303116147 1.69518413597734 0.00000000000000 0.00000000000000 -1.00000000000000
0.26607242339833 0.15910863509749 1.66685236768802 0.00000000000000 0.00000000000000 1.00000000000000
0.32759493670886 0.18075949367089 1.89367088607595 0.89649488559703 0.25614139588486 0.36150865191931
-0.28050890585242 0.14575063613232 1.52264631043257 0.00000000000000 -0.00000000000000 1.00000000000000
-0.26081632653061 0.14612244897959 1.52653061224490 0.00000000000000 -0.00000000000000 1.00000000000000
-0.24226221079692 0.14724935732648 1.53830334190231 0.00000000000000 0.00000000000000 1.00000000000000
-0.22516971279373 0.14955613577023 1.56240208877285 0.00000000000000 0.00000000000000 -1.00000000000000
-0.20643799472296 0.15113456464380 1.57889182058047 -0.67078435075704 -0.67078435075705 0.31638064030358
-0.19243835616438 0.15693150684932 1.63945205479452 0.00000000000000 -0.00000000000000 1.00000000000000
-0.16913043478261 0.15565217391304 1.62608695652174 0.00000000000000 -0.00000000000000 1.00000000000000
-0.14659459459459 0.15481081081081 1.61729729729730 -0.00000000000000 0.00000000000000 -1.00000000000000
-0.12396782841823 0.15356568364611 1.60428954423592 0.00000000000000 -0.00000000000000 -1.00000000000000
-0.10170212765957 0.15234042553191 1.59148936170213 0.00000000000000 0.00000000000000 -1.00000000000000
-0.08000000000000 0.15153439153439 1.58306878306878 -0.00000000000000 0.00000000000000 -1.00000000000000
-0.05837270341207 0.15034120734908 1.57060367454068 nan nan nan
-0.03708333333333 0.14916666666667 1.55833333333333 0.00000000000000 -0.00000000000000 1.00000000000000
-0.01616580310881 0.14839378238342 1.55025906735751 0.00000000000000 -0.00000000000000 1.00000000000000
0.00452442159383 0.14724935732648 1.53830334190231 0.00000000000000 -0.00000000000000 1.00000000000000
0.02496163682864 0.14649616368286 1.53043478260870 0.00000000000000 0.00000000000000 1.00000000000000
0.04507614213198 0.14538071065990 1.51878172588832 0.00000000000000 -0.00000000000000 1.00000000000000
0.06505050505051 0.14464646464646 1.51111111111111 0.00000000000000 0.00000000000000 1.00000000000000
0.08656410256410 0.14687179487179 1.53435897435897 0.95842023478586 0.27383435279596 -0.08028325343337
0.11863636363636 0.16272727272727 1.70000000000000 0.00000000000000 -0.00000000000000 -1.00000000000000
0.14136363636364 0.16272727272727 1.70000000000000 0.00000000000000 0.00000000000000 1.00000000000000
0.16362606232295 0.16226628895184 1.69518413597734 0.00000000000000 0.00000000000000 -1.00000000000000
0.17259842519685 0.15034120734908 1.57060367454068 -0.00000000000000 0.00000000000000 -1.00000000000000
0.19208333333333 0.14916666666667 1.55833333333333 nan nan nan
0.21403141361257 0.14994764397906 1.56649214659686 0.00000000000000 0.00000000000000 -1.00000000000000
0.25355932203390 0.16180790960452 1.69039548022599 -0.00000000000000 0.00000000000000 -1.00000000000000
0.32586666666667 0.19093333333333 1.99466666666667 -0.48249961211421 0.72374941817130 0.49333650179806
0.35253333333333 0.19093333333333 1.99466666666667 -0.00000000000000 0.00000000000000 -1.00000000000000
-0.27480916030534 0.14615776081425 1.52264631043257 -0.00000000000000 0.00000000000000 1.00000000000000
-0.25575447570332 0.14690537084399 1.53043478260870 0.00000000000000 -0.00000000000000 1.00000000000000
-0.23711340206186 0.14804123711340 1.54226804123711 -0.00000000000000 0.00000000000000 -1.00000000000000
-0.21989528795812 0.15036649214660 1.56649214659686 0.00000000000000 -0.00000000000000 -1.00000000000000
-0.20936639118457 0.15823691460055 1.64848484848485 0.00000000000000 0.00000000000000 -1.00000000000000
-0.18579234972678 0.15693989071038 1.63497267759563 -0.00000000000000 0.00000000000000 1.00000000000000
-0.16260162601626 0.15566395663957 1.62168021680217 0.00000000000000 -0.00000000000000 1.00000000000000
-0.14016172506739 0.15482479784367 1.61293800539084 0.00000000000000 0.00000000000000 1.00000000000000
-0.11764705882353 0.15358288770053 1.60000000000000 0.00000000000000 0.00000000000000 -1.00000000000000
-0.09549071618037 0.15236074270557 1.58726790450928 0.00000000000000 -0.00000000000000 1.00000000000000
-0.07387862796834 0.15155672823219 1.57889182058047 -0.00000000000000 -0.00000000000000 1.00000000000000
-0.05235602094241 0.15036649214660 1.56649214659686 0.00000000000000 0.00000000000000 -1.00000000000000
-0.03125000000000 0.14958333333333 1.55833333333333 0.00000000000000 0.00000000000000 1.00000000000000
-0.01033591731266 0.14842377260982 1.54625322997416 0.00000000000000 0.00000000000000 -1.00000000000000
0.01025641025641 0.14728205128205 1.53435897435897 0.00000000000000 -0.00000000000000 1.00000000000000
0.03061224489796 0.14653061224490 1.52653061224490 0.00000000000000 0.00000000000000 1.00000000000000
0.05063291139241 0.14541772151899 1.51493670886076 0.00000000000000 -0.00000000000000 1.00000000000000
0.07052896725441 0.14468513853904 1.50730478589421 -0.00000000000000 0.00000000000000 -1.00000000000000
0.09302325581395 0.14842377260982 1.54625322997416 0.95813225491235 0.27375207283210 -0.08391891751390
0.12500000000000 0.16318181818182 1.70000000000000 0.00000000000000 0.00000000000000 1.00000000000000
0.14772727272727 0.16318181818182 1.70000000000000 0.00000000000000 0.00000000000000 1.00000000000000
0.16997167138810 0.16271954674221 1.69518413597734 -0.00000000000000 0.00000000000000 -1.00000000000000
0.17801047120419 0.15036649214660 1.56649214659686 -0.00000000000000 0.00000000000000 1.00000000000000
0.19791666666667 0.14958333333333 1.55833333333333 0.00000000000000 -0.00000000000000 -1.00000000000000
0.22047244094488 0.15076115485564 1.57060367454068 -0.00000000000000 -0.00000000000000 -1.00000000000000
0.25770308123249 0.16089635854342 1.67619047619048 0.00000000000000 0.00000000000000 -1.00000000000000
0.33444816053512 0.19210702341137 2.00133779264214 0.00000000000000 0.00000000000000 1.00000000000000
0.35880398671096 0.19083056478405 1.98803986710963 0.00000000000000 -0.00000000000000 1.00000000000000
-0.26910941475827 0.14656488549618 1.52264631043257 0.00000000000000 0.00000000000000 1.00000000000000
-0.25066666666667 0.14769230769231 1.53435897435897 0.00000000000000 -0.00000000000000 1.00000000000000
-0.23253886010363 0.14922279792746 1.55025906735751 0.00000000000000 0.00000000000000 -1.00000000000000
-0.21459317585302 0.15118110236220 1.57060367454068 0.00000000000000 0.00000000000000 1.00000000000000
-0.20263736263736 0.15824175824176 1.64395604395604 0.00000000000000 -0.00000000000000 1.00000000000000
-0.17918256130790 0.15694822888283 1.63051771117166 0.00000000000000 0.00000000000000 -1.00000000000000
-0.15653116531165 0.15609756097561 1.62168021680217 0.00000000000000 0.00000000000000 1.00000000000000
-0.13376344086022 0.15483870967742 1.60860215053763 0.00000000000000 -0.00000000000000 1.00000000000000
-0.10875000000000 0.15000000000000 1.55833333333333 -0.02507253501393 -0.90261126050140 -0.42972582003417
-0.08954907161804 0.15278514588859 1.58726790450928 0.00000000000000 0.00000000000000 1.00000000000000
-0.06778947368421 0.15157894736842 1.57473684210526 0.00000000000000 0.00000000000000 -1.00000000000000
-0.04649214659686 0.15078534031414 1.56649214659686 0.00000000000000 0.00000000000000 1.00000000000000
-0.02535064935065 0.14961038961039 1.55428571428571 0.00000000000000 0.00000000000000 1.00000000000000
-0.00453608247423 0.14845360824742 1.54226804123711 0.00000000000000 -0.00000000000000 1.00000000000000
0.01600000000000 0.14769230769231 1.53435897435897 0.00000000000000 0.00000000000000 1.00000000000000
0.03623409669211 0.14656488549618 1.52264631043257 0.00000000000000 -0.00000000000000 1.00000000000000
0.05630379746835 0.14582278481013 1.51493670886076 0.00000000000000 0.00000000000000 1.00000000000000
0.07655696202532 0.14582278481013 1.51493670886076 -0.00000000000000 -0.00000000000000 1.00000000000000
0.09958333333333 0.15000000000000 1.55833333333333 0.95783171302600 0.27366620372172 -0.08755123335643
0.13136363636364 0.16363636363636 1.70000000000000 0.00000000000000 0.00000000000000 1.00000000000000
0.15365439093484 0.16317280453258 1.69518413597734 0.00000000000000 0.00000000000000 -1.00000000000000
0.16465608465608 0.15238095238095 1.58306878306878 -0.88228492088353 0.32083088032128 -0.34444283214173
0.18339425587467 0.15039164490862 1.56240208877285 0.00000000000000 -0.00000000000000 1.00000000000000
0.20428198433420 0.15039164490862 1.56240208877285 0.00000000000000 0.00000000000000 -1.00000000000000
0.23562841530055 0.15737704918033 1.63497267759563 0.32233693250508 0.85956515334675 0.39654337605765
0.26250696378830 0.16044568245125 1.66685236768802 0.00000000000000 0.00000000000000 -1.00000000000000
0.28243093922652 0.15911602209945 1.65303867403315 -0.94449874557750 -0.26985678445072 0.18734843337601
0.36624584717608 0.19136212624585 1.98803986710963 -0.00000000000000 0.00000000000000 -1.00000000000000
-0.26408163265306 0.14734693877551 1.52653061224490 -0.00000000000000 0.00000000000000 1.00000000000000
-0.24555269922879 0.14848329048843 1.53830334190231 0.00000000000000 -0.00000000000000 1.00000000000000
-0.22732467532468 0.15002597402597 1.55428571428571 0.30591373335387 0.81576995561032 0.49085249033598
-0.20926315789474 0.15200000000000 1.57473684210526 -0.29596780065337 -0.78924746840897 0.53804413813965
-0.19594520547945 0.15824657534247 1.63945205479452 0.00000000000000 0.00000000000000 -1.00000000000000
-0.17307901907357 0.15738419618529 1.63051771117166 0.00000000000000 0.00000000000000 1.00000000000000
-0.15005405405405 0.15610810810811 1.61729729729730 -0.00000000000000 0.00000000000000 1.00000000000000
-0.12739946380697 0.15485254691689 1.60428954423592 0.00000000000000 0.00000000000000 -1.00000000000000
-0.10133333333333 0.14810256410256 1.53435897435897 -0.00000000000000 0.00000000000000 -1.00000000000000
-0.08338624338624 0.15280423280423 1.58306878306878 0.00000000000000 0.00000000000000 -1.00000000000000
-0.06173228346457 0.15160104986877 1.57060367454068 0.00000000000000 0.00000000000000 -1.00000000000000
-0.04052219321149 0.15080939947781 1.56240208877285 -0.00000000000000 0.00000000000000 -1.00000000000000
-0.01948186528497 0.14963730569948 1.55025906735751 0.00000000000000 -0.00000000000000 1.00000000000000
0.00123711340206 0.14886597938144 1.54226804123711 0.00000000000000 0.00000000000000 1.00000000000000
0.02168797953964 0.14772378516624 1.53043478260870 0.00000000000000 0.00000000000000 1.00000000000000
0.04182741116751 0.14659898477157 1.51878172588832 0.00000000000000 -0.00000000000000 1.00000000000000
0.06181818181818 0.14585858585859 1.51111111111111 -0.00000000000000 0.00000000000000 -1.00000000000000
0.08285714285714 0.14734693877551 1.52653061224490 0.95855950318186 0.27387414376625 -0.07846420990522
0.10708994708995 0.15280423280423 1.58306878306878 0.99229702102247 -0.11025522455805 -0.05648369258108
0.13733711048159 0.16362606232295 1.69518413597734 0.00000000000000 -0.00000000000000 1.00000000000000
0.15954802259887 0.16316384180791 1.69039548022599 0.00000000000000 -0.00000000000000 1.00000000000000
0.16968421052632 0.15200000000000 1.57473684210526 0.55458320214429 -0.83187480321643 0.02053737259278
0.18924281984334 0.15080939947781 1.56240208877285 nan nan nan
0.21013054830287 0.15080939947781 1.56240208877285 0.00000000000000 0.00000000000000 1.00000000000000
0.25065155807365 0.16362606232295 1.69518413597734 -0.00000000000000 0.00000000000000 -1.00000000000000
0.27025210084034 0.16179271708683 1.67619047619048 -0.55467712211881 0.83201568317824 0.00912102754284
0.34826666666667 0.19253333333333 1.99466666666667 0.00000000000000 0.00000000000000 -1.00000000000000
-0.27806615776081 0.14737913486005 1.52264631043257 -0.00000000000000 0.00000000000000 -1.00000000000000
-0.25836734693878 0.14775510204082 1.52653061224490 0.00000000000000 0.00000000000000 1.00000000000000
-0.24041237113402 0.14927835051546 1.54226804123711 0.00000000000000 0.00000000000000 -1.00000000000000
-0.22266318537859 0.15122715404700 1.56240208877285 0.00000000000000 0.00000000000000 1.00000000000000
-0.21114754098361 0.15825136612022 1.63497267759563 -0.76195537555687 -0.21770153587339 -0.60994265872978
-0.18980821917808 0.15868493150685 1.63945205479452 -0.00000000000000 0.00000000000000 -1.00000000000000
-0.16652173913043 0.15739130434783 1.62608695652174 -0.00000000000000 0.00000000000000 -1.00000000000000
-0.14361185983827 0.15611859838275 1.61293800539084 0.00000000000000 0.00000000000000 -1.00000000000000
-0.12139410187668 0.15528150134048 1.60428954423592 0.00000000000000 0.00000000000000 1.00000000000000
-0.09914893617021 0.15404255319149 1.59148936170213 -0.00000000000000 0.00000000000000 -1.00000000000000
-0.07725593667546 0.15282321899736 1.57889182058047 0.00000000000000 -0.00000000000000 1.00000000000000
-0.05585301837270 0.15202099737533 1.57060367454068 0.00000000000000 0.00000000000000 1.00000000000000
-0.03458333333333 0.15083333333333 1.55833333333333 -0.00000000000000 0.00000000000000 -1.00000000000000
-0.01367875647668 0.15005181347150 1.55025906735751 0.00000000000000 0.00000000000000 1.00000000000000
0.00699228791774 0.14889460154242 1.53830334190231 -0.00000000000000 0.00000000000000 -1.00000000000000
0.02734693877551 0.14775510204082 1.52653061224490 0.00000000000000 -0.00000000000000 1.00000000000000
0.04751269035533 0.14700507614213 1.51878172588832 0.00000000000000 0.00000000000000 1.00000000000000
0.06730478589421 0.14589420654912 1.50730478589421 0.00000000000000 0.00000000000000 -1.00000000000000
0.08925449871465 0.14889460154242 1.53830334190231 0.95827781728045 0.27379366208013 -0.08210149519328
0.12101983002833 0.16407932011331 1.69518413597734 0.00000000000000 -0.00000000000000 1.00000000000000
0.14368271954674 0.16407932011331 1.69518413597734 -0.32233693250503 -0.85956515334675 -0.39654337605767
0.16634560906516 0.16407932011331 1.69518413597734 0.00000000000000 0.00000000000000 1.00000000000000
0.17465968586387 0.15162303664921 1.56649214659686 0.00000000000000 0.00000000000000 -1.00000000000000
0.19458333333333 0.15083333333333 1.55833333333333 0.00000000000000 0.00000000000000 1.00000000000000
0.21654450261780 0.15162303664921 1.56649214659686 -0.00000000000000 0.00000000000000 -1.00000000000000
0.25554929577465 0.16315492957746 1.68563380281690 0.00000000000000 0.00000000000000 1.00000000000000
0.33016722408027 0.19371237458194 2.00133779264214 0.00000000000000 0.00000000000000 1.00000000000000
0.35573333333333 0.19306666666667 1.99466666666667 -0.00000000000000 0.00000000000000 -1.00000000000000
-0.27236641221374 0.14778625954198 1.52264631043257 0.00000000000000 0.00000000000000 1.00000000000000
-0.25329923273657 0.14854219948849 1.53043478260870 -0.00000000000000 0.00000000000000 -1.00000000000000
-0.23524547803618 0.15007751937984 1.54625322997416 0.00000000000000 0.00000000000000 -1.00000000000000
-0.21795275590551 0.15244094488189 1.57060367454068 -0.00000000000000 -0.00000000000000 -1.00000000000000
-0.20672176308540 0.16000000000000 1.64848484848485 -0.00000000000000 0.00000000000000 -1.00000000000000
-0.18316939890710 0.15868852459016 1.63497267759563 -0.00000000000000 0.00000000000000 -1.00000000000000
-0.16000000000000 0.15739837398374 1.62168021680217 -0.00000000000000 0.00000000000000 -1.00000000000000
-0.13720430107527 0.15612903225806 1.60860215053763 0.00000000000000 -0.00000000000000 1.00000000000000
-0.11508021390374 0.15529411764706 1.60000000000000 0.00000000000000 0.00000000000000 1.00000000000000
-0.09294429708223 0.15405835543767 1.58726790450928 nan nan nan
-0.07115789473684 0.15284210526316 1.57473684210526 0.00000000000000 -0.00000000000000 1.00000000000000
-0.04984293193717 0.15204188481675 1.56649214659686 -0.00000000000000 0.00000000000000 -1.00000000000000
-0.02867532467532 0.15085714285714 1.55428571428571 0.00000000000000 -0.00000000000000 1.00000000000000
-0.00785529715762 0.15007751937984 1.54625322997416 0.00000000000000 0.00000000000000 1.00000000000000
0.01271794871795 0.14892307692308 1.53435897435897 -0.00000000000000 0.00000000000000 -1.00000000000000
0.03297709923664 0.14778625954198 1.52264631043257 0.00000000000000 -0.00000000000000 1.00000000000000
0.05306329113924 0.14703797468354 1.51493670886076 0.00000000000000 0.00000000000000 1.00000000000000
0.07294710327456 0.14629722921914 1.50730478589421 -0.00000000000000 0.00000000000000 -1.00000000000000
0.09575129533679 0.15046632124352 1.55025906735751 -0.00000000000000 -0.00000000000000 -1.00000000000000
0.12736543909348 0.16453257790368 1.69518413597734 0.00000000000000 -0.00000000000000 1.00000000000000
0.15002832861190 0.16453257790368 1.69518413597734 0.32252036288514 0.86005430102703 0.39533177814255
0.17123595505618 0.16314606741573 1.68089887640449 -0.33108141945622 0.49662212918433 -0.80234129551910
0.18052356020942 0.15204188481675 1.56649214659686 -0.00000000000000 0.00000000000000 -1.00000000000000
0.20041666666667 0.15125000000000 1.55833333333333 0.00000000000000 0.00000000000000 1.00000000000000
0.22357894736842 0.15284210526316 1.57473684210526 nan nan nan
0.26039215686275 0.16268907563025 1.67619047619048 -0.00000000000000 0.00000000000000 -1.00000000000000
0.32152866242038 0.18496815286624 1.90573248407643 0.89649488559703 0.25614139588486 0.36150865191931
0.36199335548173 0.19295681063123 1.98803986710963 -0.00000000000000 0.00000000000000 -1.00000000000000
-0.26734693877551 0.14857142857143 1.52653061224490 0.00000000000000 -0.00000000000000 1.00000000000000
-0.24820512820513 0.14933333333333 1.53435897435897 0.00000000000000 0.00000000000000 1.00000000000000
-0.23064935064935 0.15127272727273 1.55428571428571 0.00000000000000 0.00000000000000 -1.00000000000000
-0.21263157894737 0.15326315789474 1.57473684210526 0.00000000000000 0.00000000000000 -1.00000000000000
-0.20000000000000 0.16000000000000 1.64395604395604 -0.00000000000000 0.00000000000000 -1.00000000000000
-0.17656675749319 0.15869209809264 1.63051771117166 nan nan nan
-0.15351351351351 0.15740540540541 1.61729729729730 0.00000000000000 -0.00000000000000 1.00000000000000
-0.13118279569892 0.15655913978495 1.60860215053763 -0.00000000000000 0.00000000000000 -1.00000000000000
-0.10461538461538 0.14933333333333 1.53435897435897 0.00000000000000 0.00000000000000 -1.00000000000000
-0.08677248677249 0.15407407407407 1.58306878306878 0.00000000000000 -0.00000000000000 1.00000000000000
-0.06526315789474 0.15326315789474 1.57473684210526 0.00000000000000 0.00000000000000 1.00000000000000
-0.04386422976501 0.15206266318538 1.56240208877285 0.00000000000000 0.00000000000000 -1.00000000000000
-0.02279792746114 0.15088082901554 1.55025906735751 0.00000000000000 -0.00000000000000 1.00000000000000
-0.00206185567010 0.15010309278351 1.54226804123711 -0.00000000000000 0.00000000000000 -1.00000000000000
0.01841432225064 0.14895140664962 1.53043478260870 0.00000000000000 -0.00000000000000 1.00000000000000
0.03867684478372 0.14819338422392 1.52264631043257 0.00000000000000 0.00000000000000 1.00000000000000
0.05858585858586 0.14707070707071 1.51111111111111 0.00000000000000 0.00000000000000 -1.00000000000000
0.07918781725888 0.14781725888325 1.51878172588832 0.95869561831239 0.27391303380354 -0.07664438231963
0.10234986945170 0.15206266318538 1.56240208877285 -0.00000000000000 -0.00000000000000 -1.00000000000000
0.13371104815864 0.16498583569405 1.69518413597734 0.00000000000000 -0.00000000000000 1.00000000000000
0.15593220338983 0.16451977401130 1.69039548022599 0.00000000000000 -0.00000000000000 1.00000000000000
0.16675461741425 0.15366754617414 1.57889182058047 0.00000000000000 -0.00000000000000 1.00000000000000
0.18590078328982 0.15206266318538 1.56240208877285 -0.00000000000000 0.00000000000000 -1.00000000000000
0.20678851174935 0.15206266318538 1.56240208877285 -0.00000000000000 0.00000000000000 -1.00000000000000
0.24702549575071 0.16498583569405 1.69518413597734 0.00000000000000 0.00000000000000 -1.00000000000000
0.26518105849582 0.16222841225627 1.66685236768802 0.00000000000000 0.00000000000000 1.00000000000000
0.30000000000000 0.16930232558140 1.73953488372093 0.35355828286842 -0.23570552191229 -0.90522894759016
-0.28132315521628 0.14860050890585 1.52264631043257 0.00000000000000 0.00000000000000 -1.00000000000000
-0.26163265306122 0.14897959183673 1.52653061224490 0.00000000000000 0.00000000000000 1.00000000000000
-0.24308483290488 0.15012853470437 1.53830334190231 0.00000000000000 0.00000000000000 1.00000000000000
-0.22600522193211 0.15248041775457 1.56240208877285 0.00000000000000 0.00000000000000 -1.00000000000000
-0.20838196286472 0.15490716180371 1.58726790450928 -0.62934787521966 -0.76616263070220 0.13006181327343
-0.19331506849315 0.16000000000000 1.63945205479452 0.00000000000000 -0.00000000000000 -1.00000000000000
-0.17000000000000 0.15869565217391 1.62608695652174 0.00000000000000 0.00000000000000 -1.00000000000000
-0.14745945945946 0.15783783783784 1.61729729729730 -0.00000000000000 0.00000000000000 -1.00000000000000
-0.12482573726542 0.15656836461126 1.60428954423592 -0.00000000000000 0.00000000000000 -1.00000000000000
-0.10015584415584 0.15168831168831 1.55428571428571 0.57969622731490 0.40919733692817 -0.70463453185872
-0.08084656084656 0.15449735449735 1.58306878306878 0.00000000000000 0.00000000000000 1.00000000000000
-0.05921259842520 0.15328083989501 1.57060367454068 0.00000000000000 0.00000000000000 1.00000000000000
-0.03791666666667 0.15208333333333 1.55833333333333 0.00000000000000 0.00000000000000 -1.00000000000000
-0.01699481865285 0.15129533678756 1.55025906735751 0.00000000000000 0.00000000000000 1.00000000000000
0.00370179948586 0.15012853470437 1.53830334190231 0.00000000000000 0.00000000000000 -1.00000000000000
0.02408163265306 0.14897959183673 1.52653061224490 0.00000000000000 -0.00000000000000 1.00000000000000
0.04426395939086 0.14822335025381 1.51878172588832 0.00000000000000 0.00000000000000 1.00000000000000
0.06408060453401 0.14710327455919 1.50730478589421 0.00000000000000 -0.00000000000000 1.00000000000000
0.08552429667519 0.14936061381074 1.53043478260870 0.95842023478586 0.27383435279595 -0.08028325343337
0.11739376770538 0.16543909348442 1.69518413597734 0.00000000000000 0.00000000000000 -1.00000000000000
0.14005665722380 0.16543909348442 1.69518413597734 -0.00000000000000 0.00000000000000 -1.00000000000000
0.16225988700565 0.16497175141243 1.69039548022599 0.00000000000000 -0.00000000000000 -1.00000000000000
0.17175853018373 0.15328083989501 1.57060367454068 0.00000000000000 0.00000000000000 -1.00000000000000
0.19174934725849 0.15248041775457 1.56240208877285 -0.00000000000000 0.00000000000000 -1.00000000000000
0.21319371727749 0.15287958115183 1.56649214659686 0.00000000000000 0.00000000000000 -1.00000000000000
0.25265536723164 0.16497175141243 1.69039548022599 -0.00000000000000 -0.00000000000000 1.00000000000000
0.27294117647059 0.16358543417367 1.67619047619048 -0.00000000000000 0.00000000000000 -1.00000000000000
0.35146666666667 0.19466666666667 1.99466666666667 nan nan nan
-0.27562340966921 0.14900763358779 1.52264631043257 0.00000000000000 -0.00000000000000 1.00000000000000
-0.25657289002558 0.14976982097187 1.53043478260870 0.00000000000000 0.00000000000000 -1.00000000000000
-0.23793814432990 0.15092783505155 1.54226804123711 -0.00000000000000 0.00000000000000 -1.00000000000000
-0.22131233595801 0.15370078740157 1.57060367454068 0.00000000000000 0.00000000000000 -1.00000000000000
-0.21024793388430 0.16132231404959 1.64848484848485 0.00000000000000 0.00000000000000 -1.00000000000000
-0.18666666666667 0.16000000000000 1.63497267759563 0.00000000000000 -0.00000000000000 1.00000000000000
-0.16346883468835 0.15869918699187 1.62168021680217 0.00000000000000 -0.00000000000000 1.00000000000000
-0.14102425876011 0.15784366576819 1.61293800539084 0.00000000000000 0.00000000000000 1.00000000000000
-0.11850267379679 0.15657754010695 1.60000000000000 0.00000000000000 -0.00000000000000 1.00000000000000
-0.09633952254642 0.15533156498674 1.58726790450928 0.00000000000000 -0.00000000000000 1.00000000000000
-0.07472295514512 0.15451187335092 1.57889182058047 -0.00000000000000 0.00000000000000 -1.00000000000000
-0.05319371727749 0.15329842931937 1.56649214659686 0.00000000000000 -0.00000000000000 1.00000000000000
-0.03200000000000 0.15210389610390 1.55428571428571 0.00000000000000 -0.00000000000000 1.00000000000000
-0.01116279069767 0.15131782945736 1.54625322997416 nan nan nan
0.00943589743590 0.15015384615385 1.53435897435897 0.00000000000000 0.00000000000000 -1.00000000000000
0.02979591836735 0.14938775510204 1.52653061224490 0.00000000000000 0.00000000000000 1.00000000000000
0.04982278481013 0.14825316455696 1.51493670886076 0.00000000000000 0.00000000000000 -1.00000000000000
0.06972292191436 0.14750629722922 1.50730478589421 -0.00000000000000 0.00000000000000 1.00000000000000
0.09195876288660 0.15092783505155 1.54226804123711 0.95813225491235 0.27375207283210 -0.08391891751390
0.12373937677054 0.16589235127479 1.69518413597734 -0.00000000000000 0.00000000000000 1.00000000000000
0.14598870056497 0.16542372881356 1.69039548022599 0.00000000000000 -0.00000000000000 1.00000000000000
0.16858757062147 0.16542372881356 1.69039548022599 0.00000000000000 -0.00000000000000 1.00000000000000
0.17717277486911 0.15329842931937 1.56649214659686 0.00000000000000 -0.00000000000000 1.00000000000000
0.19759791122715 0.15289817232376 1.56240208877285 0.00000000000000 -0.00000000000000 1.00000000000000
0.21963254593176 0.15370078740157 1.57060367454068 -0.00000000000000 0.00000000000000 1.00000000000000
0.25752808988764 0.16449438202247 1.68089887640449 0.00000000000000 0.00000000000000 1.00000000000000
0.33226666666667 0.19520000000000 1.99466666666667 0.33448663186297 0.89196435163460 0.30416819116739
0.35774086378738 0.19455149501661 1.98803986710963 0.00000000000000 0.00000000000000 -1.00000000000000
-0.27061224489796 0.14979591836735 1.52653061224490 0.00000000000000 -0.00000000000000 1.00000000000000
-0.25148717948718 0.15056410256410 1.53435897435897 0.00000000000000 0.00000000000000 -1.00000000000000
-0.23336787564767 0.15212435233161 1.55025906735751 -0.00000000000000 -0.00000000000000 1.00000000000000
-0.21600000000000 0.15452631578947 1.57473684210526 0.00000000000000 -0.00000000000000 1.00000000000000
-0.20351648351648 0.16131868131868 1.64395604395604 0.00000000000000 0.00000000000000 -1.00000000000000
-0.18054644808743 0.16043715846995 1.63497267759563 -0.00000000000000 0.00000000000000 -1.00000000000000
-0.15739837398374 0.15913279132791 1.62168021680217 -0.00000000000000 0.00000000000000 -1.00000000000000
-0.13462365591398 0.15784946236559 1.60860215053763 0.00000000000000 -0.00000000000000 -1.00000000000000
-0.11221333333333 0.15658666666667 1.59573333333333 0.77687058961984 0.22196302560567 0.58924061489997
-0.09039787798408 0.15575596816976 1.58726790450928 -0.00000000000000 0.00000000000000 -1.00000000000000
-0.06863157894737 0.15452631578947 1.57473684210526 0.00000000000000 -0.00000000000000 -1.00000000000000
-0.04720626631854 0.15331592689295 1.56240208877285 0.00000000000000 -0.00000000000000 1.00000000000000
-0.02618181818182 0.15251948051948 1.55428571428571 0.00000000000000 0.00000000000000 1.00000000000000
-0.00536082474227 0.15134020618557 1.54226804123711 0.00000000000000 0.00000000000000 -1.00000000000000
0.01514066496164 0.15017902813299 1.53043478260870 0.00000000000000 -0.00000000000000 1.00000000000000
0.03541984732824 0.14941475826972 1.52264631043257 0.00000000000000 0.00000000000000 1.00000000000000
0.05535353535354 0.14828282828283 1.51111111111111 0.00000000000000 -0.00000000000000 1.00000000000000
0.07574683544304 0.14865822784810 1.51493670886076 0.95882857611237 0.27395102174638 -0.07482378842619
0.09849350649351 0.15251948051948 1.55428571428571 0.95783171302600 0.27366620372171 -0.08755123335643
0.13008498583569 0.16634560906516 1.69518413597734 -0.00000000000000 0.00000000000000 1.00000000000000
0.15231638418079 0.16587570621469 1.69039548022599 0.00000000000000 0.00000000000000 -1.00000000000000
0.16468085106383 0.15617021276596 1.59148936170213 0.83749515263929 0.23928432932551 0.49126864244009
0.18255874673629 0.15331592689295 1.56240208877285 0.00000000000000 0.00000000000000 -1.00000000000000
0.20344647519582 0.15331592689295 1.56240208877285 0.00000000000000 0.00000000000000 -1.00000000000000
0.23034852546917 0.15742627345845 1.60428954423592 -0.93803605574559 0.26563852906070 -0.22254107485973
0.26234636871508 0.16402234636872 1.67150837988827 -0.32296881595061 0.93724283844490 0.13140397903873
0.28154696132597 0.16220994475138 1.65303867403315 -0.00000000000000 0.00000000000000 1.00000000000000
0.36518272425249 0.19508305647841 1.98803986710963 0.00000000000000 0.00000000000000 1.00000000000000
-0.26489795918367 0.15020408163265 1.52653061224490 -0.00000000000000 0.00000000000000 1.00000000000000
-0.24637532133676 0.15136246786632 1.53830334190231 0.00000000000000 -0.00000000000000 1.00000000000000
-0.22875000000000 0.15333333333333 1.55833333333333 0.00000000000000 -0.00000000000000 1.00000000000000
-0.21065963060686 0.15535620052770 1.57889182058047 0.82641620715525 0.23611891633007 -0.51115957381452
-0.19682191780822 0.16131506849315 1.63945205479452 0.00000000000000 -0.00000000000000 1.00000000000000
-0.17395095367847 0.16043596730245 1.63051771117166 0.00000000000000 0.00000000000000 1.00000000000000
-0.15091891891892 0.15913513513514 1.61729729729730 0.00000000000000 -0.00000000000000 -1.00000000000000
-0.12825737265416 0.15785522788204 1.60428954423592 0.00000000000000 -0.00000000000000 1.00000000000000
-0.10215384615385 0.15097435897436 1.53435897435897 -0.00000000000000 0.00000000000000 -1.00000000000000
-0.08423280423280 0.15576719576720 1.58306878306878 0.00000000000000 -0.00000000000000 -1.00000000000000
-0.06257217847769 0.15454068241470 1.57060367454068 0.00000000000000 0.00000000000000 -1.00000000000000
-0.04135770234987 0.15373368146214 1.56240208877285 -0.00000000000000 0.00000000000000 -1.00000000000000
-0.02031088082902 0.15253886010363 1.55025906735751 0.00000000000000 0.00000000000000 1.00000000000000
0.00041131105398 0.15136246786632 1.53830334190231 0.00000000000000 -0.00000000000000 1.00000000000000
0.02086956521739 0.15058823529412 1.53043478260870 0.00000000000000 0.00000000000000 1.00000000000000
0.04101522842640 0.14944162436548 1.51878172588832 0.00000000000000 0.00000000000000 -1.00000000000000
0.06101010101010 0.14868686868687 1.51111111111111 0.00000000000000 0.00000000000000 1.00000000000000
0.08204081632653 0.15020408163265 1.52653061224490 0.95855950318186 0.27387414376625 -0.07846420990522
0.10513089005236 0.15413612565445 1.56649214659686 -0.75336945731881 -0.21524841637681 0.62137153139361
0.13643059490085 0.16679886685552 1.69518413597734 0.00000000000000 0.00000000000000 1.00000000000000
0.15864406779661 0.16632768361582 1.69039548022599 0.00000000000000 -0.00000000000000 1.00000000000000
0.16928759894459 0.15535620052770 1.57889182058047 -0.00000000000000 0.00000000000000 -1.00000000000000
0.18840731070496 0.15373368146214 1.56240208877285 -0.00000000000000 0.00000000000000 1.00000000000000
0.20929503916449 0.15373368146214 1.56240208877285 0.00000000000000 -0.00000000000000 -1.00000000000000
0.24974504249292 0.16679886685552 1.69518413597734 0.00000000000000 0.00000000000000 1.00000000000000
0.26711111111111 0.16355555555556 1.66222222222222 -0.86698816372395 -0.24771090392113 -0.43240123963877
0.34604651162791 0.19561461794020 1.98803986710963 -0.84930285666133 0.30883740242231 0.42814030005589
-0.27888040712468 0.15022900763359 1.52264631043257 -0.00000000000000 0.00000000000000 -1.00000000000000
-0.25984654731458 0.15099744245524 1.53043478260870 0.00000000000000 -0.00000000000000 1.00000000000000
-0.24123711340206 0.15216494845361 1.54226804123711 0.00000000000000 0.00000000000000 -1.00000000000000
-0.22349869451697 0.15415143603133 1.56240208877285 0.00000000000000 0.00000000000000 1.00000000000000
-0.21377410468320 0.16264462809917 1.64848484848485 0.00000000000000 -0.00000000000000 1.00000000000000
-0.19068493150685 0.16175342465753 1.63945205479452 0.00000000000000 0.00000000000000 1.00000000000000
-0.16739130434783 0.16043478260870 1.62608695652174 0.00000000000000 0.00000000000000 1.00000000000000
-0.14447439353100 0.15913746630728 1.61293800539084 0.00000000000000 -0.00000000000000 1.00000000000000
-0.12192513368984 0.15786096256684 1.60000000000000 0.00000000000000 -0.00000000000000 1.00000000000000
-0.10000000000000 0.15702127659574 1.59148936170213 0.00000000000000 -0.00000000000000 -1.00000000000000
-0.07810026385224 0.15577836411609 1.57889182058047 0.00000000000000 0.00000000000000 -1.00000000000000
-0.05654450261780 0.15455497382199 1.56649214659686 0.00000000000000 -0.00000000000000 1.00000000000000
-0.03541666666667 0.15375000000000 1.55833333333333 0.00000000000000 0.00000000000000 1.00000000000000
-0.01447028423773 0.15255813953488 1.54625322997416 0.00000000000000 -0.00000000000000 1.00000000000000
0.00616966580977 0.15177377892031 1.53830334190231 0.00000000000000 0.00000000000000 1.00000000000000
0.02653061224490 0.15061224489796 1.52653061224490 0.00000000000000 0.00000000000000 1.00000000000000
0.04658227848101 0.14946835443038 1.51493670886076 0.00000000000000 -0.00000000000000 1.00000000000000
0.06649874055416 0.14871536523929 1.50730478589421 0.00000000000000 -0.00000000000000 1.00000000000000
0.08843187660668 0.15177377892031 1.53830334190231 0.95827781728045 0.27379366208013 -0.08210149519328
0.12011331444759 0.16725212464589 1.69518413597734 0.00000000000000 0.00000000000000 1.00000000000000
0.14237288135593 0.16677966101695 1.69039548022599 0.00000000000000 -0.00000000000000 1.00000000000000
0.16497175141243 0.16677966101695 1.69039548022599 0.00000000000000 0.00000000000000 1.00000000000000
0.17427821522310 0.15496062992126 1.57060367454068 -0.00000000000000 0.00000000000000 -1.00000000000000
0.19425587467363 0.15415143603133 1.56240208877285 -0.00000000000000 0.00000000000000 1.00000000000000
0.21570680628272 0.15455497382199 1.56649214659686 0.00000000000000 -0.00000000000000 1.00000000000000
0.25464788732394 0.16630985915493 1.68563380281690 -0.00000000000000 -0.00000000000000 -1.00000000000000
0.27875354107649 0.16725212464589 1.69518413597734 -0.32006532886251 0.92463317226948 -0.20642597220072
0.35466666666667 0.19680000000000 1.99466666666667 0.00000000000000 0.00000000000000 1.00000000000000
-0.27318066157761 0.15063613231552 1.52264631043257 0.00000000000000 0.00000000000000 1.00000000000000
-0.25411764705882 0.15140664961637 1.53043478260870 0.00000000000000 0.00000000000000 1.00000000000000
-0.23607235142119 0.15297157622739 1.54625322997416 -0.00000000000000 -0.00000000000000 -1.00000000000000
-0.21936842105263 0.15578947368421 1.57473684210526 0.00000000000000 -0.00000000000000 1.00000000000000
-0.20760330578512 0.16308539944904 1.64848484848485 0.00000000000000 0.00000000000000 1.00000000000000
-0.18404371584699 0.16174863387978 1.63497267759563 -0.00000000000000 0.00000000000000 -1.00000000000000
-0.16086720867209 0.16043360433604 1.62168021680217 -0.00000000000000 0.00000000000000 -1.00000000000000
-0.13806451612903 0.15913978494624 1.60860215053763 0.00000000000000 0.00000000000000 -1.00000000000000
-0.11593582887701 0.15828877005348 1.60000000000000 -0.00000000000000 0.00000000000000 -1.00000000000000
-0.09379310344828 0.15702917771883 1.58726790450928 nan nan nan
-0.07200000000000 0.15578947368421 1.57473684210526 0.00000000000000 -0.00000000000000 1.00000000000000
-0.05068062827225 0.15497382198953 1.56649214659686 -0.00000000000000 0.00000000000000 -1.00000000000000
-0.02950649350649 0.15376623376623 1.55428571428571 -0.00000000000000 0.00000000000000 -1.00000000000000
-0.00865979381443 0.15257731958763 1.54226804123711 0.00000000000000 -0.00000000000000 1.00000000000000
0.01189743589744 0.15179487179487 1.53435897435897 0.00000000000000 0.00000000000000 1.00000000000000
0.03216284987277 0.15063613231552 1.52264631043257 0.00000000000000 0.00000000000000 -1.00000000000000
0.05225316455696 0.14987341772152 1.51493670886076 0.00000000000000 0.00000000000000 1.00000000000000
0.07214105793451 0.14911838790932 1.50730478589421 -0.00000000000000 0.00000000000000 -1.00000000000000
0.09492227979275 0.15336787564767 1.55025906735751 0.95798355201855 0.27370958629102 -0.08573550276469
0.12645892351275 0.16770538243626 1.69518413597734 0.00000000000000 0.00000000000000 1.00000000000000
0.14870056497175 0.16723163841808 1.69039548022599 -0.00000000000000 0.00000000000000 -1.00000000000000
0.17129943502825 0.16723163841808 1.69039548022599 0.46928631747917 -0.70392947621876 -0.53315442860134
0.17968586387435 0.15497382198953 1.56649214659686 -0.00000000000000 0.00000000000000 -1.00000000000000
0.20010443864230 0.15456919060052 1.56240208877285 0.00000000000000 -0.00000000000000 -1.00000000000000
0.22273684210526 0.15578947368421 1.57473684210526 0.94897247863731 0.27113499389637 -0.16104983661519
0.25949579831933 0.16582633053221 1.67619047619048 0.00000000000000 -0.00000000000000 1.00000000000000
0.32675324675325 0.19220779220779 1.94285714285714 -0.20392019454458 0.81568077817833 0.54136994963453
0.36093023255814 0.19667774086379 1.98803986710963 nan nan nan
-0.26816326530612 0.15142857142857 1.52653061224490 -0.00000000000000 0.00000000000000 1.00000000000000
-0.24902564102564 0.15220512820513 1.53435897435897 0.00000000000000 0.00000000000000 1.00000000000000
-0.23148051948052 0.15418181818182 1.55428571428571 -0.00000000000000 -0.00000000000000 1.00000000000000
-0.21347368421053 0.15621052631579 1.57473684210526 0.00000000000000 0.00000000000000 1.00000000000000
-0.20087912087912 0.16307692307692 1.64395604395604 0.00000000000000 0.00000000000000 1.00000000000000
-0.17743869209809 0.16174386920981 1.63051771117166 0.00000000000000 0.00000000000000 -1.00000000000000
-0.15437837837838 0.16043243243243 1.61729729729730 0.00000000000000 -0.00000000000000 1.00000000000000
-0.13204301075269 0.15956989247312 1.60860215053763 0.00000000000000 0.00000000000000 1.00000000000000
-0.10652849740933 0.15378238341969 1.55025906735751 0.57969622731490 0.40919733692817 -0.70463453185872
-0.08761904761905 0.15703703703704 1.58306878306878 0.00000000000000 -0.00000000000000 1.00000000000000
-0.06610526315789 0.15621052631579 1.57473684210526 -0.00000000000000 0.00000000000000 -1.00000000000000
-0.04469973890339 0.15498694516971 1.56240208877285 -0.00000000000000 0.00000000000000 -1.00000000000000
-0.02362694300518 0.15378238341969 1.55025906735751 0.00000000000000 -0.00000000000000 1.00000000000000
-0.00288659793814 0.15298969072165 1.54226804123711 -0.00000000000000 0.00000000000000 -1.00000000000000
0.01759590792839 0.15181585677749 1.53043478260870 -0.00000000000000 0.00000000000000 -1.00000000000000
0.03776649746193 0.15065989847716 1.51878172588832 0.00000000000000 -0.00000000000000 1.00000000000000
0.05777777777778 0.14989898989899 1.51111111111111 -0.00000000000000 0.00000000000000 -1.00000000000000
0.07837563451777 0.15065989847716 1.51878172588832 0.95869561831239 0.27391303380354 -0.07664438231963
0.10151436031332 0.15498694516971 1.56240208877285 -0.00000000000000 0.00000000000000 1.00000000000000
0.13280453257790 0.16815864022663 1.69518413597734 0.00000000000000 0.00000000000000 1.00000000000000
0.15502824858757 0.16768361581921 1.69039548022599 0.00000000000000 0.00000000000000 1.00000000000000
0.16591029023747 0.15662269129288 1.57889182058047 0.00000000000000 0.00000000000000 1.00000000000000
0.18506527415144 0.15498694516971 1.56240208877285 -0.00000000000000 0.00000000000000 -1.00000000000000
0.20595300261097 0.15498694516971 1.56240208877285 -0.00000000000000 0.00000000000000 -1.00000000000000
0.24473239436620 0.16721126760563 1.68563380281690 -0.83787069650416 0.30468025327424 0.45292674816617
0.26428969359331 0.16534818941504 1.66685236768802 nan nan nan
0.28737430167598 0.16581005586592 1.67150837988827 -0.98851647604398 0.10983516400489 -0.10378541967734
-0.30972067039106 0.16625698324022 1.67150837988827 -0.98326282214738 -0.00000000000000 -0.18219281704496
-0.26244897959184 0.15183673469388 1.52653061224490 -0.00000000000000 0.00000000000000 -1.00000000000000
-0.24390745501285 0.15300771208226 1.53830334190231 -0.00000000000000 0.00000000000000 -1.00000000000000
-0.22625000000000 0.15500000000000 1.55833333333333 -0.00000000000000 0.00000000000000 -1.00000000000000
-0.21610958904110 0.16306849315068 1.63945205479452 -0.76195537555687 -0.21770153587339 -0.60994265872978
-0.19419178082192 0.16306849315068 1.63945205479452 -0.00000000000000 0.00000000000000 -1.00000000000000
-0.17086956521739 0.16173913043478 1.62608695652174 0.00000000000000 -0.00000000000000 1.00000000000000
-0.14832432432432 0.16086486486486 1.61729729729730 0.00000000000000 0.00000000000000 1.00000000000000
-0.12568364611260 0.15957104557641 1.60428954423592 0.00000000000000 0.00000000000000 1.00000000000000
-0.09994858611825 0.15300771208226 1.53830334190231 -0.88723676717970 0.32263155170171 0.32972685788552
-0.08169312169312 0.15746031746032 1.58306878306878 0.00000000000000 0.00000000000000 1.00000000000000
-0.06005249343832 0.15622047244094 1.57060367454068 0.00000000000000 0.00000000000000 1.00000000000000
-0.03875000000000 0.15500000000000 1.55833333333333 0.00000000000000 -0.00000000000000 1.00000000000000
-0.01777777777778 0.15379844961240 1.54625322997416 0.00000000000000 -0.00000000000000 1.00000000000000
0.00287917737789 0.15300771208226 1.53830334190231 -0.00000000000000 0.00000000000000 -1.00000000000000
0.02326530612245 0.15183673469388 1.52653061224490 0.00000000000000 -0.00000000000000 1.00000000000000
0.04345177664975 0.15106598984772 1.51878172588832 -0.00000000000000 0.00000000000000 -1.00000000000000
0.06327455919395 0.14992443324937 1.50730478589421 0.00000000000000 0.00000000000000 -1.00000000000000
0.08470588235294 0.15222506393862 1.53043478260870 0.00000000000000 0.00000000000000 1.00000000000000
0.11518207282913 0.16672268907563 1.67619047619048 0.91497916752065 -0.33271969728024 -0.22827773882917
0.13875706214689 0.16813559322034 1.69039548022599 0.00000000000000 0.00000000000000 -1.00000000000000
0.16135593220339 0.16813559322034 1.69039548022599 0.00000000000000 0.00000000000000 1.00000000000000
