-0.000000000000000000e+00 0.000000000000000000e+00 -8.329862557267721793e-06
-0.000000000000000000e+00 -0.000000000000000000e+00 -1.605127435046899143e-19
0.000000000000000000e+00 -0.000000000000000000e+00 1.101142831430590441e-20
1.761828530288944705e-19 -3.947173534205039580e-19 1.041850525122789417e-19
6.038221721503714794e-06 1.610192459067619444e-05 9.130523148576637777e-06
-5.890687823200362011e-06 -1.570850086186808604e-05 -8.907434011445830994e-06
-5.794992457664829865e-06 -1.545331322043975072e-05 -8.736906632251393098e-06
5.701358705522972304e-06 1.520362321472796737e-05 8.570331187820788980e-06
5.609731346459675296e-06 1.495928359055907483e-05 8.407597354908027064e-06
-5.475935828876965720e-06 -1.460249554367193851e-05 -8.207071024812439782e-06
-5.389094288736807942e-06 -1.437091810329817428e-05 -8.052901501333503822e-06
-5.304079350232587217e-06 -1.414421160062009310e-05 -7.902227310025682552e-06
-5.220843239470224299e-06 -1.392224863858727496e-05 -7.754953068539564097e-06
-1.708640344235084528e-06 2.392096481929179325e-05 6.911313135718545787e-06
-1.082011832978793531e-05 4.219846148617274273e-04 1.343922344314518681e-04
1.372304935949116575e-03 3.920871245568914414e-04 -5.016932980125665513e-04
6.801127302840504320e-05 -1.313321134341620020e-04 -2.625011904402660412e-05
0.000000000000000000e+00 -0.000000000000000000e+00 0.000000000000000000e+00
0.000000000000000000e+00 0.000000000000000000e+00 1.081665765278522436e-05
0.000000000000000000e+00 0.000000000000000000e+00 1.081665765278526332e-05
6.834561376940451614e-06 -1.025184206541073417e-05 8.788990091549237968e-06
-6.746031746031726510e-06 1.011904761904781508e-05 -8.630050505050513757e-06
5.085944299390581030e-06 1.356251813170817881e-05 6.965295909486552160e-06
-0.000000000000000000e+00 -0.000000000000000000e+00 2.964615315390051187e-20
-0.000000000000000000e+00 0.000000000000000000e+00 1.490777987167568597e-19
0.000000000000000000e+00 0.000000000000000000e+00 -1.422222222222216774e-05
0.000000000000000000e+00 -0.000000000000000000e+00 8.203813491427597521e-06
-0.000000000000000000e+00 0.000000000000000000e+00 -8.245510062099058334e-06
-0.000000000000000000e+00 0.000000000000000000e+00 -8.372525035812205664e-06
0.000000000000000000e+00 0.000000000000000000e+00 -8.635520323831971727e-06
0.000000000000000000e+00 -0.000000000000000000e+00 8.635520323832086923e-06
0.000000000000000000e+00 0.000000000000000000e+00 8.725944003981137134e-06
-0.000000000000000000e+00 -0.000000000000000000e+00 -1.346782386134337539e-19
5.890687823200485677e-06 1.570850086186783870e-05 8.881183174443847740e-06
0.000000000000000000e+00 -0.000000000000000000e+00 -1.691767831299027038e-05
0.000000000000000000e+00 0.000000000000000000e+00 -1.135024149320762454e-19
-0.000000000000000000e+00 -0.000000000000000000e+00 7.707999820014133086e-20
-5.505297415090877407e-06 -1.468079310690903522e-05 -8.226543356632117046e-06
-5.417836124943457691e-06 -1.444756299984921204e-05 -8.071706654594800875e-06
-5.262241868342322472e-06 -1.403264498224618084e-05 -7.839896173904251385e-06
-5.179877724502310265e-06 -1.381300726533961376e-05 -7.694103579015784580e-06
-5.099223527326304758e-06 -1.359792940620351832e-05 -7.551577373445469682e-06
-1.807262659335214102e-05 -1.102430222194450068e-03 1.277067849222199129e-04
1.174170357032584691e-04 -3.985063029928778266e-04 6.785680998679863025e-05
0.000000000000000000e+00 0.000000000000000000e+00 1.087982048296197614e-05
0.000000000000000000e+00 -0.000000000000000000e+00 1.081665765278531414e-05
0.000000000000000000e+00 0.000000000000000000e+00 1.081665765278522436e-05
-3.338791975517112426e-05 3.709768861685773177e-06 -7.997130880633069640e-05
0.000000000000000000e+00 -0.000000000000000000e+00 8.725944003981252331e-06
-6.746031746031727357e-06 1.011904761904758977e-05 -8.607503607503471537e-06
-0.000000000000000000e+00 -0.000000000000000000e+00 9.317362419797303730e-20
0.000000000000000000e+00 -0.000000000000000000e+00 1.499248316640111600e-19
0.000000000000000000e+00 -0.000000000000000000e+00 1.431751322692143976e-05
0.000000000000000000e+00 -0.000000000000000000e+00 -8.893845946170153560e-20
-0.000000000000000000e+00 0.000000000000000000e+00 -3.303428494291771322e-20
0.000000000000000000e+00 0.000000000000000000e+00 8.287525331986577754e-06
0.000000000000000000e+00 0.000000000000000000e+00 1.143494478793305458e-20
0.000000000000000000e+00 -0.000000000000000000e+00 8.680555555555621617e-06
-0.000000000000000000e+00 0.000000000000000000e+00 1.101142831430590441e-20
0.000000000000000000e+00 -0.000000000000000000e+00 9.767711608314678096e-06
-0.000000000000000000e+00 -0.000000000000000000e+00 -3.726944967918921492e-20
-0.000000000000000000e+00 -0.000000000000000000e+00 -3.642241673193491458e-20
-3.799350920293434832e-05 -4.625296772531082521e-05 3.502275422852112083e-05
-5.609731346459555018e-06 -1.495928359055901385e-05 -8.432596157699640625e-06
-0.000000000000000000e+00 -0.000000000000000000e+00 1.185846126156020475e-20
5.432283687943266342e-06 1.448608983451548590e-05 8.117439243498814037e-06
-5.374799608925842627e-06 -1.433279895713557582e-05 -8.007589149982579946e-06
-8.923159730039623106e-04 -2.072044581507260196e-04 9.965937522361429952e-04
-5.139339674152224311e-06 -1.370490579773934840e-05 -7.633889038272504183e-06
1.027874978736696159e-05 2.740999943297864555e-05 -1.109317122773845504e-05
-2.624379538610914801e-05 8.922890431277081050e-04 -4.183569735079751103e-05
3.168518233290093999e-05 -1.235722110983130968e-03 1.174296064324123739e-03
-0.000000000000000000e+00 0.000000000000000000e+00 -1.295960409299079519e-19
-0.000000000000000000e+00 0.000000000000000000e+00 -1.081665765278514643e-05
0.000000000000000000e+00 0.000000000000000000e+00 1.081665765278524977e-05
-0.000000000000000000e+00 0.000000000000000000e+00 8.131516293641283255e-20
0.000000000000000000e+00 -0.000000000000000000e+00 8.680555555555540301e-06
0.000000000000000000e+00 -0.000000000000000000e+00 8.680555555555540301e-06
-0.000000000000000000e+00 -0.000000000000000000e+00 -8.817795413368546440e-06
0.000000000000000000e+00 0.000000000000000000e+00 1.451099094196735961e-05
-4.403699431323711624e-05 1.601345247754112992e-05 2.569859405620338229e-05
0.000000000000000000e+00 0.000000000000000000e+00 2.363221922839497946e-19
0.000000000000000000e+00 0.000000000000000000e+00 8.203813491427653425e-06
0.000000000000000000e+00 -0.000000000000000000e+00 8.329862557267767533e-06
-0.000000000000000000e+00 -0.000000000000000000e+00 -1.486542822431297095e-19
0.000000000000000000e+00 -0.000000000000000000e+00 -2.286988957586610915e-20
0.000000000000000000e+00 0.000000000000000000e+00 8.635520323831971727e-06
0.000000000000000000e+00 -0.000000000000000000e+00 9.713969142969893972e-06
0.000000000000000000e+00 0.000000000000000000e+00 -1.702536223981143682e-19
0.000000000000000000e+00 0.000000000000000000e+00 -1.329841727189251532e-19
0.000000000000000000e+00 -0.000000000000000000e+00 9.349890430971543673e-06
-5.564653292528600049e-06 -1.483907544674273356e-05 -8.364834441335390150e-06
0.000000000000000000e+00 0.000000000000000000e+00 -8.470329472543003391e-21
0.000000000000000000e+00 0.000000000000000000e+00 -5.675120746603812272e-20
-5.332217702223045381e-06 -1.421924720592798154e-05 -7.944148940317570401e-06
5.220843239470224299e-06 1.392224863858727496e-05 7.754953068539564097e-06
-5.099223527326361509e-06 -1.359792940620353187e-05 -7.574301185955826718e-06
6.763645405942752951e-06 -1.014546810891530003e-05 -8.075684107015515610e-06
-6.641847492757992415e-06 -7.306032242033825284e-05 -2.591918827721919317e-06
1.307942048593718792e-05 -1.961913072890583609e-05 8.200866588107414833e-07
0.000000000000000000e+00 0.000000000000000000e+00 -1.081665765278529551e-05
0.000000000000000000e+00 0.000000000000000000e+00 1.081665765278528873e-05
-6.974587599389549300e-06 -1.859890026503889187e-05 -8.619396760529019624e-06
6.888423780228257860e-06 -1.033263567034244269e-05 6.354294663577746878e-08
0.000000000000000000e+00 -0.000000000000000000e+00 8.680555555555574183e-06
-0.000000000000000000e+00 0.000000000000000000e+00 -8.680555555555482703e-06
0.000000000000000000e+00 0.000000000000000000e+00 -1.460920379839310909e-05
-0.000000000000000000e+00 0.000000000000000000e+00 2.380162581784583953e-19
2.498883308538647825e-05 7.139666595824707346e-06 9.357926645116049230e-06
0.000000000000000000e+00 -0.000000000000000000e+00 8.203813491427607685e-06
-0.000000000000000000e+00 0.000000000000000000e+00 1.575481281892998631e-19
0.000000000000000000e+00 0.000000000000000000e+00 -8.372525035812104020e-06
0.000000000000000000e+00 0.000000000000000000e+00 0.000000000000000000e+00
-0.000000000000000000e+00 0.000000000000000000e+00 -8.680555555555586041e-06
0.000000000000000000e+00 0.000000000000000000e+00 8.725944003981137134e-06
-0.000000000000000000e+00 -0.000000000000000000e+00 6.098637220230962441e-20
0.000000000000000000e+00 -0.000000000000000000e+00 9.555376392248197533e-06
-5.747921373353575249e-06 -1.532779032894272616e-05 -8.665939211376954594e-06
-0.000000000000000000e+00 -0.000000000000000000e+00 -6.606856988583542645e-20
-5.594651423485368150e-06 -1.491907046262744793e-05 -8.384996286749654283e-06
-5.432283687943325634e-06 -1.448608983451551470e-05 -8.141647281323919792e-06
-5.346361515756746449e-06 -1.425696404201796964e-05 -7.989046093866405751e-06
-5.290084417910026028e-06 -1.410689178109338975e-05 -7.881377106041415894e-06
5.179877724502310265e-06 1.381300726533961376e-05 7.694103579015784580e-06
-5.125921032705367086e-06 -1.366912275388101673e-05 -7.591114427756503730e-06
6.763645405942752951e-06 -1.014546810891530341e-05 -8.075684107015515610e-06
-3.278304359524275970e-06 -3.606134795476761165e-05 -5.519647741156393537e-06
1.634170878401173524e-04 -1.089447252267451184e-04 1.707965879446008919e-05
-0.000000000000000000e+00 0.000000000000000000e+00 0.000000000000000000e+00
0.000000000000000000e+00 -0.000000000000000000e+00 1.075404326822088387e-05
-6.994862563340881186e-06 -1.865296683557660247e-05 -8.613281744663458069e-06
-0.000000000000000000e+00 0.000000000000000000e+00 -6.945670167485262780e-20
0.000000000000000000e+00 -0.000000000000000000e+00 8.680555555555447128e-06
0.000000000000000000e+00 0.000000000000000000e+00 8.725944003981206591e-06
0.000000000000000000e+00 -0.000000000000000000e+00 1.451099094196739011e-05
-0.000000000000000000e+00 0.000000000000000000e+00 -1.441376514571432411e-05
-0.000000000000000000e+00 0.000000000000000000e+00 2.075230720773035831e-19
-0.000000000000000000e+00 0.000000000000000000e+00 5.675120746603812272e-20
0.000000000000000000e+00 -0.000000000000000000e+00 8.287525331986487969e-06
-0.000000000000000000e+00 -0.000000000000000000e+00 -1.592421940838084637e-19
0.000000000000000000e+00 0.000000000000000000e+00 8.635520323831971727e-06
0.000000000000000000e+00 -0.000000000000000000e+00 8.131516293641283255e-20
0.000000000000000000e+00 -0.000000000000000000e+00 9.767711608314764494e-06
0.000000000000000000e+00 0.000000000000000000e+00 -3.726944967918921492e-20
0.000000000000000000e+00 0.000000000000000000e+00 0.000000000000000000e+00
1.132741448343583263e-05 3.236404138124468975e-06 5.642073524216388372e-07
-0.000000000000000000e+00 -0.000000000000000000e+00 7.792703114739563119e-20
5.520056925587119419e-06 1.472015180156567155e-05 8.273197616815698314e-06
-5.389094288736749497e-06 -1.437091810329814548e-05 -8.076917073030166346e-06
-5.304079350232528772e-06 -1.414421160062012190e-05 -7.925864027272688550e-06
5.234618551448737610e-06 1.395898280386086084e-05 7.798741863280180182e-06
-0.000000000000000000e+00 -0.000000000000000000e+00 4.404571325722361763e-20
1.690911351486025780e-06 -2.367275892080023333e-05 -6.862206548890704014e-06
-3.312320316984309074e-06 -3.643552348682756837e-05 -5.576920063114528552e-06
-1.521840911519315145e-05 2.130577276127019180e-04 -1.595898410422116025e-05
9.435405159514160948e-06 -1.415310773927138203e-05 5.285340590689900812e-07
0.000000000000000000e+00 -0.000000000000000000e+00 -7.707999820014133086e-20
-6.974587599389549300e-06 -1.859890026503889187e-05 -8.650477810437236069e-06
-1.237618515054256855e-05 -3.536052900154903420e-06 -7.400183435698839499e-06
-0.000000000000000000e+00 0.000000000000000000e+00 -8.725944003981299764e-06
0.000000000000000000e+00 -0.000000000000000000e+00 8.680555555555586041e-06
-0.000000000000000000e+00 0.000000000000000000e+00 1.763559082673712676e-05
-0.000000000000000000e+00 0.000000000000000000e+00 6.013933925505532407e-20
-0.000000000000000000e+00 0.000000000000000000e+00 -1.431751322692135166e-05
-0.000000000000000000e+00 0.000000000000000000e+00 -1.422222222222213895e-05
-0.000000000000000000e+00 0.000000000000000000e+00 -8.203813491427461996e-06
0.000000000000000000e+00 -0.000000000000000000e+00 8.329862557267881035e-06
0.000000000000000000e+00 0.000000000000000000e+00 -8.502497608672590873e-06
0.000000000000000000e+00 -0.000000000000000000e+00 4.573977915173221831e-20
0.000000000000000000e+00 0.000000000000000000e+00 8.635520323832064900e-06
-0.000000000000000000e+00 0.000000000000000000e+00 -9.767711608314678096e-06
0.000000000000000000e+00 0.000000000000000000e+00 -9.607806342653388586e-06
0.000000000000000000e+00 0.000000000000000000e+00 9.656175598699023865e-20
0.000000000000000000e+00 0.000000000000000000e+00 -9.349890430971543673e-06
0.000000000000000000e+00 0.000000000000000000e+00 7.707999820014133086e-20
-0.000000000000000000e+00 -0.000000000000000000e+00 -1.778769189234030712e-20
-5.417836124943516983e-06 -1.444756299984921204e-05 -8.095850309340548663e-06
-5.262241868342322472e-06 -1.403264498224618931e-05 -7.863346449609923857e-06
2.168789091501726728e-03 7.464669431215241631e-03 5.524431223485610880e-04
-5.125921032705423837e-06 -1.366912275388103198e-05 -7.613957213107349544e-06
7.919758056827708170e-20 1.897353801849632760e-19 -2.371692252312040949e-20
-3.286753597564391756e-06 -3.615428957320792095e-05 -5.533873637396554196e-06
-2.013432133797025790e-05 3.020148200695587813e-05 -9.965771261178048214e-06
0.000000000000000000e+00 -0.000000000000000000e+00 -5.166900978251232068e-20
0.000000000000000000e+00 -0.000000000000000000e+00 1.075404326822097535e-05
6.974587599389549300e-06 1.859890026503889187e-05 8.619396760528980661e-06
-0.000000000000000000e+00 0.000000000000000000e+00 -8.864265927977848451e-06
-0.000000000000000000e+00 0.000000000000000000e+00 0.000000000000000000e+00
0.000000000000000000e+00 -0.000000000000000000e+00 4.658681209898651865e-20
2.488368261037399946e-05 7.109623602964100037e-06 -4.178329593399929537e-06
0.000000000000000000e+00 -0.000000000000000000e+00 1.441376514571411405e-05
2.018316032487924372e-06 -2.825642445482948092e-05 1.164147418524799865e-05
-1.081987242324805357e-05 -3.091392120927817825e-06 6.424970843842987207e-06
0.000000000000000000e+00 -0.000000000000000000e+00 8.245510062099046475e-06
-0.000000000000000000e+00 0.000000000000000000e+00 -8.329862557267813273e-06
0.000000000000000000e+00 0.000000000000000000e+00 -1.605127435046899143e-19
-0.000000000000000000e+00 0.000000000000000000e+00 -2.286988957586610915e-20
-5.125921032705480588e-06 -1.366912275388113023e-05 9.221175590385276833e-06
-0.000000000000000000e+00 0.000000000000000000e+00 -9.713969142969895666e-06
0.000000000000000000e+00 -0.000000000000000000e+00 9.555376392248222944e-06
-0.000000000000000000e+00 -0.000000000000000000e+00 -5.421010862427522170e-20
0.000000000000000000e+00 0.000000000000000000e+00 9.349890430971543673e-06
-5.520056925586999987e-06 -1.472015180156561056e-05 -8.297796800975958801e-06
0.000000000000000000e+00 0.000000000000000000e+00 0.000000000000000000e+00
-0.000000000000000000e+00 -0.000000000000000000e+00 -9.317362419797303730e-21
-5.220843239470224299e-06 -1.392224863858727835e-05 -7.801484648214096869e-06
-5.139339674152281062e-06 -1.370490579773935348e-05 -7.656791621490692220e-06
5.072734054456857190e-06 1.352729081188607511e-05 7.534954166807998951e-06
-3.312320316984309074e-06 -3.643552348682756837e-05 -5.576920063114597161e-06
9.105604182983728645e-20 1.778769189234030712e-19 -3.811648262644351526e-20
-4.879629950522511177e-06 -1.301234653472748817e-05 -7.161139640401880437e-06
-0.000000000000000000e+00 0.000000000000000000e+00 2.541098841762901017e-20
0.000000000000000000e+00 -0.000000000000000000e+00 1.075404326822086015e-05
0.000000000000000000e+00 -0.000000000000000000e+00 1.069197099802865715e-05
-0.000000000000000000e+00 0.000000000000000000e+00 0.000000000000000000e+00
0.000000000000000000e+00 -0.000000000000000000e+00 1.151964808265848461e-19
0.000000000000000000e+00 -0.000000000000000000e+00 8.725944003981171015e-06
-0.000000000000000000e+00 0.000000000000000000e+00 -1.460920379839301931e-05
0.000000000000000000e+00 -0.000000000000000000e+00 1.185846126156020475e-19
0.000000000000000000e+00 -0.000000000000000000e+00 1.422222222222234562e-05
-0.000000000000000000e+00 0.000000000000000000e+00 -3.388131789017201356e-20
-0.000000000000000000e+00 0.000000000000000000e+00 -8.245510062098990571e-06
0.000000000000000000e+00 0.000000000000000000e+00 8.372525035812115879e-06
-0.000000000000000000e+00 -0.000000000000000000e+00 -8.089164646278568238e-20
0.000000000000000000e+00 0.000000000000000000e+00 -8.635520323832086923e-06
1.726625908167457818e-05 1.726625908167440539e-05 -8.185314799948915985e-06
-0.000000000000000000e+00 -0.000000000000000000e+00 0.000000000000000000e+00
-0.000000000000000000e+00 0.000000000000000000e+00 -9.555376392248197533e-06
3.130525872851523504e-05 5.601993667207905831e-05 -1.915585786706007539e-05
0.000000000000000000e+00 0.000000000000000000e+00 -3.557538378468061424e-20
0.000000000000000000e+00 -0.000000000000000000e+00 9.150962280877326761e-06
-0.000000000000000000e+00 -0.000000000000000000e+00 8.555032767268433425e-20
-0.000000000000000000e+00 -0.000000000000000000e+00 5.166900978251232068e-20
0.000000000000000000e+00 -0.000000000000000000e+00 8.817795413368641308e-06
-5.166317835171221347e-06 -1.377684756045652927e-05 -7.673961946609972513e-06
-1.669076446922801884e-06 2.336707025691953977e-05 6.773594200907650823e-06
-1.643376798782195666e-06 2.300727518295052164e-05 6.735208441640005316e-06
-3.236404138124523609e-06 -3.560044551936975970e-05 -5.449100764109715194e-06
-5.332255020992275699e-05 3.554836680661525264e-05 9.357584791741526081e-06
-0.000000000000000000e+00 0.000000000000000000e+00 -1.081665765278527010e-05
-0.000000000000000000e+00 0.000000000000000000e+00 -1.075404326822088556e-05
-1.746276322547499725e-05 2.619414483821262801e-05 -6.231965261241048009e-05
0.000000000000000000e+00 -0.000000000000000000e+00 -3.472835083742631390e-20
-0.000000000000000000e+00 0.000000000000000000e+00 -2.286988957586610915e-20
0.000000000000000000e+00 -0.000000000000000000e+00 8.771689372550032918e-06
-0.000000000000000000e+00 0.000000000000000000e+00 0.000000000000000000e+00
0.000000000000000000e+00 -0.000000000000000000e+00 1.431751322692132117e-05
0.000000000000000000e+00 -0.000000000000000000e+00 2.075230720773035831e-19
-0.000000000000000000e+00 0.000000000000000000e+00 0.000000000000000000e+00
0.000000000000000000e+00 0.000000000000000000e+00 8.287525331986611636e-06
0.000000000000000000e+00 0.000000000000000000e+00 -8.458839156495084367e-06
0.000000000000000000e+00 0.000000000000000000e+00 -8.680555555555552160e-06
0.000000000000000000e+00 0.000000000000000000e+00 8.635520323832017467e-06
0.000000000000000000e+00 0.000000000000000000e+00 9.767711608314764494e-06
0.000000000000000000e+00 -0.000000000000000000e+00 9.607806342653388586e-06
-0.000000000000000000e+00 -0.000000000000000000e+00 0.000000000000000000e+00
1.784598168708767814e-05 -6.489447886213686434e-06 -6.662094962330855584e-06
-0.000000000000000000e+00 -0.000000000000000000e+00 -1.863472483959460746e-20
0.000000000000000000e+00 0.000000000000000000e+00 -1.778769189234030712e-20
-5.346361515756746449e-06 -1.425696404201796964e-05 -8.012871234310868312e-06
-0.000000000000000000e+00 -0.000000000000000000e+00 4.743384504624081899e-20
8.609300628079449196e-06 -3.357627244951181156e-04 1.074942543929010565e-04
-5.059523809523851634e-06 -1.349206349206359532e-05 -7.537878787878771792e-06
-4.981352186552836649e-06 -1.328360583080761070e-05 -7.399217071398036043e-06
-4.904782682226431069e-06 -1.307942048593718792e-05 -7.263624692324085395e-06
-1.605807365842884049e-06 2.248130312180054524e-05 6.667106090055989665e-06
-9.435405159514160948e-06 1.415310773927138203e-05 1.031965903876804069e-05
0.000000000000000000e+00 0.000000000000000000e+00 1.081665765278523621e-05
0.000000000000000000e+00 -0.000000000000000000e+00 1.069197099802863174e-05
-2.744386749103933099e-19 7.115076756936122848e-19 9.359714067160018747e-20
0.000000000000000000e+00 0.000000000000000000e+00 -8.680555555555470845e-06
-0.000000000000000000e+00 0.000000000000000000e+00 -3.472835083742631390e-20
-1.914309187805743150e-05 6.961124319293632398e-06 1.103170690921242586e-05
-0.000000000000000000e+00 0.000000000000000000e+00 -1.451099094196742060e-05
-2.018316032487926066e-06 2.825642445482948092e-05 -1.164147418524799865e-05
0.000000000000000000e+00 0.000000000000000000e+00 -1.412787938322989252e-05
0.000000000000000000e+00 -0.000000000000000000e+00 8.245510062098888927e-06
0.000000000000000000e+00 -0.000000000000000000e+00 9.063252535621013628e-20
-0.000000000000000000e+00 0.000000000000000000e+00 -8.502497608672533275e-06
0.000000000000000000e+00 -0.000000000000000000e+00 4.658681209898651865e-20
-5.059523809523907538e-06 -1.349206349206367833e-05 9.124278499278556178e-06
0.000000000000000000e+00 0.000000000000000000e+00 9.713969142969895666e-06
0.000000000000000000e+00 -0.000000000000000000e+00 9.555376392248307647e-06
0.000000000000000000e+00 0.000000000000000000e+00 -3.642241673193491458e-20
0.000000000000000000e+00 0.000000000000000000e+00 9.349890430971543673e-06
-0.000000000000000000e+00 -0.000000000000000000e+00 9.486769009248163798e-20
0.000000000000000000e+00 0.000000000000000000e+00 -1.778769189234030712e-20
-5.374799608925842627e-06 -1.433279895713558937e-05 -8.031541019897613443e-06
-0.000000000000000000e+00 -0.000000000000000000e+00 4.658681209898651865e-20
5.139339674152281062e-06 1.370490579773935348e-05 7.656791621490690526e-06
0.000000000000000000e+00 -0.000000000000000000e+00 8.635520323832034407e-06
-4.942869751375890987e-06 -1.318098600366895002e-05 -7.342055906990291954e-06
-4.867085914660306118e-06 -1.297889577242739997e-05 -7.207798534580695955e-06
-6.439699282508438391e-06 9.659548923762657587e-06 7.968697400922461580e-06
0.000000000000000000e+00 -0.000000000000000000e+00 -7.707999820014133086e-20
0.000000000000000000e+00 0.000000000000000000e+00 1.075404326822092452e-05
0.000000000000000000e+00 0.000000000000000000e+00 -1.069197099802859277e-05
-1.208638135717220947e-05 -3.453251816334949602e-06 -7.226898921511673126e-06
0.000000000000000000e+00 -0.000000000000000000e+00 0.000000000000000000e+00
0.000000000000000000e+00 0.000000000000000000e+00 8.680555555555470845e-06
-2.549649280944323140e-05 -7.284712231269384330e-06 3.335190575829634113e-05
0.000000000000000000e+00 -0.000000000000000000e+00 1.185846126156020475e-19
0.000000000000000000e+00 0.000000000000000000e+00 -1.422222222222213895e-05
0.000000000000000000e+00 0.000000000000000000e+00 -8.203813491427461996e-06
-0.000000000000000000e+00 0.000000000000000000e+00 -6.776263578034402713e-20
0.000000000000000000e+00 0.000000000000000000e+00 -1.588186776101813136e-19
-0.000000000000000000e+00 -0.000000000000000000e+00 -1.727947212398772692e-19
-0.000000000000000000e+00 0.000000000000000000e+00 -8.680555555555552160e-06
-5.139339674152281062e-06 -1.370490579773933993e-05 9.245314793501375745e-06
-0.000000000000000000e+00 -0.000000000000000000e+00 -3.726944967918921492e-20
0.000000000000000000e+00 0.000000000000000000e+00 9.555376392248222944e-06
-5.701358705523033291e-06 -1.520362321472796737e-05 -8.595738312176945804e-06
-0.000000000000000000e+00 -0.000000000000000000e+00 -1.312901068244165526e-19
0.000000000000000000e+00 0.000000000000000000e+00 -9.150962280877326761e-06
0.000000000000000000e+00 0.000000000000000000e+00 8.555032767268433425e-20
5.304079350232587217e-06 1.414421160062010665e-05 7.925864027272647893e-06
-0.000000000000000000e+00 -0.000000000000000000e+00 5.082197683525802034e-20
-5.099223527326361509e-06 -1.359792940620352509e-05 -7.597024998466193919e-06
-4.968480475476464034e-06 -1.324928126793730575e-05 -7.402238826030380595e-06
-4.904782682226431069e-06 -1.307942048593715912e-05 -7.285482012654899967e-06
-4.829774461881328793e-06 -1.287939856501687678e-05 -7.152542999877291865e-06
0.000000000000000000e+00 0.000000000000000000e+00 8.502497608672555297e-06
0.000000000000000000e+00 -0.000000000000000000e+00 2.541098841762901017e-20
0.000000000000000000e+00 0.000000000000000000e+00 1.075404326822103972e-05
-0.000000000000000000e+00 0.000000000000000000e+00 -1.069197099802865715e-05
-0.000000000000000000e+00 0.000000000000000000e+00 -8.771689372550159973e-06
0.000000000000000000e+00 -0.000000000000000000e+00 1.185846126156020475e-20
-0.000000000000000000e+00 0.000000000000000000e+00 -8.725944003981171015e-06
0.000000000000000000e+00 0.000000000000000000e+00 -1.451099094196739011e-05
0.000000000000000000e+00 0.000000000000000000e+00 1.441376514571411574e-05
0.000000000000000000e+00 -0.000000000000000000e+00 3.261076846929056305e-19
0.000000000000000000e+00 -0.000000000000000000e+00 -3.388131789017201356e-20
0.000000000000000000e+00 0.000000000000000000e+00 -8.287525331986352444e-06
-0.000000000000000000e+00 -0.000000000000000000e+00 9.105604182983728645e-20
0.000000000000000000e+00 -0.000000000000000000e+00 8.680555555555633475e-06
0.000000000000000000e+00 0.000000000000000000e+00 8.635520323832086923e-06
0.000000000000000000e+00 0.000000000000000000e+00 9.767711608314762800e-06
0.000000000000000000e+00 -0.000000000000000000e+00 9.607806342653473289e-06
0.000000000000000000e+00 0.000000000000000000e+00 0.000000000000000000e+00
0.000000000000000000e+00 0.000000000000000000e+00 -8.415516107823763496e-06
-0.000000000000000000e+00 -0.000000000000000000e+00 9.486769009248163798e-20
0.000000000000000000e+00 0.000000000000000000e+00 9.150962280877326761e-06
0.000000000000000000e+00 0.000000000000000000e+00 1.033380195650246414e-19
0.000000000000000000e+00 0.000000000000000000e+00 8.978549240895583594e-20
6.906503632669842453e-06 -1.035975544900471370e-05 -7.923089260954564633e-06
0.000000000000000000e+00 0.000000000000000000e+00 0.000000000000000000e+00
4.981352186552836649e-06 1.328360583080761070e-05 7.399217071398036890e-06
-4.930130396346532365e-06 -1.314701439025745522e-05 -7.301162804429143141e-06
-4.792843413358006014e-06 -1.278091576895470134e-05 -7.097850816074193034e-06
-5.332255020992275699e-05 3.554836680661524587e-05 9.357584791741522693e-06
-2.594736418866425940e-05 9.435405159514160948e-06 -9.644800514658404141e-06
0.000000000000000000e+00 -0.000000000000000000e+00 1.069197099802858092e-05
0.000000000000000000e+00 0.000000000000000000e+00 -8.958315836622644297e-06
0.000000000000000000e+00 -0.000000000000000000e+00 -3.472835083742631390e-20
0.000000000000000000e+00 -0.000000000000000000e+00 0.000000000000000000e+00
-0.000000000000000000e+00 0.000000000000000000e+00 -8.771689372550021060e-06
0.000000000000000000e+00 -0.000000000000000000e+00 1.194316455628563478e-19
0.000000000000000000e+00 0.000000000000000000e+00 1.431751322692132117e-05
-0.000000000000000000e+00 0.000000000000000000e+00 -1.422222222222216774e-05
0.000000000000000000e+00 0.000000000000000000e+00 8.203813491427619544e-06
0.000000000000000000e+00 -0.000000000000000000e+00 8.329862557267813273e-06
-0.000000000000000000e+00 0.000000000000000000e+00 -8.458839156495152130e-06
0.000000000000000000e+00 -0.000000000000000000e+00 -6.945670167485262780e-20
0.000000000000000000e+00 0.000000000000000000e+00 1.101142831430590441e-20
-0.000000000000000000e+00 -0.000000000000000000e+00 -3.642241673193491458e-20
0.000000000000000000e+00 0.000000000000000000e+00 9.607806342653388586e-06
-0.000000000000000000e+00 -0.000000000000000000e+00 -3.642241673193491458e-20
3.838927492379793467e-05 4.673476947244854416e-05 -3.538757458506823722e-05
-0.000000000000000000e+00 -0.000000000000000000e+00 0.000000000000000000e+00
-0.000000000000000000e+00 -0.000000000000000000e+00 -1.778769189234030712e-20
-5.304079350232471174e-06 -1.414421160062010665e-05 -7.949500744519625092e-06
0.000000000000000000e+00 0.000000000000000000e+00 -9.317362419797303730e-21
-5.085944299390694532e-06 -1.356251813170820422e-05 -7.599905715114669148e-06
-0.000000000000000000e+00 -0.000000000000000000e+00 -1.694065894508600678e-21
-0.000000000000000000e+00 -0.000000000000000000e+00 0.000000000000000000e+00
4.867085914660306118e-06 1.297889577242739997e-05 7.207798534580616334e-06
-4.362219678359646746e-19 7.674118502123961072e-19 8.046812998915853221e-21
0.000000000000000000e+00 0.000000000000000000e+00 1.087982048296197614e-05
0.000000000000000000e+00 0.000000000000000000e+00 1.075404326822097535e-05
-0.000000000000000000e+00 0.000000000000000000e+00 -1.069197099802863174e-05
0.000000000000000000e+00 0.000000000000000000e+00 2.329340604949325932e-20
-0.000000000000000000e+00 0.000000000000000000e+00 1.617832929255713648e-19
0.000000000000000000e+00 -0.000000000000000000e+00 -2.286988957586610915e-20
-2.488368261037399946e-05 -7.109623602964099190e-06 4.178329593399929537e-06
0.000000000000000000e+00 0.000000000000000000e+00 -1.441376514571390568e-05
3.553832543887037554e-05 -3.948702826541166672e-06 3.851568960219624371e-06
-0.000000000000000000e+00 0.000000000000000000e+00 -1.412787938322998061e-05
-0.000000000000000000e+00 0.000000000000000000e+00 5.590417451878382238e-20
0.000000000000000000e+00 0.000000000000000000e+00 8.329862557267731958e-06
-0.000000000000000000e+00 -0.000000000000000000e+00 -1.719476882926229688e-19
-0.000000000000000000e+00 0.000000000000000000e+00 1.185846126156020475e-20
0.000000000000000000e+00 0.000000000000000000e+00 8.771689372550102375e-06
0.000000000000000000e+00 0.000000000000000000e+00 -7.369186641112412950e-20
0.000000000000000000e+00 0.000000000000000000e+00 9.555376392248307647e-06
-0.000000000000000000e+00 -0.000000000000000000e+00 0.000000000000000000e+00
5.609731346459555018e-06 1.495928359055907483e-05 8.432596157699713470e-06
0.000000000000000000e+00 -0.000000000000000000e+00 9.150962280877345396e-06
-0.000000000000000000e+00 -0.000000000000000000e+00 9.402065714522733764e-20
0.000000000000000000e+00 -0.000000000000000000e+00 8.911104768137165596e-06
0.000000000000000000e+00 0.000000000000000000e+00 9.910285482875313967e-20
5.099223527326361509e-06 1.359792940620352509e-05 7.597024998466163426e-06
-6.728509585652526627e-06 1.009276437847873319e-05 7.943779164558422866e-06
-0.000000000000000000e+00 -0.000000000000000000e+00 3.726944967918921492e-20
-0.000000000000000000e+00 -0.000000000000000000e+00 -5.421010862427522170e-20
-0.000000000000000000e+00 0.000000000000000000e+00 -3.388131789017201356e-20
9.462913629366937908e-06 -1.419437044405061777e-05 1.134664068740535505e-05
-6.914346662702239533e-06 -1.843825776720648031e-05 -8.606574464464953762e-06
0.000000000000000000e+00 0.000000000000000000e+00 1.069197099802859277e-05
0.000000000000000000e+00 0.000000000000000000e+00 -8.771689372550159973e-06
-0.000000000000000000e+00 0.000000000000000000e+00 -3.472835083742631390e-20
0.000000000000000000e+00 -0.000000000000000000e+00 8.725944003981125276e-06
-0.000000000000000000e+00 -0.000000000000000000e+00 -1.804180177651659722e-19
0.000000000000000000e+00 -0.000000000000000000e+00 -8.978549240895583594e-20
-0.000000000000000000e+00 0.000000000000000000e+00 0.000000000000000000e+00
-0.000000000000000000e+00 0.000000000000000000e+00 1.236668102991278495e-19
0.000000000000000000e+00 0.000000000000000000e+00 8.245510062099012594e-06
0.000000000000000000e+00 -0.000000000000000000e+00 8.415516107823683875e-06
0.000000000000000000e+00 0.000000000000000000e+00 -5.759824041329242306e-20
0.000000000000000000e+00 0.000000000000000000e+00 8.635520323832086923e-06
-4.284621668505411197e-05 1.129582076242347248e-04 -6.198537380759392497e-05
0.000000000000000000e+00 -0.000000000000000000e+00 9.607806342653363175e-06
-0.000000000000000000e+00 -0.000000000000000000e+00 9.656175598699023865e-20
0.000000000000000000e+00 0.000000000000000000e+00 9.349890430971470828e-06
0.000000000000000000e+00 0.000000000000000000e+00 7.707999820014133086e-20
0.000000000000000000e+00 -0.000000000000000000e+00 9.102222222222284528e-06
-0.000000000000000000e+00 -0.000000000000000000e+00 1.033380195650246414e-19
-0.000000000000000000e+00 -0.000000000000000000e+00 8.555032767268433425e-20
0.000000000000000000e+00 -0.000000000000000000e+00 8.771689372550100681e-06
0.000000000000000000e+00 0.000000000000000000e+00 -8.470329472543003391e-22
-4.942869751375835930e-06 -1.318098600366896357e-05 -7.364082955793162964e-06
-4.867085914660196851e-06 -1.297889577242739997e-05 -7.229487865751113571e-06
0.000000000000000000e+00 0.000000000000000000e+00 -1.694065894508600678e-20
-0.000000000000000000e+00 0.000000000000000000e+00 -8.502497608672555297e-06
0.000000000000000000e+00 0.000000000000000000e+00 1.081665765278527010e-05
6.914346662702239533e-06 1.843825776720634140e-05 8.575761867928808016e-06
0.000000000000000000e+00 0.000000000000000000e+00 1.063043460206461914e-05
0.000000000000000000e+00 0.000000000000000000e+00 -8.725944003981206591e-06
-0.000000000000000000e+00 0.000000000000000000e+00 1.185846126156020475e-20
0.000000000000000000e+00 0.000000000000000000e+00 -8.771689372550124398e-06
-0.000000000000000000e+00 0.000000000000000000e+00 -8.978549240895583594e-20
0.000000000000000000e+00 0.000000000000000000e+00 -1.431751322692135166e-05
-0.000000000000000000e+00 0.000000000000000000e+00 2.371692252312040949e-19
0.000000000000000000e+00 0.000000000000000000e+00 8.203813491427663590e-06
-0.000000000000000000e+00 0.000000000000000000e+00 -8.287525331986352444e-06
0.000000000000000000e+00 0.000000000000000000e+00 -6.818615225397117729e-20
-0.000000000000000000e+00 0.000000000000000000e+00 0.000000000000000000e+00
0.000000000000000000e+00 0.000000000000000000e+00 8.680555555555448822e-06
0.000000000000000000e+00 0.000000000000000000e+00 0.000000000000000000e+00
0.000000000000000000e+00 0.000000000000000000e+00 9.607806342653473289e-06
0.000000000000000000e+00 0.000000000000000000e+00 -3.642241673193491458e-20
-0.000000000000000000e+00 0.000000000000000000e+00 -8.415516107823843117e-06
0.000000000000000000e+00 0.000000000000000000e+00 0.000000000000000000e+00
0.000000000000000000e+00 0.000000000000000000e+00 0.000000000000000000e+00
-0.000000000000000000e+00 -0.000000000000000000e+00 1.024909866177703410e-19
0.000000000000000000e+00 0.000000000000000000e+00 1.024909866177703410e-19
-5.139339674152281062e-06 -1.370490579773935857e-05 -7.656791621490732877e-06
0.000000000000000000e+00 0.000000000000000000e+00 -1.694065894508600678e-21
4.942869751375890987e-06 1.318098600366895002e-05 7.342055906990233508e-06
0.000000000000000000e+00 -0.000000000000000000e+00 8.415516107823880386e-06
-4.756287933462934689e-06 -1.268343448923433213e-05 -7.043714821962497386e-06
6.795930164549515338e-06 1.812248043879848621e-05 -4.417596886107244824e-05
0.000000000000000000e+00 -0.000000000000000000e+00 -1.081665765278541917e-05
0.000000000000000000e+00 0.000000000000000000e+00 1.069197099802865715e-05
-0.000000000000000000e+00 0.000000000000000000e+00 -8.958315836622725612e-06
-0.000000000000000000e+00 0.000000000000000000e+00 -8.725944003981240472e-06
0.000000000000000000e+00 -0.000000000000000000e+00 0.000000000000000000e+00
0.000000000000000000e+00 0.000000000000000000e+00 8.817795413368522724e-06
-0.000000000000000000e+00 0.000000000000000000e+00 -1.451099094196718004e-05
4.948927477017371450e-04 1.736465781409721187e-05 -9.563562076330228115e-05
0.000000000000000000e+00 -0.000000000000000000e+00 1.412787938322986202e-05
0.000000000000000000e+00 -0.000000000000000000e+00 8.245510062098934667e-06
-0.000000000000000000e+00 0.000000000000000000e+00 -8.329862557267779391e-06
-0.000000000000000000e+00 -0.000000000000000000e+00 -8.502497608672567156e-06
0.000000000000000000e+00 -0.000000000000000000e+00 1.160435137738391465e-19
0.000000000000000000e+00 -0.000000000000000000e+00 8.771689372550102375e-06
0.000000000000000000e+00 0.000000000000000000e+00 -9.660669001328250034e-06
-0.000000000000000000e+00 -0.000000000000000000e+00 -9.555376392248222944e-06
0.000000000000000000e+00 0.000000000000000000e+00 -9.400636011780142456e-06
7.459535231313663828e-06 -1.118930284697049574e-05 -7.859438122725196247e-06
0.000000000000000000e+00 0.000000000000000000e+00 -9.150962280877326761e-06
0.000000000000000000e+00 0.000000000000000000e+00 1.033380195650246414e-19
0.000000000000000000e+00 -0.000000000000000000e+00 8.911104768137246911e-06
0.000000000000000000e+00 0.000000000000000000e+00 -4.235164736271501695e-21
0.000000000000000000e+00 -0.000000000000000000e+00 8.680555555555594512e-06
-4.981352186552836649e-06 -1.328360583080759715e-05 -7.421415610553800605e-06
0.000000000000000000e+00 0.000000000000000000e+00 7.369186641112412950e-20
-0.000000000000000000e+00 -0.000000000000000000e+00 1.372193374551966549e-19
1.115477246799381834e-05 3.187077847998241616e-06 7.500711020876766117e-06
7.097185222025237736e-06 1.892582725873415703e-05 8.865788598209019175e-06
6.914346662702239533e-06 1.843825776720648031e-05 8.606574464464965621e-06
0.000000000000000000e+00 -0.000000000000000000e+00 1.063043460206452936e-05
0.000000000000000000e+00 0.000000000000000000e+00 -8.817795413368742952e-06
0.000000000000000000e+00 -0.000000000000000000e+00 1.151964808265848461e-19
0.000000000000000000e+00 0.000000000000000000e+00 8.680555555555447128e-06
0.000000000000000000e+00 0.000000000000000000e+00 -1.460920379839298881e-05
-0.000000000000000000e+00 0.000000000000000000e+00 2.964615315390051187e-20
-7.824814726520149845e-04 -2.474249715895519982e-05 1.506166436346749178e-04
0.000000000000000000e+00 -0.000000000000000000e+00 8.203813491427517900e-06
-0.000000000000000000e+00 0.000000000000000000e+00 -8.245510062098968548e-06
-0.000000000000000000e+00 -0.000000000000000000e+00 -1.702536223981143682e-19
-0.000000000000000000e+00 -0.000000000000000000e+00 1.956646108157433783e-19
0.000000000000000000e+00 -0.000000000000000000e+00 -6.945670167485262780e-20
1.205474161539947921e-05 3.444211890114184834e-06 -7.641730017157079692e-06
0.000000000000000000e+00 -0.000000000000000000e+00 9.607806342653290330e-06
0.000000000000000000e+00 0.000000000000000000e+00 9.656175598699023865e-20
0.000000000000000000e+00 -0.000000000000000000e+00 9.349890430971518262e-06
-0.000000000000000000e+00 -0.000000000000000000e+00 -1.863472483959460746e-20
0.000000000000000000e+00 0.000000000000000000e+00 9.150962280877369113e-06
-0.000000000000000000e+00 -0.000000000000000000e+00 0.000000000000000000e+00
-0.000000000000000000e+00 0.000000000000000000e+00 -8.911104768137165596e-06
-0.000000000000000000e+00 -0.000000000000000000e+00 -6.776263578034402713e-21
0.000000000000000000e+00 0.000000000000000000e+00 0.000000000000000000e+00
0.000000000000000000e+00 0.000000000000000000e+00 -4.235164736271501695e-21
-0.000000000000000000e+00 -0.000000000000000000e+00 1.363723045079423546e-19
-0.000000000000000000e+00 -0.000000000000000000e+00 0.000000000000000000e+00
-0.000000000000000000e+00 0.000000000000000000e+00 -8.415516107823727920e-06
-6.914346662702378447e-06 -1.843825776720634140e-05 -8.668199657537101259e-06
0.000000000000000000e+00 -0.000000000000000000e+00 1.063043460206461745e-05
0.000000000000000000e+00 -0.000000000000000000e+00 1.063043460206446498e-05
-0.000000000000000000e+00 0.000000000000000000e+00 0.000000000000000000e+00
0.000000000000000000e+00 -0.000000000000000000e+00 -2.286988957586610915e-20
0.000000000000000000e+00 0.000000000000000000e+00 8.725944003981171015e-06
0.000000000000000000e+00 0.000000000000000000e+00 -1.451099094196747989e-05
0.000000000000000000e+00 0.000000000000000000e+00 1.441376514571408525e-05
-0.000000000000000000e+00 0.000000000000000000e+00 2.964615315390051187e-20
-0.000000000000000000e+00 0.000000000000000000e+00 -8.203813491427663590e-06
0.000000000000000000e+00 -0.000000000000000000e+00 8.287525331986577754e-06
-0.000000000000000000e+00 0.000000000000000000e+00 -8.415516107823705898e-06
0.000000000000000000e+00 -0.000000000000000000e+00 8.680555555555494562e-06
0.000000000000000000e+00 -0.000000000000000000e+00 8.680555555555540301e-06
0.000000000000000000e+00 0.000000000000000000e+00 -3.642241673193491458e-20
0.000000000000000000e+00 0.000000000000000000e+00 9.607806342653388586e-06
-0.000000000000000000e+00 -0.000000000000000000e+00 -3.642241673193491458e-20
-1.780022275968493745e-05 6.472808276248992160e-06 -1.025092070059446773e-05
0.000000000000000000e+00 0.000000000000000000e+00 -9.200094875978336983e-06
-0.000000000000000000e+00 0.000000000000000000e+00 -9.102222222222282834e-06
0.000000000000000000e+00 0.000000000000000000e+00 1.024909866177703410e-19
0.000000000000000000e+00 0.000000000000000000e+00 -4.235164736271501695e-21
0.000000000000000000e+00 0.000000000000000000e+00 8.771689372550105763e-06
-0.000000000000000000e+00 -0.000000000000000000e+00 -8.470329472543003391e-22
0.000000000000000000e+00 -0.000000000000000000e+00 8.502497608672463818e-06
0.000000000000000000e+00 0.000000000000000000e+00 1.194316455628563478e-19
0.000000000000000000e+00 0.000000000000000000e+00 9.063252535621013628e-20
-1.153336275321039395e-05 -3.295246500917279010e-06 9.491895870155560321e-06
0.000000000000000000e+00 -0.000000000000000000e+00 1.063043460206459204e-05
0.000000000000000000e+00 -0.000000000000000000e+00 1.063043460206459204e-05
3.356790854091172609e-05 -3.729767615656952193e-06 -1.234313737406011888e-05
-0.000000000000000000e+00 0.000000000000000000e+00 -6.945670167485262780e-20
0.000000000000000000e+00 -0.000000000000000000e+00 -6.945670167485262780e-20
0.000000000000000000e+00 0.000000000000000000e+00 8.771689372550112539e-06
0.000000000000000000e+00 -0.000000000000000000e+00 -5.929230630780102373e-20
0.000000000000000000e+00 0.000000000000000000e+00 1.431751322692143976e-05
0.000000000000000000e+00 0.000000000000000000e+00 1.422222222222237442e-05
0.000000000000000000e+00 -0.000000000000000000e+00 8.245510062099046475e-06
0.000000000000000000e+00 0.000000000000000000e+00 -8.329862557267801414e-06
0.000000000000000000e+00 0.000000000000000000e+00 -8.502497608672451959e-06
-0.000000000000000000e+00 0.000000000000000000e+00 -8.680555555555564018e-06
-5.065257024580716028e-19 9.266540442962045709e-19 -2.066760391300492827e-19
0.000000000000000000e+00 -0.000000000000000000e+00 9.660669001328297468e-06
-0.000000000000000000e+00 -0.000000000000000000e+00 0.000000000000000000e+00
0.000000000000000000e+00 -0.000000000000000000e+00 9.400636011780069611e-06
-1.784598168708767814e-05 6.489447886213686434e-06 6.662094962330862360e-06
0.000000000000000000e+00 -0.000000000000000000e+00 9.150962280877369113e-06
-0.000000000000000000e+00 -0.000000000000000000e+00 9.486769009248163798e-20
0.000000000000000000e+00 -0.000000000000000000e+00 8.911104768137258770e-06
-0.000000000000000000e+00 -0.000000000000000000e+00 9.317362419797303730e-20
0.000000000000000000e+00 -0.000000000000000000e+00 8.680555555555501338e-06
0.000000000000000000e+00 0.000000000000000000e+00 0.000000000000000000e+00
-0.000000000000000000e+00 -0.000000000000000000e+00 7.369186641112412950e-20
0.000000000000000000e+00 0.000000000000000000e+00 8.415516107823902409e-06
0.000000000000000000e+00 0.000000000000000000e+00 8.287525331986577754e-06
0.000000000000000000e+00 0.000000000000000000e+00 -1.069197099802850299e-05
0.000000000000000000e+00 -0.000000000000000000e+00 1.063043460206461745e-05
0.000000000000000000e+00 -0.000000000000000000e+00 1.063043460206470893e-05
0.000000000000000000e+00 0.000000000000000000e+00 -8.864265927977789159e-06
0.000000000000000000e+00 0.000000000000000000e+00 -8.680555555555564018e-06
-0.000000000000000000e+00 0.000000000000000000e+00 1.151964808265848461e-19
0.000000000000000000e+00 0.000000000000000000e+00 8.864265927977834898e-06
0.000000000000000000e+00 -0.000000000000000000e+00 1.441376514571429362e-05
-1.385842818930301146e-05 -3.959550911229538814e-06 2.697576396206658829e-06
-0.000000000000000000e+00 0.000000000000000000e+00 -1.412787938322977393e-05
0.000000000000000000e+00 -0.000000000000000000e+00 -3.388131789017201356e-20
0.000000000000000000e+00 -0.000000000000000000e+00 8.372525035812104020e-06
-0.000000000000000000e+00 -0.000000000000000000e+00 1.833826330805560234e-19
-0.000000000000000000e+00 0.000000000000000000e+00 1.617832929255713648e-19
0.000000000000000000e+00 0.000000000000000000e+00 8.771689372550102375e-06
0.000000000000000000e+00 -0.000000000000000000e+00 9.607806342653327599e-06
-0.000000000000000000e+00 -0.000000000000000000e+00 -3.642241673193491458e-20
0.000000000000000000e+00 -0.000000000000000000e+00 9.349890430971562308e-06
0.000000000000000000e+00 0.000000000000000000e+00 9.249624234015429503e-06
0.000000000000000000e+00 -0.000000000000000000e+00 9.102222222222230318e-06
-0.000000000000000000e+00 -0.000000000000000000e+00 0.000000000000000000e+00
0.000000000000000000e+00 0.000000000000000000e+00 8.911104768137165596e-06
0.000000000000000000e+00 0.000000000000000000e+00 8.385626177817573357e-20
0.000000000000000000e+00 0.000000000000000000e+00 8.680555555555592817e-06
-0.000000000000000000e+00 -0.000000000000000000e+00 9.232659125071873696e-20
0.000000000000000000e+00 0.000000000000000000e+00 9.063252535621013628e-20
4.792843413358006014e-06 1.278091576895464713e-05 7.097850816074203199e-06
-9.181837148236615676e-19 -3.676122991083663472e-19 3.388131789017201356e-21
-0.000000000000000000e+00 -0.000000000000000000e+00 -1.219727444046192488e-19
0.000000000000000000e+00 -0.000000000000000000e+00 1.063043460206461745e-05
-0.000000000000000000e+00 0.000000000000000000e+00 -1.063043460206452936e-05
-0.000000000000000000e+00 0.000000000000000000e+00 -8.817795413368790386e-06
0.000000000000000000e+00 -0.000000000000000000e+00 -6.945670167485262780e-20
0.000000000000000000e+00 0.000000000000000000e+00 -8.725944003981148992e-06
0.000000000000000000e+00 0.000000000000000000e+00 1.460920379839298881e-05
0.000000000000000000e+00 -0.000000000000000000e+00 1.482307657695025593e-19
0.000000000000000000e+00 0.000000000000000000e+00 -1.422222222222213895e-05
-0.000000000000000000e+00 0.000000000000000000e+00 1.575481281892998631e-19
0.000000000000000000e+00 -0.000000000000000000e+00 8.287525331986487969e-06
0.000000000000000000e+00 0.000000000000000000e+00 -8.415516107823785519e-06
-0.000000000000000000e+00 -0.000000000000000000e+00 2.329340604949325932e-20
-0.000000000000000000e+00 0.000000000000000000e+00 -6.945670167485262780e-20
0.000000000000000000e+00 0.000000000000000000e+00 -9.713969142969895666e-06
0.000000000000000000e+00 0.000000000000000000e+00 9.607806342653337764e-06
0.000000000000000000e+00 0.000000000000000000e+00 9.451795841209769747e-06
-0.000000000000000000e+00 0.000000000000000000e+00 -9.349890430971423395e-06
0.000000000000000000e+00 -0.000000000000000000e+00 9.200094875978353923e-06
0.000000000000000000e+00 0.000000000000000000e+00 9.102222222222284528e-06
0.000000000000000000e+00 0.000000000000000000e+00 -8.958315836622769658e-06
-0.000000000000000000e+00 -0.000000000000000000e+00 8.470329472543003391e-20
0.000000000000000000e+00 -0.000000000000000000e+00 8.725944003981182874e-06
-0.000000000000000000e+00 -0.000000000000000000e+00 0.000000000000000000e+00
0.000000000000000000e+00 0.000000000000000000e+00 -8.502497608672463818e-06
-0.000000000000000000e+00 -0.000000000000000000e+00 9.147955830346443662e-20
-0.000000000000000000e+00 -0.000000000000000000e+00 7.369186641112412950e-20
0.000000000000000000e+00 -0.000000000000000000e+00 -8.502497608672555297e-06
0.000000000000000000e+00 0.000000000000000000e+00 -1.063043460206463778e-05
