ply
            format ascii 1.0
            element vertex 30658
            property float x
            property float y
            property float z
            property float nx
            property float ny
            property float nz
end_header
-0.14404312668464 0.16905660377358 1.61293800539084 -0.00000000000000 0.00000000000000 1.00000000000000
-0.12149732620321 0.16770053475936 1.60000000000000 0.00000000000000 -0.00000000000000 -1.00000000000000
-0.09674418604651 0.16206718346253 1.54625322997416 -0.00000000000000 0.00000000000000 -1.00000000000000
-0.07767810026385 0.16548812664908 1.57889182058047 -0.00000000000000 0.00000000000000 -1.00000000000000
-0.05612565445026 0.16418848167539 1.56649214659686 nan nan nan
-0.03490909090909 0.16290909090909 1.55428571428571 0.00000000000000 0.00000000000000 -1.00000000000000
-0.01405684754522 0.16206718346253 1.54625322997416 0.00000000000000 0.00000000000000 1.00000000000000
0.00656410256410 0.16082051282051 1.53435897435897 0.00000000000000 0.00000000000000 1.00000000000000
0.02687022900763 0.15959287531807 1.52264631043257 0.00000000000000 -0.00000000000000 1.00000000000000
0.04698734177215 0.15878481012658 1.51493670886076 -0.00000000000000 0.00000000000000 -1.00000000000000
0.06673366834171 0.15758793969849 1.50351758793970 0.00000000000000 -0.00000000000000 -1.00000000000000
0.08884318766067 0.16123393316195 1.53830334190231 nan nan nan
0.11955056179775 0.17617977528090 1.68089887640449 0.00000000000000 0.00000000000000 1.00000000000000
0.14162464985994 0.17568627450980 1.67619047619048 0.00000000000000 0.00000000000000 -1.00000000000000
0.16357541899441 0.17519553072626 1.67150837988827 0.00000000000000 -0.00000000000000 1.00000000000000
0.17469816272966 0.16461942257218 1.57060367454068 -0.00000000000000 0.00000000000000 -1.00000000000000
0.19467362924282 0.16375979112272 1.56240208877285 0.00000000000000 0.00000000000000 1.00000000000000
0.21612565445026 0.16418848167539 1.56649214659686 -0.00000000000000 0.00000000000000 -1.00000000000000
0.25438202247191 0.17617977528090 1.68089887640449 0.00000000000000 0.00000000000000 1.00000000000000
0.27226519337017 0.17325966850829 1.65303867403315 -0.00000000000000 -0.00000000000000 -1.00000000000000
0.35401993355482 0.20837209302326 1.98803986710963 0.00000000000000 0.00000000000000 -1.00000000000000
-0.27346938775510 0.16040816326531 1.52653061224490 -0.00000000000000 0.00000000000000 1.00000000000000
-0.25435897435897 0.16123076923077 1.53435897435897 0.00000000000000 -0.00000000000000 1.00000000000000
-0.23626943005181 0.16290155440415 1.55025906735751 0.00000000000000 0.00000000000000 -1.00000000000000
-0.21837270341207 0.16503937007874 1.57060367454068 0.54733907641595 -0.82100861462393 0.16237238109184
-0.20716253443526 0.17322314049587 1.64848484848485 -0.00000000000000 0.00000000000000 -1.00000000000000
-0.18360655737705 0.17180327868852 1.63497267759563 -0.00000000000000 0.00000000000000 -1.00000000000000
-0.16043360433604 0.17040650406504 1.62168021680217 0.00000000000000 -0.00000000000000 1.00000000000000
-0.13763440860215 0.16903225806452 1.60860215053763 0.00000000000000 0.00000000000000 -1.00000000000000
-0.11550802139037 0.16812834224599 1.60000000000000 -0.00000000000000 0.00000000000000 -1.00000000000000
-0.09336870026525 0.16679045092838 1.58726790450928 -0.00000000000000 0.00000000000000 -1.00000000000000
-0.07157894736842 0.16547368421053 1.57473684210526 -0.00000000000000 0.00000000000000 1.00000000000000
-0.05013054830287 0.16417754569191 1.56240208877285 0.00000000000000 -0.00000000000000 1.00000000000000
-0.02901554404145 0.16290155440415 1.55025906735751 0.00000000000000 0.00000000000000 -1.00000000000000
-0.00824742268041 0.16206185567010 1.54226804123711 0.00000000000000 -0.00000000000000 -1.00000000000000
0.01227621483376 0.16081841432225 1.53043478260870 0.00000000000000 0.00000000000000 -1.00000000000000
0.03248730964467 0.15959390862944 1.51878172588832 0.00000000000000 0.00000000000000 -1.00000000000000
0.05252525252525 0.15878787878788 1.51111111111111 0.00000000000000 -0.00000000000000 -1.00000000000000
0.07254408060453 0.15838790931990 1.50730478589421 0.95882068775400 0.27394876792971 -0.07493304534548
0.09533678756477 0.16290155440415 1.55025906735751 0.95782250305667 0.27366357230190 -0.08766014963040
0.12584269662921 0.17662921348315 1.68089887640449 0.00000000000000 0.00000000000000 1.00000000000000
0.14789915966387 0.17613445378151 1.67619047619048 nan nan nan
0.17078651685393 0.17662921348315 1.68089887640449 0.28885329620422 0.77027545654458 -0.56854155021159
0.18010471204188 0.16460732984293 1.56649214659686 0.00000000000000 0.00000000000000 1.00000000000000
0.20052219321149 0.16417754569191 1.56240208877285 0.00000000000000 0.00000000000000 1.00000000000000
0.22315789473684 0.16547368421053 1.57473684210526 0.94867725326493 0.27105064378999 -0.16292028001065
0.25994397759104 0.17613445378151 1.67619047619048 -0.00000000000000 -0.00000000000000 -1.00000000000000
0.27692307692308 0.17274725274725 1.64395604395604 -0.86764556556270 -0.24789873301790 -0.43097261018247
0.36146179401993 0.20890365448505 1.98803986710963 0.00000000000000 -0.00000000000000 1.00000000000000
-0.26843989769821 0.16122762148338 1.53043478260870 0.00000000000000 0.00000000000000 -1.00000000000000
-0.24925449871465 0.16205655526992 1.53830334190231 0.00000000000000 0.00000000000000 -1.00000000000000
-0.23106493506494 0.16374025974026 1.55428571428571 0.00000000000000 0.00000000000000 1.00000000000000
-0.21305263157895 0.16589473684211 1.57473684210526 0.70832261064810 -0.61715237363399 0.34263979185523
-0.20043956043956 0.17318681318681 1.64395604395604 0.00000000000000 -0.00000000000000 -1.00000000000000
-0.17700272479564 0.17177111716621 1.63051771117166 -0.00000000000000 0.00000000000000 1.00000000000000
-0.15394594594595 0.17037837837838 1.61729729729730 0.00000000000000 0.00000000000000 -1.00000000000000
-0.13161290322581 0.16946236559140 1.60860215053763 -0.00000000000000 0.00000000000000 -1.00000000000000
-0.10922666666667 0.16810666666667 1.59573333333333 -0.00000000000000 0.00000000000000 -1.00000000000000
-0.08719576719577 0.16677248677249 1.58306878306878 -0.00000000000000 0.00000000000000 1.00000000000000
-0.06551181102362 0.16545931758530 1.57060367454068 0.00000000000000 -0.00000000000000 1.00000000000000
-0.04416666666667 0.16416666666667 1.55833333333333 0.00000000000000 0.00000000000000 -1.00000000000000
-0.02321243523316 0.16331606217617 1.55025906735751 -0.00000000000000 0.00000000000000 -1.00000000000000
-0.00246786632391 0.16205655526992 1.53830334190231 0.00000000000000 -0.00000000000000 1.00000000000000
0.01795918367347 0.16081632653061 1.52653061224490 0.00000000000000 0.00000000000000 -1.00000000000000
0.03817258883249 0.16000000000000 1.51878172588832 -0.00000000000000 0.00000000000000 -1.00000000000000
0.05803526448363 0.15879093198992 1.50730478589421 0.00000000000000 -0.00000000000000 -1.00000000000000
0.07878172588832 0.16000000000000 1.51878172588832 0.95855123595921 0.27387178170263 -0.07857337480399
0.10193211488251 0.16459530026110 1.56240208877285 0.95750905971091 0.27357401706026 -0.09128886986396
0.13176470588235 0.17658263305322 1.67619047619048 0.00000000000000 -0.00000000000000 1.00000000000000
0.15417366946779 0.17658263305322 1.67619047619048 0.00000000000000 -0.00000000000000 1.00000000000000
0.16677248677249 0.16677248677249 1.58306878306878 -0.83753463685815 -0.23929561053090 -0.49119582942399
0.18548302872063 0.16459530026110 1.56240208877285 0.00000000000000 -0.00000000000000 1.00000000000000
0.20637075718016 0.16459530026110 1.56240208877285 -0.00000000000000 0.00000000000000 1.00000000000000
0.24380952380952 0.17658263305322 1.67619047619048 0.00000000000000 0.00000000000000 1.00000000000000
0.26473537604457 0.17559888579387 1.66685236768802 0.86764556556269 0.24789873301792 0.43097261018248
0.28230136986301 0.17271232876712 1.63945205479452 -0.00000000000000 0.00000000000000 -1.00000000000000
-0.28244897959184 0.16122448979592 1.52653061224490 0.00000000000000 0.00000000000000 -1.00000000000000
-0.26271099744246 0.16163682864450 1.53043478260870 -0.00000000000000 0.00000000000000 -1.00000000000000
-0.24412371134021 0.16288659793814 1.54226804123711 0.82837445473277 0.23667841563794 -0.50771949964257
-0.22583333333333 0.16458333333333 1.55833333333333 0.00000000000000 0.00000000000000 1.00000000000000
-0.20770448548813 0.16675461741425 1.57889182058047 0.54766085389467 -0.82149128084201 0.15880700429111
-0.19375342465753 0.17315068493151 1.63945205479452 -0.00000000000000 0.00000000000000 -1.00000000000000
-0.17043478260870 0.17173913043478 1.62608695652174 0.00000000000000 -0.00000000000000 1.00000000000000
-0.14789189189189 0.17081081081081 1.61729729729730 -0.00000000000000 0.00000000000000 -1.00000000000000
-0.12525469168901 0.16943699731903 1.60428954423592 -0.00000000000000 0.00000000000000 -1.00000000000000
-0.09928205128205 0.16205128205128 1.53435897435897 0.00000000000000 -0.00000000000000 -1.00000000000000
-0.08105540897098 0.16675461741425 1.57889182058047 0.00000000000000 -0.00000000000000 1.00000000000000
-0.05963254593176 0.16587926509186 1.57060367454068 -0.00000000000000 0.00000000000000 -1.00000000000000
-0.03833333333333 0.16458333333333 1.55833333333333 -0.00000000000000 0.00000000000000 -1.00000000000000
-0.01736434108527 0.16330749354005 1.54625322997416 nan nan nan
0.00328205128205 0.16205128205128 1.53435897435897 0.00000000000000 -0.00000000000000 1.00000000000000
0.02367346938776 0.16122448979592 1.52653061224490 -0.00000000000000 0.00000000000000 -1.00000000000000
0.04374683544304 0.16000000000000 1.51493670886076 0.00000000000000 -0.00000000000000 1.00000000000000
0.06351758793970 0.15879396984925 1.50351758793970 0.00000000000000 -0.00000000000000 1.00000000000000
0.08511508951407 0.16163682864450 1.53043478260870 0.95826917218071 0.27379119205163 -0.08221056381658
0.11403314917127 0.17458563535912 1.65303867403315 0.98687852321671 0.06167990770104 -0.14921919916552
0.13803921568627 0.17703081232493 1.67619047619048 0.00000000000000 0.00000000000000 -1.00000000000000
0.16000000000000 0.17653631284916 1.67150837988827 0.32283868672832 0.86090316460883 0.39321867137514
0.17178947368421 0.16631578947368 1.57473684210526 -0.00000000000000 0.00000000000000 -1.00000000000000
0.19133159268930 0.16501305483029 1.56240208877285 0.00000000000000 0.00000000000000 1.00000000000000
0.21277486910995 0.16544502617801 1.56649214659686 0.00000000000000 -0.00000000000000 1.00000000000000
0.25008403361345 0.17703081232493 1.67619047619048 0.55469293464030 -0.83203940196047 0.00511681985162
0.26947368421053 0.17506925207756 1.65761772853186 0.86764556556269 0.24789873301792 0.43097261018248
0.35093333333333 0.21066666666667 1.99466666666667 0.00000000000000 0.00000000000000 1.00000000000000
-0.27673469387755 0.16163265306122 1.52653061224490 0.00000000000000 -0.00000000000000 1.00000000000000
-0.25764102564103 0.16246153846154 1.53435897435897 0.00000000000000 0.00000000000000 -1.00000000000000
-0.23896640826873 0.16372093023256 1.54625322997416 0.00000000000000 0.00000000000000 1.00000000000000
-0.22057441253264 0.16543080939948 1.56240208877285 -0.06913382162755 0.96787350278563 0.24174655594785
-0.20614555256065 0.17078167115903 1.61293800539084 0.92852052672564 -0.33764382790023 0.15442239776025
-0.18710382513661 0.17311475409836 1.63497267759563 0.00000000000000 0.00000000000000 -1.00000000000000
-0.16434782608696 0.17217391304348 1.62608695652174 -0.00000000000000 0.00000000000000 -1.00000000000000
-0.14145552560647 0.17078167115903 1.61293800539084 -0.00000000000000 0.00000000000000 -1.00000000000000
-0.11893048128342 0.16941176470588 1.60000000000000 -0.00000000000000 0.00000000000000 -1.00000000000000
-0.09676392572944 0.16806366047745 1.58726790450928 0.00000000000000 0.00000000000000 -1.00000000000000
-0.07494736842105 0.16673684210526 1.57473684210526 0.00000000000000 0.00000000000000 -1.00000000000000
-0.05361256544503 0.16586387434555 1.56649214659686 -0.00000000000000 0.00000000000000 -1.00000000000000
-0.03241558441558 0.16457142857143 1.55428571428571 -0.00000000000000 0.00000000000000 1.00000000000000
-0.01154639175258 0.16329896907216 1.54226804123711 0.00000000000000 0.00000000000000 -1.00000000000000
0.00900255754476 0.16204603580563 1.53043478260870 0.00000000000000 0.00000000000000 -1.00000000000000
0.02931297709924 0.16122137404580 1.52264631043257 -0.00000000000000 0.00000000000000 -1.00000000000000
0.04929292929293 0.16000000000000 1.51111111111111 0.00000000000000 -0.00000000000000 1.00000000000000
0.06914572864322 0.15919597989950 1.50351758793970 0.00000000000000 0.00000000000000 1.00000000000000
0.09178294573643 0.16372093023256 1.54625322997416 0.00000000000000 0.00000000000000 -1.00000000000000
0.12190476190476 0.17747899159664 1.67619047619048 -0.32210531029274 -0.85894749411398 -0.39806704389654
0.14431372549020 0.17747899159664 1.67619047619048 0.00000000000000 0.00000000000000 1.00000000000000
0.16625698324022 0.17698324022346 1.67150837988827 0.00000000000000 -0.00000000000000 1.00000000000000
0.17675392670157 0.16586387434555 1.56649214659686 0.00000000000000 0.00000000000000 -1.00000000000000
0.18974874371859 0.15919597989950 1.50351758793970 0.47979544854341 0.72796550813483 -0.48975764059689
0.21921259842520 0.16629921259843 1.57060367454068 0.00000000000000 0.00000000000000 -1.00000000000000
0.25635854341737 0.17747899159664 1.67619047619048 0.32535929886042 0.86762479696113 0.37599007745314
0.27415977961433 0.17454545454545 1.64848484848485 -0.00000000000000 -0.00000000000000 1.00000000000000
0.35720930232558 0.21049833887043 1.98803986710963 -0.00000000000000 0.00000000000000 1.00000000000000
-0.27102040816327 0.16204081632653 1.52653061224490 0.00000000000000 -0.00000000000000 1.00000000000000
-0.25189743589744 0.16287179487179 1.53435897435897 nan nan nan
-0.23378238341969 0.16455958549223 1.55025906735751 -0.48733792844541 0.73100689266813 0.47763026115419
-0.21472584856397 0.16584856396867 1.56240208877285 -0.06913382162754 0.96787350278562 0.24174655594788
-0.20395604395604 0.17450549450549 1.64395604395604 0.00000000000000 0.00000000000000 -1.00000000000000
-0.18098360655738 0.17355191256831 1.63497267759563 -0.00000000000000 0.00000000000000 -1.00000000000000
-0.15783197831978 0.17214092140921 1.62168021680217 -0.00000000000000 0.00000000000000 1.00000000000000
-0.13505376344086 0.17075268817204 1.60860215053763 -0.00000000000000 0.00000000000000 -1.00000000000000
-0.11264000000000 0.16938666666667 1.59573333333333 0.00000000000000 0.00000000000000 -1.00000000000000
-0.09058201058201 0.16804232804233 1.58306878306878 0.00000000000000 0.00000000000000 -1.00000000000000
-0.06905263157895 0.16715789473684 1.57473684210526 0.00000000000000 0.00000000000000 1.00000000000000
-0.04762402088773 0.16584856396867 1.56240208877285 0.00000000000000 -0.00000000000000 -1.00000000000000
-0.02652849740933 0.16455958549223 1.55025906735751 -0.00000000000000 0.00000000000000 -1.00000000000000
-0.00577319587629 0.16371134020619 1.54226804123711 -0.00000000000000 0.00000000000000 -1.00000000000000
0.01473145780051 0.16245524296675 1.53043478260870 0.00000000000000 0.00000000000000 1.00000000000000
0.03492385786802 0.16121827411168 1.51878172588832 0.00000000000000 -0.00000000000000 -1.00000000000000
0.05494949494949 0.16040404040404 1.51111111111111 -0.00000000000000 0.00000000000000 -1.00000000000000
0.07515151515152 0.16040404040404 1.51111111111111 0.95868754040122 0.27391072582892 -0.07675359376168
0.09807792207792 0.16498701298701 1.55428571428571 0.95766734473248 0.27361924135214 -0.08947495512665
0.12817927170868 0.17792717086835 1.67619047619048 0.32228918295440 0.85943782121174 0.39685805273600
0.15058823529412 0.17792717086835 1.67619047619048 0.00000000000000 0.00000000000000 1.00000000000000
0.16967032967033 0.17450549450549 1.64395604395604 0.99940261560561 0.01514246387281 -0.03106634366206
0.18214099216710 0.16584856396867 1.56240208877285 0.00000000000000 0.00000000000000 -1.00000000000000
0.19836734693878 0.16204081632653 1.52653061224490 0.16297675724979 0.97786054349875 0.13125293926107
0.22808510638298 0.16893617021277 1.59148936170213 -0.94839578633440 -0.27097022466697 0.16468324082033
0.26189944134078 0.17743016759777 1.67150837988827 0.00000000000000 0.00000000000000 -1.00000000000000
0.27879452054795 0.17402739726027 1.63945205479452 -0.00000000000000 -0.00000000000000 1.00000000000000
0.36465116279070 0.21102990033223 1.98803986710963 0.00000000000000 0.00000000000000 1.00000000000000
-0.26598465473146 0.16286445012788 1.53043478260870 -0.00000000000000 0.00000000000000 1.00000000000000
-0.24678663239075 0.16370179948586 1.53830334190231 0.00000000000000 0.00000000000000 1.00000000000000
-0.22797927461140 0.16497409326425 1.55025906735751 -0.59702453007797 0.77127570871317 -0.22067054999293
-0.20997375328084 0.16713910761155 1.57060367454068 -0.48733792844541 0.73100689266813 0.47763026115419
-0.19780219780220 0.17494505494505 1.64395604395604 -0.00000000000000 0.00000000000000 -1.00000000000000
-0.17438692098093 0.17351498637602 1.63051771117166 -0.00000000000000 0.00000000000000 -1.00000000000000
-0.15135135135135 0.17210810810811 1.61729729729730 -0.00000000000000 0.00000000000000 -1.00000000000000
-0.12868632707775 0.17072386058981 1.60428954423592 0.00000000000000 0.00000000000000 -1.00000000000000
-0.10335917312661 0.16454780361757 1.54625322997416 0.00000000000000 0.00000000000000 -1.00000000000000
-0.08465608465608 0.16846560846561 1.58306878306878 0.00000000000000 0.00000000000000 1.00000000000000
-0.06299212598425 0.16713910761155 1.57060367454068 0.00000000000000 -0.00000000000000 1.00000000000000
-0.04166666666667 0.16583333333333 1.55833333333333 -0.00000000000000 0.00000000000000 -1.00000000000000
-0.02067183462532 0.16454780361757 1.54625322997416 0.00000000000000 0.00000000000000 -1.00000000000000
0.00000000000000 0.16370179948586 1.53830334190231 -0.00000000000000 0.00000000000000 -1.00000000000000
0.02040816326531 0.16244897959184 1.52653061224490 -0.00000000000000 0.00000000000000 1.00000000000000
0.04050632911392 0.16121518987342 1.51493670886076 0.00000000000000 -0.00000000000000 1.00000000000000
0.06045340050378 0.16040302267003 1.50730478589421 0.00000000000000 0.00000000000000 1.00000000000000
0.08142493638677 0.16203562340967 1.52264631043257 0.95841177849854 0.27383193671386 -0.08039237072510
0.10471204188482 0.16670157068063 1.56649214659686 0.00000000000000 0.00000000000000 1.00000000000000
0.13445378151261 0.17837535014006 1.67619047619048 0.00000000000000 0.00000000000000 1.00000000000000
0.15686274509804 0.17837535014006 1.67619047619048 0.00000000000000 0.00000000000000 1.00000000000000
0.16886543535620 0.16802110817942 1.57889182058047 -0.83753463685816 -0.23929561053090 -0.49119582942397
0.18798955613577 0.16626631853786 1.56240208877285 0.00000000000000 0.00000000000000 1.00000000000000
0.20887728459530 0.16626631853786 1.56240208877285 0.00000000000000 0.00000000000000 1.00000000000000
0.24581005586592 0.17787709497207 1.67150837988827 -0.73368522868008 -0.50440859471756 -0.45527788743987
0.26666666666667 0.17688888888889 1.66222222222222 0.00000000000000 0.00000000000000 -1.00000000000000
0.29131652661064 0.17837535014006 1.67619047619048 0.55468305928146 -0.83202458892219 -0.00786048185613
-0.28000000000000 0.16285714285714 1.52653061224490 0.00000000000000 -0.00000000000000 -1.00000000000000
-0.26025575447570 0.16327365728900 1.53043478260870 0.00000000000000 0.00000000000000 1.00000000000000
-0.24102827763496 0.16411311053985 1.53830334190231 -0.48695859315355 0.73043788973032 0.47888601754512
-0.22275324675325 0.16581818181818 1.55428571428571 0.62197700442391 -0.74324296126127 0.24644371873400
-0.20571428571429 0.16888888888889 1.58306878306878 0.64456304397896 -0.76012215544930 0.08217536815668
-0.19112328767123 0.17490410958904 1.63945205479452 0.00000000000000 -0.00000000000000 -1.00000000000000
-0.16782608695652 0.17347826086957 1.62608695652174 -0.00000000000000 0.00000000000000 1.00000000000000
-0.14490566037736 0.17207547169811 1.61293800539084 0.00000000000000 0.00000000000000 -1.00000000000000
-0.12235294117647 0.17069518716578 1.60000000000000 0.00000000000000 0.00000000000000 -1.00000000000000
-0.09682051282051 0.16369230769231 1.53435897435897 -0.00000000000000 0.00000000000000 -1.00000000000000
-0.07852242744063 0.16844327176781 1.57889182058047 -0.00000000000000 0.00000000000000 -1.00000000000000
-0.05696335078534 0.16712041884817 1.56649214659686 0.00000000000000 -0.00000000000000 1.00000000000000
-0.03574025974026 0.16581818181818 1.55428571428571 0.00000000000000 0.00000000000000 -1.00000000000000
-0.01488372093023 0.16496124031008 1.54625322997416 nan nan nan
0.00574358974359 0.16369230769231 1.53435897435897 0.00000000000000 -0.00000000000000 -1.00000000000000
0.02605597964377 0.16244274809160 1.52264631043257 0.00000000000000 -0.00000000000000 1.00000000000000
0.04617721518987 0.16162025316456 1.51493670886076 -0.00000000000000 0.00000000000000 -1.00000000000000
0.06592964824121 0.16040201005025 1.50351758793970 -0.00000000000000 0.00000000000000 1.00000000000000
0.08802056555270 0.16411311053985 1.53830334190231 0.95812342125787 0.27374954893082 -0.08402793640978
0.11831932773109 0.17882352941176 1.67619047619048 0.32210531029274 0.85894749411398 0.39806704389654
0.14033519553073 0.17832402234637 1.67150837988827 0.00000000000000 -0.00000000000000 1.00000000000000
0.16222841225627 0.17782729805014 1.66685236768802 0.00000000000000 -0.00000000000000 1.00000000000000
0.17385826771654 0.16755905511811 1.57060367454068 0.00000000000000 0.00000000000000 -1.00000000000000
0.18196078431373 0.15647058823529 1.46666666666667 -0.12151590029695 0.68859010168275 0.71489688615881
0.21528795811518 0.16712041884817 1.56649214659686 -0.00000000000000 0.00000000000000 -1.00000000000000
0.25206703910615 0.17832402234637 1.67150837988827 -0.53746094906789 -0.72629857982148 -0.42851616209467
0.27138121546961 0.17635359116022 1.65303867403315 0.86764556556270 0.24789873301792 0.43097261018248
0.35295681063123 0.21209302325581 1.98803986710963 0.00000000000000 0.00000000000000 1.00000000000000
-0.27428571428571 0.16326530612245 1.52653061224490 -0.00000000000000 0.00000000000000 1.00000000000000
-0.25517948717949 0.16410256410256 1.53435897435897 0.00000000000000 0.00000000000000 1.00000000000000
-0.23587628865979 0.16494845360825 1.54226804123711 0.06908726240997 -0.96722167373960 -0.24435462758265
-0.21693506493506 0.16623376623377 1.55428571428571 -0.48657885540817 0.72986828311225 0.48013884114541
-0.20804407713499 0.17630853994490 1.64848484848485 0.00000000000000 0.00000000000000 -1.00000000000000
-0.18448087431694 0.17486338797814 1.63497267759563 -0.00000000000000 0.00000000000000 1.00000000000000
-0.16130081300813 0.17344173441734 1.62168021680217 0.00000000000000 0.00000000000000 -1.00000000000000
-0.13849462365591 0.17204301075269 1.60860215053763 0.00000000000000 0.00000000000000 -1.00000000000000
-0.11636363636364 0.17112299465241 1.60000000000000 -0.00000000000000 0.00000000000000 -1.00000000000000
-0.09421750663130 0.16976127320955 1.58726790450928 0.00000000000000 -0.00000000000000 -1.00000000000000
-0.07242105263158 0.16842105263158 1.57473684210526 -0.00000000000000 0.00000000000000 1.00000000000000
-0.05096605744125 0.16710182767624 1.56240208877285 0.00000000000000 0.00000000000000 -1.00000000000000
-0.02992207792208 0.16623376623377 1.55428571428571 -0.00000000000000 0.00000000000000 -1.00000000000000
-0.00907216494845 0.16494845360825 1.54226804123711 0.00000000000000 -0.00000000000000 -1.00000000000000
0.01145780051151 0.16368286445013 1.53043478260870 -0.00000000000000 0.00000000000000 -1.00000000000000
0.03167512690355 0.16243654822335 1.51878172588832 0.00000000000000 0.00000000000000 -1.00000000000000
0.05171717171717 0.16161616161616 1.51111111111111 0.00000000000000 -0.00000000000000 -1.00000000000000
0.07173803526448 0.16120906801008 1.50730478589421 0.95882068775400 0.27394876792971 -0.07493304534548
0.09426356589147 0.16537467700258 1.54625322997416 -0.00000000000000 0.00000000000000 -1.00000000000000
0.12424581005587 0.17877094972067 1.67150837988827 0.00000000000000 -0.00000000000000 1.00000000000000
0.14659217877095 0.17877094972067 1.67150837988827 0.00000000000000 -0.00000000000000 1.00000000000000
0.16893854748603 0.17877094972067 1.67150837988827 0.55439975829558 -0.83159963744335 0.03290822094696
0.17926701570681 0.16753926701571 1.56649214659686 -0.00000000000000 0.00000000000000 1.00000000000000
0.18473429951691 0.15458937198068 1.44541062801932 0.55460941108029 -0.83191411662043 0.01809153693899
0.22231578947368 0.16842105263158 1.57473684210526 0.00000000000000 0.00000000000000 -1.00000000000000
0.25832402234637 0.17877094972067 1.67150837988827 0.00000000000000 0.00000000000000 -1.00000000000000
0.27604395604396 0.17582417582418 1.64395604395604 0.86764556556270 0.24789873301790 0.43097261018248
0.36039867109635 0.21262458471761 1.98803986710963 0.00000000000000 0.00000000000000 1.00000000000000
-0.26857142857143 0.16367346938776 1.52653061224490 -0.00000000000000 0.00000000000000 -1.00000000000000
-0.24943589743590 0.16451282051282 1.53435897435897 -0.48733792844542 0.73100689266813 0.47763026115419
-0.23010309278351 0.16536082474227 1.54226804123711 -0.48657885540817 0.72986828311224 0.48013884114542
-0.21166666666667 0.16708333333333 1.55833333333333 -0.82303700281674 -0.23515342937621 0.51702316838518
-0.20131868131868 0.17626373626374 1.64395604395604 0.00000000000000 -0.00000000000000 -1.00000000000000
-0.17787465940054 0.17482288828338 1.63051771117166 0.00000000000000 0.00000000000000 -1.00000000000000
-0.15523035230352 0.17387533875339 1.62168021680217 -0.00000000000000 0.00000000000000 -1.00000000000000
-0.13247311827957 0.17247311827957 1.60860215053763 0.00000000000000 -0.00000000000000 -1.00000000000000
-0.11008000000000 0.17109333333333 1.59573333333333 0.00000000000000 -0.00000000000000 1.00000000000000
-0.08804232804233 0.16973544973545 1.58306878306878 0.00000000000000 -0.00000000000000 1.00000000000000
-0.06635170603675 0.16839895013123 1.57060367454068 0.00000000000000 0.00000000000000 -1.00000000000000
-0.04511749347258 0.16751958224543 1.56240208877285 -0.00000000000000 0.00000000000000 -1.00000000000000
-0.02404145077720 0.16621761658031 1.55025906735751 0.00000000000000 -0.00000000000000 -1.00000000000000
-0.00329048843188 0.16493573264781 1.53830334190231 0.00000000000000 0.00000000000000 -1.00000000000000
0.01714285714286 0.16367346938776 1.52653061224490 0.00000000000000 0.00000000000000 -1.00000000000000
0.03736040609137 0.16284263959391 1.51878172588832 -0.00000000000000 0.00000000000000 -1.00000000000000
0.05722921914358 0.16161209068010 1.50730478589421 0.00000000000000 0.00000000000000 -1.00000000000000
0.07796954314721 0.16284263959391 1.51878172588832 0.95855123595921 0.27387178170263 -0.07857337480399
0.10109660574413 0.16751958224543 1.56240208877285 0.95750905971091 0.27357401706026 -0.09128886986395
0.13050279329609 0.17921787709497 1.67150837988827 0.00000000000000 -0.00000000000000 1.00000000000000
0.15242339832869 0.17871866295265 1.66685236768802 0.00000000000000 -0.00000000000000 1.00000000000000
0.16592592592593 0.16973544973545 1.58306878306878 0.83753463685815 0.23929561053090 0.49119582942399
0.18464751958225 0.16751958224543 1.56240208877285 0.00000000000000 -0.00000000000000 1.00000000000000
0.19979695431472 0.16284263959391 1.51878172588832 -0.16297675724979 -0.97786054349875 -0.13125293926107
0.24155988857939 0.17871866295265 1.66685236768802 0.06919521825145 -0.96873305552034 -0.23826096808616
0.26458100558659 0.17921787709497 1.67150837988827 -0.00000000000000 0.00000000000000 -1.00000000000000
0.28065573770492 0.17530054644809 1.63497267759563 0.55469018931387 -0.83203528397082 -0.00600667183617
0.36541254125413 0.21174917491749 1.97491749174917 0.95911989296383 0.27403425513253 0.07067006392388
-0.26352941176471 0.16450127877238 1.53043478260870 0.00000000000000 0.00000000000000 1.00000000000000
-0.24369230769231 0.16492307692308 1.53435897435897 0.65348353959863 0.69542238986458 -0.29890962371372
-0.22490956072351 0.16620155038760 1.54625322997416 0.06910283067274 -0.96743962941840 -0.24348585631161
-0.20745406824147 0.16881889763780 1.57060367454068 0.48733792844541 -0.73100689266813 -0.47763026115420
-0.19463013698630 0.17621917808219 1.63945205479452 0.00000000000000 0.00000000000000 -1.00000000000000
-0.17130434782609 0.17478260869565 1.62608695652174 0.00000000000000 0.00000000000000 -1.00000000000000
-0.14875675675676 0.17383783783784 1.61729729729730 -0.00000000000000 0.00000000000000 -1.00000000000000
-0.12611260053619 0.17243967828418 1.60428954423592 -0.00000000000000 0.00000000000000 -1.00000000000000
-0.10010256410256 0.16492307692308 1.53435897435897 0.00000000000000 0.00000000000000 -1.00000000000000
-0.08189973614776 0.16970976253298 1.57889182058047 0.00000000000000 0.00000000000000 -1.00000000000000
-0.06047244094488 0.16881889763780 1.57060367454068 0.00000000000000 0.00000000000000 1.00000000000000
-0.03916666666667 0.16750000000000 1.55833333333333 nan nan nan
-0.01819121447028 0.16620155038760 1.54625322997416 0.00000000000000 -0.00000000000000 1.00000000000000
0.00246153846154 0.16492307692308 1.53435897435897 0.00000000000000 0.00000000000000 -1.00000000000000
0.02285714285714 0.16408163265306 1.52653061224490 0.00000000000000 0.00000000000000 1.00000000000000
0.04293670886076 0.16283544303797 1.51493670886076 -0.00000000000000 0.00000000000000 -1.00000000000000
0.06271356783920 0.16160804020101 1.50351758793970 0.00000000000000 -0.00000000000000 1.00000000000000
0.08429667519182 0.16450127877238 1.53043478260870 0.95826917218071 0.27379119205163 -0.08221056381657
0.10951871657754 0.17197860962567 1.60000000000000 0.82760228599887 0.23645779599968 0.50907972550518
0.13675977653631 0.17966480446927 1.67150837988827 0.00000000000000 -0.00000000000000 1.00000000000000
0.15866295264624 0.17916434540390 1.66685236768802 0.00000000000000 -0.00000000000000 1.00000000000000
0.17094736842105 0.16926315789474 1.57473684210526 0.00000000000000 0.00000000000000 -1.00000000000000
0.18612244897959 0.16408163265306 1.52653061224490 0.16297675724979 0.97786054349875 0.13125293926107
0.21193717277487 0.16837696335079 1.56649214659686 0.00000000000000 0.00000000000000 -1.00000000000000
0.24779944289694 0.17916434540390 1.66685236768802 0.55468671958461 -0.83203007937692 0.00697066198409
0.26933333333333 0.17866666666667 1.66222222222222 -0.00000000000000 0.00000000000000 -1.00000000000000
0.29318435754190 0.17966480446927 1.67150837988827 -0.55468305928146 0.83202458892219 0.00786048185613
-0.27755102040816 0.16448979591837 1.52653061224490 0.00000000000000 0.00000000000000 1.00000000000000
-0.25714285714286 0.16448979591837 1.52653061224490 0.06905598085219 -0.96678373193067 -0.24609040449143
-0.23856041131105 0.16575835475578 1.53830334190231 -0.48695859315355 0.73043788973032 0.47888601754513
-0.21968911917098 0.16704663212435 1.55025906735751 -0.48657885540816 0.72986828311226 0.48013884114539
-0.20371352785146 0.17103448275862 1.58726790450928 -0.90657765108199 0.32966460039346 0.26351131627708
-0.18849315068493 0.17665753424658 1.63945205479452 -0.00000000000000 0.00000000000000 -1.00000000000000
-0.16521739130435 0.17521739130435 1.62608695652174 -0.00000000000000 0.00000000000000 -1.00000000000000
-0.14231805929919 0.17380053908356 1.61293800539084 -0.00000000000000 0.00000000000000 -1.00000000000000
-0.11978609625668 0.17240641711230 1.60000000000000 0.00000000000000 -0.00000000000000 1.00000000000000
-0.09608355091384 0.16835509138381 1.56240208877285 -0.97408305171773 0.22587433083309 -0.01195805280881
-0.07598944591029 0.17013192612137 1.57889182058047 -0.00000000000000 0.00000000000000 -1.00000000000000
-0.05445026178010 0.16879581151832 1.56649214659686 nan nan nan
-0.03324675324675 0.16748051948052 1.55428571428571 0.00000000000000 -0.00000000000000 -1.00000000000000
-0.01240310077519 0.16661498708010 1.54625322997416 -0.00000000000000 0.00000000000000 -1.00000000000000
0.00820512820513 0.16533333333333 1.53435897435897 -0.00000000000000 0.00000000000000 -1.00000000000000
0.02849872773537 0.16407124681934 1.52264631043257 -0.00000000000000 0.00000000000000 -1.00000000000000
0.04848484848485 0.16282828282828 1.51111111111111 0.00000000000000 -0.00000000000000 1.00000000000000
0.06834170854271 0.16201005025126 1.50351758793970 0.00000000000000 -0.00000000000000 1.00000000000000
0.09072164948454 0.16618556701031 1.54226804123711 0.88009037793611 0.47147698818006 0.05612821287858
0.12067039106145 0.18011173184358 1.67150837988827 0.00000000000000 -0.00000000000000 1.00000000000000
0.14301675977654 0.18011173184358 1.67150837988827 -0.00000000000000 0.00000000000000 -1.00000000000000
0.16490250696379 0.17961002785515 1.66685236768802 nan nan nan
0.17637795275591 0.16923884514436 1.57060367454068 -0.00000000000000 0.00000000000000 -1.00000000000000
0.18076923076923 0.15500000000000 1.43846153846154 0.00000000000000 -0.00000000000000 1.00000000000000
0.21837270341207 0.16923884514436 1.57060367454068 -0.00000000000000 -0.00000000000000 -1.00000000000000
0.25403899721448 0.17961002785515 1.66685236768802 0.00000000000000 -0.00000000000000 1.00000000000000
0.27327823691460 0.17763085399449 1.64848484848485 0.00000000000000 0.00000000000000 -1.00000000000000
0.34918566775244 0.21003257328990 1.94918566775244 -0.07124677942894 0.99745491200516 0.00275589146811
-0.27183673469388 0.16489795918367 1.52653061224490 0.00000000000000 0.00000000000000 1.00000000000000
-0.25142857142857 0.16489795918367 1.52653061224490 0.06905598085219 -0.96678373193067 -0.24609040449143
-0.23280205655527 0.16616966580977 1.53830334190231 -0.64091693812873 -0.70987635552233 0.29206341484347
-0.21444155844156 0.16789610389610 1.55428571428571 0.48657885540817 -0.72986828311224 -0.48013884114541
-0.20539944903581 0.17807162534435 1.64848484848485 -0.00000000000000 0.00000000000000 -1.00000000000000
-0.18185792349727 0.17661202185792 1.63497267759563 -0.00000000000000 0.00000000000000 -1.00000000000000
-0.15869918699187 0.17517615176152 1.62168021680217 0.00000000000000 -0.00000000000000 -1.00000000000000
-0.13591397849462 0.17376344086022 1.60860215053763 -0.00000000000000 0.00000000000000 -1.00000000000000
-0.11349333333333 0.17237333333333 1.59573333333333 0.00000000000000 0.00000000000000 -1.00000000000000
-0.09167108753316 0.17145888594164 1.58726790450928 -0.00000000000000 0.00000000000000 -1.00000000000000
-0.06989473684211 0.17010526315789 1.57473684210526 0.00000000000000 -0.00000000000000 1.00000000000000
-0.04845953002611 0.16877284595300 1.56240208877285 -0.00000000000000 0.00000000000000 -1.00000000000000
-0.02735751295337 0.16746113989637 1.55025906735751 0.00000000000000 -0.00000000000000 1.00000000000000
-0.00659793814433 0.16659793814433 1.54226804123711 0.00000000000000 0.00000000000000 1.00000000000000
0.01391304347826 0.16531969309463 1.53043478260870 0.00000000000000 0.00000000000000 1.00000000000000
0.03411167512690 0.16406091370558 1.51878172588832 -0.00000000000000 0.00000000000000 -1.00000000000000
0.05414141414141 0.16323232323232 1.51111111111111 0.00000000000000 0.00000000000000 1.00000000000000
0.07434343434343 0.16323232323232 1.51111111111111 0.95868754040122 0.27391072582892 -0.07675359376168
0.09724675324675 0.16789610389610 1.55428571428571 0.95766734473248 0.27361924135214 -0.08947495512665
0.12692737430168 0.18055865921788 1.67150837988827 -0.00000000000000 0.00000000000000 -1.00000000000000
0.14927374301676 0.18055865921788 1.67150837988827 0.55424936928261 -0.83137405392392 0.04030904503874
0.17114206128134 0.18005571030641 1.66685236768802 0.32320323552360 0.86187529472958 0.39078209386034
0.18178010471204 0.16921465968586 1.56649214659686 0.00000000000000 -0.00000000000000 1.00000000000000
0.18660240963855 0.15575903614458 1.44192771084337 0.55460941108029 -0.83191411662043 0.01809153693899
0.22603174603175 0.17100529100529 1.58306878306878 0.94839578633440 0.27097022466697 -0.16468324082033
0.26100558659218 0.18055865921788 1.67150837988827 0.00000000000000 0.00000000000000 1.00000000000000
0.27791780821918 0.17709589041096 1.63945205479452 0.00000000000000 0.00000000000000 -1.00000000000000
0.35648208469055 0.21055374592834 1.94918566775244 0.07124677942894 -0.99745491200516 -0.00275589146811
-0.26544529262087 0.16488549618321 1.52264631043257 0.06905598085219 -0.96678373193066 -0.24609040449144
-0.24634271099744 0.16572890025575 1.53043478260870 -0.06907164576713 0.96700304074015 0.24522281082788
-0.22762886597938 0.16701030927835 1.54226804123711 -0.48657885540817 0.72986828311224 0.48013884114542
-0.21026178010471 0.16963350785340 1.56649214659686 -0.48733792844542 0.73100689266813 0.47763026115418
-0.19868131868132 0.17802197802198 1.64395604395604 0.00000000000000 -0.00000000000000 1.00000000000000
-0.17525885558583 0.17656675749319 1.63051771117166 -0.00000000000000 0.00000000000000 -1.00000000000000
-0.15221621621622 0.17513513513514 1.61729729729730 0.00000000000000 0.00000000000000 -1.00000000000000
-0.12989247311828 0.17419354838710 1.60860215053763 0.00000000000000 -0.00000000000000 1.00000000000000
-0.10752000000000 0.17280000000000 1.59573333333333 -0.00000000000000 0.00000000000000 -1.00000000000000
-0.08550264550265 0.17142857142857 1.58306878306878 -0.00000000000000 0.00000000000000 1.00000000000000
-0.06383202099738 0.17007874015748 1.57060367454068 0.00000000000000 -0.00000000000000 1.00000000000000
-0.04250000000000 0.16875000000000 1.55833333333333 0.00000000000000 0.00000000000000 -1.00000000000000
-0.02155440414508 0.16787564766839 1.55025906735751 -0.00000000000000 0.00000000000000 -1.00000000000000
-0.00082262210797 0.16658097686375 1.53830334190231 0.00000000000000 0.00000000000000 1.00000000000000
0.01959183673469 0.16530612244898 1.52653061224490 nan nan nan
0.03969620253165 0.16405063291139 1.51493670886076 0.00000000000000 0.00000000000000 -1.00000000000000
0.05964735516373 0.16322418136020 1.50730478589421 0.00000000000000 0.00000000000000 1.00000000000000
0.08061068702290 0.16488549618321 1.52264631043257 0.95841177849854 0.27383193671386 -0.08039237072509
0.10387434554974 0.16963350785340 1.56649214659686 nan nan nan
0.13318435754190 0.18100558659218 1.67150837988827 0.00000000000000 -0.00000000000000 -1.00000000000000
0.15509749303621 0.18050139275766 1.66685236768802 nan nan nan
0.16802110817942 0.17097625329815 1.57889182058047 0.00000000000000 0.00000000000000 -1.00000000000000
0.18715404699739 0.16919060052219 1.56240208877285 0.00000000000000 0.00000000000000 1.00000000000000
0.20696103896104 0.16831168831169 1.55428571428571 0.52507192133931 -0.78760788200898 -0.32244891319147
0.24355555555556 0.18000000000000 1.66222222222222 0.55467859838497 -0.83201789757745 0.00882443224703
0.26651810584958 0.18050139275766 1.66685236768802 -0.32553647140574 -0.86809725708199 -0.37474412341147
0.28327868852459 0.17704918032787 1.63497267759563 0.00000000000000 -0.00000000000000 1.00000000000000
-0.27939086294416 0.16487309644670 1.51878172588832 0.06905598085219 -0.96678373193066 -0.24609040449145
-0.25974554707379 0.16529262086514 1.52264631043257 0.78885118117771 0.43457669861287 -0.43457669861287
-0.24061381074169 0.16613810741688 1.53043478260870 -0.48657885540818 0.72986828311225 0.48013884114539
-0.22185567010309 0.16742268041237 1.54226804123711 0.00000000000000 0.00000000000000 -1.00000000000000
-0.20547368421053 0.17094736842105 1.57473684210526 0.90631399819633 -0.32956872661685 -0.26453618109728
-0.19200000000000 0.17797260273973 1.63945205479452 -0.00000000000000 0.00000000000000 -1.00000000000000
-0.16869565217391 0.17652173913043 1.62608695652174 nan nan nan
-0.14576819407008 0.17509433962264 1.61293800539084 0.00000000000000 0.00000000000000 -1.00000000000000
-0.12353887399464 0.17415549597855 1.60428954423592 -0.00000000000000 0.00000000000000 -1.00000000000000
-0.09764102564103 0.16656410256410 1.53435897435897 0.00000000000000 -0.00000000000000 -1.00000000000000
-0.07936675461741 0.17139841688654 1.57889182058047 0.00000000000000 -0.00000000000000 -1.00000000000000
-0.05780104712042 0.17005235602094 1.56649214659686 0.00000000000000 0.00000000000000 -1.00000000000000
-0.03666666666667 0.16916666666667 1.55833333333333 -0.00000000000000 0.00000000000000 -1.00000000000000
-0.01571059431525 0.16785529715762 1.54625322997416 0.00000000000000 0.00000000000000 1.00000000000000
0.00492307692308 0.16656410256410 1.53435897435897 0.00000000000000 -0.00000000000000 -1.00000000000000
0.02524173027990 0.16529262086514 1.52264631043257 0.00000000000000 0.00000000000000 -1.00000000000000
0.04536708860759 0.16445569620253 1.51493670886076 0.00000000000000 0.00000000000000 1.00000000000000
0.06512562814070 0.16321608040201 1.50351758793970 -0.00000000000000 0.00000000000000 1.00000000000000
0.08697435897436 0.16656410256410 1.53435897435897 0.95962729014312 0.26706608546436 -0.08826760451788
0.11709497206704 0.18145251396648 1.67150837988827 0.00000000000000 -0.00000000000000 1.00000000000000
0.13944134078212 0.18145251396648 1.67150837988827 0.00000000000000 0.00000000000000 1.00000000000000
0.16133704735376 0.18094707520891 1.66685236768802 nan nan nan
0.17347368421053 0.17094736842105 1.57473684210526 -0.00000000000000 0.00000000000000 -1.00000000000000
0.17769230769231 0.15615384615385 1.43846153846154 0.00000000000000 -0.00000000000000 1.00000000000000
0.21445026178010 0.17005235602094 1.56649214659686 0.00000000000000 0.00000000000000 1.00000000000000
0.25047353760446 0.18094707520891 1.66685236768802 0.00000000000000 0.00000000000000 1.00000000000000
0.27124653739612 0.17994459833795 1.65761772853186 -0.86826466961455 -0.24807561988986 -0.42962186899109
0.30090909090909 0.18454545454545 1.70000000000000 -0.31102784802699 -0.50542025304385 -0.80486771929603
-0.27370558375635 0.16527918781726 1.51878172588832 0.06905598085219 -0.96678373193066 -0.24609040449145
-0.25404580152672 0.16569974554707 1.52264631043257 -0.48695859315354 0.73043788973032 0.47888601754513
-0.23548717948718 0.16697435897436 1.53435897435897 -0.06908726240999 0.96722167373960 0.24435462758265
-0.21720207253886 0.16870466321244 1.55025906735751 0.00000000000000 -0.00000000000000 1.00000000000000
-0.20332439678284 0.17458445040214 1.60428954423592 -0.92852052672564 0.33764382790023 -0.15442239776025
-0.18535519125683 0.17792349726776 1.63497267759563 0.00000000000000 0.00000000000000 -1.00000000000000
-0.16216802168022 0.17647696476965 1.62168021680217 0.00000000000000 0.00000000000000 -1.00000000000000
-0.13973045822102 0.17552560646900 1.61293800539084 0.00000000000000 -0.00000000000000 1.00000000000000
-0.11721925133690 0.17411764705882 1.60000000000000 -0.00000000000000 0.00000000000000 1.00000000000000
-0.09506631299735 0.17273209549072 1.58726790450928 0.00000000000000 0.00000000000000 -1.00000000000000
-0.07326315789474 0.17136842105263 1.57473684210526 0.00000000000000 0.00000000000000 -1.00000000000000
-0.05193717277487 0.17047120418848 1.56649214659686 -0.00000000000000 0.00000000000000 -1.00000000000000
-0.03075324675325 0.16914285714286 1.55428571428571 0.00000000000000 0.00000000000000 1.00000000000000
-0.00989690721649 0.16783505154639 1.54226804123711 0.00000000000000 -0.00000000000000 1.00000000000000
0.01063938618926 0.16654731457801 1.53043478260870 0.00000000000000 0.00000000000000 -1.00000000000000
0.03094147582697 0.16569974554707 1.52264631043257 -0.00000000000000 0.00000000000000 -1.00000000000000
0.05090909090909 0.16444444444444 1.51111111111111 0.00000000000000 -0.00000000000000 -1.00000000000000
0.07075376884422 0.16361809045226 1.50351758793970 -0.00000000000000 0.00000000000000 -1.00000000000000
0.09343669250646 0.16826873385013 1.54625322997416 -0.00000000000000 -0.00000000000000 -1.00000000000000
0.12335195530726 0.18189944134078 1.67150837988827 0.00000000000000 -0.00000000000000 -1.00000000000000
0.14529247910864 0.18139275766017 1.66685236768802 0.00000000000000 -0.00000000000000 1.00000000000000
0.16757660167131 0.18139275766017 1.66685236768802 0.00000000000000 0.00000000000000 1.00000000000000
0.17842931937173 0.17047120418848 1.56649214659686 0.00000000000000 0.00000000000000 -1.00000000000000
0.18307692307692 0.15653846153846 1.43846153846154 0.00000000000000 -0.00000000000000 1.00000000000000
0.22147368421053 0.17136842105263 1.57473684210526 -0.00000000000000 -0.00000000000000 -1.00000000000000
0.25671309192201 0.18139275766017 1.66685236768802 0.55469293464031 -0.83203940196046 0.00511681985163
0.27592286501377 0.17939393939394 1.64848484848485 -0.00000000000000 0.00000000000000 -1.00000000000000
0.34890322580645 0.21006451612903 1.93032258064516 0.09035736612471 0.99393102737191 0.06274280209248
-0.26802030456853 0.16568527918782 1.51878172588832 0.09487578391857 0.98548394908964 0.14078342129852
-0.24834605597964 0.16610687022901 1.52264631043257 -0.48657885540817 0.72986828311225 0.48013884114541
-0.22974358974359 0.16738461538462 1.53435897435897 0.00000000000000 -0.00000000000000 1.00000000000000
-0.21250000000000 0.17000000000000 1.55833333333333 0.95664279877051 0.27332651393443 0.10063385285767
-0.20219780219780 0.17934065934066 1.64395604395604 0.00000000000000 0.00000000000000 -1.00000000000000
-0.17923497267760 0.17836065573770 1.63497267759563 -0.00000000000000 0.00000000000000 -1.00000000000000
-0.15609756097561 0.17691056910569 1.62168021680217 nan nan nan
-0.13333333333333 0.17548387096774 1.60860215053763 0.00000000000000 -0.00000000000000 -1.00000000000000
-0.11093333333333 0.17408000000000 1.59573333333333 0.00000000000000 -0.00000000000000 1.00000000000000
-0.08888888888889 0.17269841269841 1.58306878306878 0.00000000000000 0.00000000000000 -1.00000000000000
-0.06736842105263 0.17178947368421 1.57473684210526 -0.00000000000000 0.00000000000000 -1.00000000000000
-0.04595300261097 0.17044386422977 1.56240208877285 0.00000000000000 -0.00000000000000 -1.00000000000000
-0.02487046632124 0.16911917098446 1.55025906735751 -0.00000000000000 0.00000000000000 -1.00000000000000
-0.00411311053985 0.16781491002571 1.53830334190231 0.00000000000000 0.00000000000000 -1.00000000000000
0.01632653061224 0.16653061224490 1.52653061224490 0.00000000000000 0.00000000000000 -1.00000000000000
0.03654822335025 0.16568527918782 1.51878172588832 0.00000000000000 -0.00000000000000 -1.00000000000000
0.05642317380353 0.16443324937028 1.50730478589421 0.00000000000000 -0.00000000000000 1.00000000000000
0.07696202531646 0.16526582278481 1.51493670886076 0.95855123595921 0.27387178170264 -0.07857337480399
0.10000000000000 0.17000000000000 1.55833333333333 0.95750905971091 0.27357401706026 -0.09128886986396
0.12960893854749 0.18234636871508 1.67150837988827 nan nan nan
0.15153203342618 0.18183844011142 1.66685236768802 0.00000000000000 0.00000000000000 -1.00000000000000
0.16595744680851 0.17361702127660 1.59148936170213 -0.95655837387595 0.23913959346899 -0.16675830475057
0.18429319371728 0.17089005235602 1.56649214659686 -0.00000000000000 0.00000000000000 -1.00000000000000
0.18891566265060 0.15730120481928 1.44192771084337 -0.00000000000000 0.00000000000000 1.00000000000000
0.24615384615385 0.18598290598291 1.70484330484330 -0.98455977997915 -0.10098049025427 -0.14298594418825
0.26295264623955 0.18183844011142 1.66685236768802 0.32553647140574 0.86809725708199 0.37474412341148
0.28054794520548 0.17884931506849 1.63945205479452 -0.00000000000000 0.00000000000000 -1.00000000000000
0.35498392282958 0.20990353697749 1.92411575562701 0.09035736612471 0.99393102737191 0.06274280209248
-0.26233502538071 0.16609137055838 1.51878172588832 -0.48733792844542 0.73100689266811 0.47763026115421
