ply
            format ascii 1.0
            element vertex 26959
            property float x
            property float y
            property float z
            property float nx
            property float ny
            property float nz
end_header
0.23751552795031 0.12074534161491 1.85838509316770 0.00000000000000 0.00000000000000 1.00000000000000
0.29435540069686 0.13547038327526 2.08501742160279 0.00000000000000 -0.00000000000000 -1.00000000000000
0.32000000000000 0.13453287197232 2.07058823529412 0.00000000000000 0.00000000000000 -1.00000000000000
-0.39225806451613 0.15741935483871 2.41290322580645 0.00000000000000 -0.00000000000000 1.00000000000000
-0.36000000000000 0.15741935483871 2.41290322580645 -0.00000000000000 0.00000000000000 -1.00000000000000
-0.26913907284768 0.12927152317881 1.98145695364238 -0.95547736445141 -0.27299353270040 -0.11197114416108
-0.23715210355987 0.12634304207120 1.93656957928803 -0.00000000000000 -0.00000000000000 1.00000000000000
-0.20658227848101 0.12354430379747 1.89367088607595 -0.00000000000000 -0.00000000000000 -1.00000000000000
-0.17956112852665 0.12238244514107 1.87586206896552 0.00000000000000 0.00000000000000 1.00000000000000
-0.15304347826087 0.12124223602484 1.85838509316770 -0.00000000000000 -0.00000000000000 -1.00000000000000
-0.12701538461538 0.12012307692308 1.84123076923077 0.00000000000000 -0.00000000000000 1.00000000000000
-0.10208588957055 0.11975460122699 1.83558282208589 0.00000000000000 0.00000000000000 1.00000000000000
-0.07730886850153 0.11938837920489 1.82996941896024 0.00000000000000 0.00000000000000 1.00000000000000
-0.05284403669725 0.11938837920489 1.82996941896024 0.00000000000000 -0.00000000000000 -1.00000000000000
-0.02864197530864 0.12049382716049 1.84691358024691 -0.00000000000000 0.00000000000000 -1.00000000000000
-0.00400000000000 0.12200000000000 1.87000000000000 0.00000000000000 0.00000000000000 1.00000000000000
0.02055045871560 0.11938837920489 1.82996941896024 -0.00000000000000 0.00000000000000 -1.00000000000000
0.04460606060606 0.11830303030303 1.81333333333333 0.00000000000000 -0.00000000000000 1.00000000000000
0.06864048338369 0.11794561933535 1.80785498489426 0.00000000000000 -0.00000000000000 1.00000000000000
0.09309090909091 0.11830303030303 1.81333333333333 0.00000000000000 -0.00000000000000 1.00000000000000
0.11768996960486 0.11866261398176 1.81884498480243 0.00000000000000 0.00000000000000 1.00000000000000
0.14243902439024 0.11902439024390 1.82439024390244 0.00000000000000 0.00000000000000 1.00000000000000
0.16682926829268 0.11902439024390 1.82439024390244 -0.00000000000000 0.00000000000000 1.00000000000000
0.19180428134557 0.11938837920489 1.82996941896024 0.00000000000000 -0.00000000000000 1.00000000000000
0.21894736842105 0.12086687306502 1.85263157894737 -0.00000000000000 0.00000000000000 -1.00000000000000
0.26152823920266 0.12970099667774 1.98803986710963 0.99405690851442 -0.01080496639690 -0.10832412167155
0.30111111111111 0.13555555555556 2.07777777777778 0.00000000000000 0.00000000000000 -1.00000000000000
0.32775086505190 0.13508650519031 2.07058823529412 -0.00000000000000 0.00000000000000 1.00000000000000
-0.38322580645161 0.15806451612903 2.41290322580645 -0.00000000000000 0.00000000000000 1.00000000000000
-0.35096774193548 0.15806451612903 2.41290322580645 -0.00000000000000 0.00000000000000 1.00000000000000
-0.25745928338762 0.12768729641694 1.94918566775244 nan nan nan
-0.22842443729904 0.12604501607717 1.92411575562701 0.00000000000000 0.00000000000000 -1.00000000000000
-0.19823899371069 0.12327044025157 1.88176100628931 0.00000000000000 -0.00000000000000 1.00000000000000
-0.17200000000000 0.12250000000000 1.87000000000000 0.00000000000000 0.00000000000000 1.00000000000000
-0.14563467492260 0.12136222910217 1.85263157894737 -0.00000000000000 -0.00000000000000 -1.00000000000000
-0.12012307692308 0.12061538461538 1.84123076923077 0.00000000000000 0.00000000000000 1.00000000000000
-0.09492354740061 0.11987767584098 1.82996941896024 0.00000000000000 -0.00000000000000 1.00000000000000
-0.07045871559633 0.11987767584098 1.82996941896024 0.00000000000000 0.00000000000000 1.00000000000000
-0.04613496932515 0.12024539877301 1.83558282208589 0.00000000000000 0.00000000000000 1.00000000000000
-0.02179566563467 0.12136222910217 1.85263157894737 -0.00000000000000 0.00000000000000 -1.00000000000000
0.00297213622291 0.12136222910217 1.85263157894737 0.00000000000000 0.00000000000000 -1.00000000000000
0.02731707317073 0.11951219512195 1.82439024390244 0.00000000000000 0.00000000000000 1.00000000000000
0.05139393939394 0.11878787878788 1.81333333333333 0.00000000000000 0.00000000000000 1.00000000000000
0.07563636363636 0.11878787878788 1.81333333333333 0.00000000000000 0.00000000000000 1.00000000000000
0.09987878787879 0.11878787878788 1.81333333333333 0.00000000000000 -0.00000000000000 -1.00000000000000
0.12449848024316 0.11914893617021 1.81884498480243 -0.00000000000000 0.00000000000000 1.00000000000000
0.14926829268293 0.11951219512195 1.82439024390244 0.00000000000000 0.00000000000000 1.00000000000000
0.17365853658537 0.11951219512195 1.82439024390244 0.00000000000000 -0.00000000000000 1.00000000000000
0.19926380368098 0.12024539877301 1.83558282208589 -0.00000000000000 0.00000000000000 -1.00000000000000
0.22658385093168 0.12173913043478 1.85838509316770 -0.00000000000000 0.00000000000000 1.00000000000000
0.28307692307692 0.13706293706294 2.09230769230769 0.00000000000000 -0.00000000000000 1.00000000000000
0.30888888888889 0.13611111111111 2.07777777777778 -0.00000000000000 0.00000000000000 1.00000000000000
0.33550173010381 0.13564013840830 2.07058823529412 0.00000000000000 -0.00000000000000 -1.00000000000000
-0.37419354838710 0.15870967741935 2.41290322580645 -0.00000000000000 0.00000000000000 1.00000000000000
-0.34193548387097 0.15870967741935 2.41290322580645 -0.00000000000000 0.00000000000000 1.00000000000000
-0.25016286644951 0.12820846905537 1.94918566775244 0.00000000000000 0.00000000000000 1.00000000000000
-0.21980830670927 0.12575079872204 1.91182108626198 -0.00000000000000 -0.00000000000000 1.00000000000000
-0.19119496855346 0.12377358490566 1.88176100628931 0.00000000000000 0.00000000000000 1.00000000000000
-0.16448598130841 0.12261682242991 1.86417445482866 0.00000000000000 0.00000000000000 1.00000000000000
-0.13827160493827 0.12148148148148 1.84691358024691 0.00000000000000 -0.00000000000000 1.00000000000000
-0.11288343558282 0.12073619631902 1.83558282208589 0.00000000000000 -0.00000000000000 1.00000000000000
-0.08807339449541 0.12036697247706 1.82996941896024 0.00000000000000 0.00000000000000 1.00000000000000
-0.06360856269113 0.12036697247706 1.82996941896024 0.00000000000000 0.00000000000000 1.00000000000000
-0.03926380368098 0.12073619631902 1.83558282208589 0.00000000000000 -0.00000000000000 -1.00000000000000
-0.01495327102804 0.12261682242991 1.86417445482866 -0.00000000000000 0.00000000000000 -1.00000000000000
0.00984615384615 0.12110769230769 1.84123076923077 nan nan nan
0.03404255319149 0.11963525835866 1.81884498480243 0.00000000000000 -0.00000000000000 1.00000000000000
0.05818181818182 0.11927272727273 1.81333333333333 0.00000000000000 0.00000000000000 1.00000000000000
0.08217522658610 0.11891238670695 1.80785498489426 0.00000000000000 -0.00000000000000 1.00000000000000
0.10666666666667 0.11927272727273 1.81333333333333 0.00000000000000 -0.00000000000000 1.00000000000000
0.13130699088146 0.11963525835866 1.81884498480243 -0.00000000000000 0.00000000000000 1.00000000000000
0.15609756097561 0.12000000000000 1.82439024390244 0.00000000000000 -0.00000000000000 1.00000000000000
0.18048780487805 0.12000000000000 1.82439024390244 0.00000000000000 -0.00000000000000 1.00000000000000
0.20740740740741 0.12148148148148 1.84691358024691 0.00000000000000 0.00000000000000 -1.00000000000000
0.23354037267081 0.12223602484472 1.85838509316770 0.00000000000000 0.00000000000000 1.00000000000000
0.28989547038328 0.13714285714286 2.08501742160279 0.00000000000000 0.00000000000000 -1.00000000000000
0.31666666666667 0.13666666666667 2.07777777777778 0.00000000000000 0.00000000000000 1.00000000000000
-0.39741935483871 0.15935483870968 2.41290322580645 0.00000000000000 0.00000000000000 -1.00000000000000
-0.36516129032258 0.15935483870968 2.41290322580645 -0.00000000000000 0.00000000000000 1.00000000000000
-0.33290322580645 0.15935483870968 2.41290322580645 -0.00000000000000 0.00000000000000 -1.00000000000000
-0.24207792207792 0.12831168831169 1.94285714285714 0.00000000000000 0.00000000000000 1.00000000000000
-0.21063291139241 0.12506329113924 1.89367088607595 0.00000000000000 0.00000000000000 -1.00000000000000
-0.18357366771160 0.12388714733542 1.87586206896552 -0.00000000000000 -0.00000000000000 -1.00000000000000
-0.15701863354037 0.12273291925466 1.85838509316770 0.00000000000000 0.00000000000000 -1.00000000000000
-0.13095384615385 0.12160000000000 1.84123076923077 0.00000000000000 -0.00000000000000 1.00000000000000
-0.10568807339450 0.12085626911315 1.82996941896024 0.00000000000000 -0.00000000000000 1.00000000000000
-0.08097560975610 0.12048780487805 1.82439024390244 0.00000000000000 -0.00000000000000 1.00000000000000
-0.05675840978593 0.12085626911315 1.82996941896024 0.00000000000000 0.00000000000000 1.00000000000000
-0.03249230769231 0.12160000000000 1.84123076923077 -0.00000000000000 0.00000000000000 -1.00000000000000
-0.00805031446541 0.12427672955975 1.88176100628931 0.00000000000000 -0.00000000000000 -1.00000000000000
0.01668711656442 0.12122699386503 1.83558282208589 -0.00000000000000 0.00000000000000 -1.00000000000000
0.04072727272727 0.11975757575758 1.81333333333333 0.00000000000000 -0.00000000000000 1.00000000000000
0.06477341389728 0.11939577039275 1.80785498489426 0.00000000000000 -0.00000000000000 1.00000000000000
0.08921212121212 0.11975757575758 1.81333333333333 0.00000000000000 0.00000000000000 1.00000000000000
0.11345454545455 0.11975757575758 1.81333333333333 -0.00000000000000 0.00000000000000 1.00000000000000
0.13811550151976 0.12012158054711 1.81884498480243 -0.00000000000000 0.00000000000000 1.00000000000000
0.16292682926829 0.12048780487805 1.82439024390244 -0.00000000000000 0.00000000000000 1.00000000000000
0.18731707317073 0.12048780487805 1.82439024390244 0.00000000000000 0.00000000000000 1.00000000000000
0.21498452012384 0.12235294117647 1.85263157894737 0.00000000000000 0.00000000000000 -1.00000000000000
0.23975232198142 0.12235294117647 1.85263157894737 0.00000000000000 -0.00000000000000 1.00000000000000
0.29770034843206 0.13770034843206 2.08501742160279 0.00000000000000 0.00000000000000 1.00000000000000
0.32332179930796 0.13674740484429 2.07058823529412 -0.00000000000000 0.00000000000000 1.00000000000000
-0.38838709677419 0.16000000000000 2.41290322580645 -0.00000000000000 0.00000000000000 1.00000000000000
-0.35612903225806 0.16000000000000 2.41290322580645 0.00000000000000 -0.00000000000000 -1.00000000000000
-0.26162866449511 0.12925081433225 1.94918566775244 0.00000000000000 -0.00000000000000 1.00000000000000
-0.23329032258065 0.12800000000000 1.93032258064516 0.00000000000000 0.00000000000000 -1.00000000000000
-0.20290220820189 0.12517350157729 1.88769716088328 -0.00000000000000 -0.00000000000000 -1.00000000000000
-0.17600000000000 0.12400000000000 1.87000000000000 0.00000000000000 0.00000000000000 -1.00000000000000
-0.14959752321981 0.12284829721362 1.85263157894737 0.00000000000000 -0.00000000000000 1.00000000000000
-0.12406153846154 0.12209230769231 1.84123076923077 0.00000000000000 0.00000000000000 1.00000000000000
-0.09883792048930 0.12134556574924 1.82996941896024 0.00000000000000 0.00000000000000 -1.00000000000000
-0.07414634146341 0.12097560975610 1.82439024390244 0.00000000000000 -0.00000000000000 1.00000000000000
-0.04990825688073 0.12134556574924 1.82996941896024 -0.00000000000000 0.00000000000000 -1.00000000000000
-0.02567901234568 0.12246913580247 1.84691358024691 0.00000000000000 0.00000000000000 1.00000000000000
-0.00099378881988 0.12322981366460 1.85838509316770 0.00000000000000 0.00000000000000 1.00000000000000
0.02341463414634 0.12097560975610 1.82439024390244 0.00000000000000 -0.00000000000000 1.00000000000000
0.04751515151515 0.12024242424242 1.81333333333333 -0.00000000000000 0.00000000000000 -1.00000000000000
0.07154078549849 0.11987915407855 1.80785498489426 -0.00000000000000 0.00000000000000 -1.00000000000000
0.09600000000000 0.12024242424242 1.81333333333333 0.00000000000000 0.00000000000000 1.00000000000000
0.12024242424242 0.12024242424242 1.81333333333333 0.00000000000000 -0.00000000000000 1.00000000000000
0.14492401215805 0.12060790273556 1.81884498480243 0.00000000000000 -0.00000000000000 1.00000000000000
0.16975609756098 0.12097560975610 1.82439024390244 -0.00000000000000 0.00000000000000 -1.00000000000000
0.19474006116208 0.12134556574924 1.82996941896024 -0.00000000000000 0.00000000000000 -1.00000000000000
0.22260869565217 0.12322981366460 1.85838509316770 0.00000000000000 0.00000000000000 1.00000000000000
0.27860139860140 0.13874125874126 2.09230769230769 0.00000000000000 0.00000000000000 -1.00000000000000
0.30444444444444 0.13777777777778 2.07777777777778 -0.00000000000000 0.00000000000000 -1.00000000000000
0.33107266435986 0.13730103806228 2.07058823529412 0.00000000000000 -0.00000000000000 -1.00000000000000
-0.37935483870968 0.16064516129032 2.41290322580645 0.00000000000000 -0.00000000000000 1.00000000000000
-0.34709677419355 0.16064516129032 2.41290322580645 0.00000000000000 -0.00000000000000 1.00000000000000
-0.25433224755700 0.12977198697068 1.94918566775244 0.00000000000000 0.00000000000000 1.00000000000000
-0.22461538461538 0.12769230769231 1.91794871794872 -0.00000000000000 -0.00000000000000 -1.00000000000000
-0.19522012578616 0.12528301886792 1.88176100628931 0.00000000000000 0.00000000000000 1.00000000000000
-0.16847352024922 0.12411214953271 1.86417445482866 -0.00000000000000 -0.00000000000000 -1.00000000000000
-0.14222222222222 0.12296296296296 1.84691358024691 0.00000000000000 -0.00000000000000 1.00000000000000
-0.11680981595092 0.12220858895706 1.83558282208589 0.00000000000000 -0.00000000000000 1.00000000000000
-0.09198776758410 0.12183486238532 1.82996941896024 0.00000000000000 0.00000000000000 1.00000000000000
-0.06731707317073 0.12146341463415 1.82439024390244 0.00000000000000 -0.00000000000000 1.00000000000000
-0.04305810397554 0.12183486238532 1.82996941896024 0.00000000000000 -0.00000000000000 1.00000000000000
-0.01888198757764 0.12372670807453 1.85838509316770 0.00000000000000 0.00000000000000 -1.00000000000000
0.00592592592593 0.12296296296296 1.84691358024691 0.96130435983853 0.27465838852529 -0.02137047889328
0.03015197568389 0.12109422492401 1.81884498480243 0.00000000000000 -0.00000000000000 1.00000000000000
0.05413897280967 0.12036253776435 1.80785498489426 0.00000000000000 -0.00000000000000 1.00000000000000
0.07830815709970 0.12036253776435 1.80785498489426 0.00000000000000 0.00000000000000 -1.00000000000000
0.10278787878788 0.12072727272727 1.81333333333333 0.00000000000000 0.00000000000000 1.00000000000000
0.12741641337386 0.12109422492401 1.81884498480243 0.00000000000000 0.00000000000000 1.00000000000000
0.15173252279635 0.12109422492401 1.81884498480243 0.00000000000000 -0.00000000000000 1.00000000000000
0.17658536585366 0.12146341463415 1.82439024390244 0.00000000000000 -0.00000000000000 1.00000000000000
0.20283076923077 0.12258461538462 1.84123076923077 0.00000000000000 0.00000000000000 -1.00000000000000
0.22956521739130 0.12372670807453 1.85838509316770 0.00000000000000 0.00000000000000 1.00000000000000
0.28643356643357 0.13930069930070 2.09230769230769 -0.00000000000000 0.00000000000000 -1.00000000000000
0.31222222222222 0.13833333333333 2.07777777777778 -0.00000000000000 0.00000000000000 -1.00000000000000
0.33882352941176 0.13785467128028 2.07058823529412 -0.00000000000000 0.00000000000000 -1.00000000000000
-0.37032258064516 0.16129032258065 2.41290322580645 0.00000000000000 -0.00000000000000 1.00000000000000
-0.33806451612903 0.16129032258065 2.41290322580645 0.00000000000000 -0.00000000000000 1.00000000000000
-0.24623376623377 0.12987012987013 1.94285714285714 0.00000000000000 -0.00000000000000 1.00000000000000
-0.21605095541401 0.12738853503185 1.90573248407643 0.95759808425622 0.27359945264464 0.09027318838596
-0.18758620689655 0.12539184952978 1.87586206896552 0.00000000000000 0.00000000000000 -1.00000000000000
-0.16099378881988 0.12422360248447 1.85838509316770 0.00000000000000 -0.00000000000000 1.00000000000000
-0.13530864197531 0.12345679012346 1.84691358024691 0.00000000000000 0.00000000000000 1.00000000000000
-0.10993865030675 0.12269938650307 1.83558282208589 0.00000000000000 0.00000000000000 1.00000000000000
-0.08487804878049 0.12195121951220 1.82439024390244 0.00000000000000 -0.00000000000000 1.00000000000000
-0.06048780487805 0.12195121951220 1.82439024390244 0.00000000000000 -0.00000000000000 1.00000000000000
-0.03631901840491 0.12269938650307 1.83558282208589 -0.00000000000000 0.00000000000000 -1.00000000000000
-0.01200000000000 0.12500000000000 1.87000000000000 -0.00000000000000 0.00000000000000 -1.00000000000000
0.01276073619632 0.12269938650307 1.83558282208589 0.00000000000000 0.00000000000000 -1.00000000000000
0.03696048632219 0.12158054711246 1.81884498480243 0.00000000000000 0.00000000000000 1.00000000000000
0.06090634441088 0.12084592145015 1.80785498489426 0.00000000000000 -0.00000000000000 1.00000000000000
0.08507552870091 0.12084592145015 1.80785498489426 -0.00000000000000 0.00000000000000 1.00000000000000
0.10957575757576 0.12121212121212 1.81333333333333 -0.00000000000000 0.00000000000000 -1.00000000000000
0.13422492401216 0.12158054711246 1.81884498480243 0.00000000000000 -0.00000000000000 -1.00000000000000
0.15902439024390 0.12195121951220 1.82439024390244 0.00000000000000 0.00000000000000 1.00000000000000
0.18341463414634 0.12195121951220 1.82439024390244 -0.00000000000000 0.00000000000000 1.00000000000000
0.21037037037037 0.12345679012346 1.84691358024691 -0.00000000000000 0.00000000000000 -1.00000000000000
0.23578947368421 0.12383900928793 1.85263157894737 0.00000000000000 -0.00000000000000 1.00000000000000
0.29324041811847 0.13937282229965 2.08501742160279 0.00000000000000 -0.00000000000000 -1.00000000000000
0.31889273356401 0.13840830449827 2.07058823529412 0.00000000000000 0.00000000000000 -1.00000000000000
-0.39354838709677 0.16193548387097 2.41290322580645 0.00000000000000 -0.00000000000000 1.00000000000000
-0.36129032258065 0.16193548387097 2.41290322580645 0.00000000000000 -0.00000000000000 1.00000000000000
-0.26930693069307 0.13254125412541 1.97491749174917 0.95547736445141 0.27299353270040 0.11197114416108
-0.23818770226537 0.12996763754045 1.93656957928803 0.95676863752605 0.27336246786458 0.09933144219999
-0.20694006309148 0.12668769716088 1.88769716088328 0.00000000000000 0.00000000000000 -1.00000000000000
-0.18000000000000 0.12550000000000 1.87000000000000 0.00000000000000 -0.00000000000000 1.00000000000000
-0.15356037151703 0.12433436532508 1.85263157894737 0.00000000000000 -0.00000000000000 1.00000000000000
-0.12800000000000 0.12356923076923 1.84123076923077 0.00000000000000 0.00000000000000 1.00000000000000
-0.10275229357798 0.12281345565749 1.82996941896024 0.00000000000000 0.00000000000000 1.00000000000000
-0.07804878048780 0.12243902439024 1.82439024390244 -0.00000000000000 0.00000000000000 1.00000000000000
-0.05365853658537 0.12243902439024 1.82439024390244 0.00000000000000 -0.00000000000000 1.00000000000000
-0.02953846153846 0.12356923076923 1.84123076923077 0.00000000000000 -0.00000000000000 -1.00000000000000
-0.00500000000000 0.12550000000000 1.87000000000000 -0.00000000000000 -0.00000000000000 1.00000000000000
0.01957186544343 0.12281345565749 1.82996941896024 -0.00000000000000 -0.00000000000000 -1.00000000000000
0.04363636363636 0.12169696969697 1.81333333333333 nan nan nan
0.06767371601208 0.12132930513595 1.80785498489426 0.00000000000000 -0.00000000000000 -1.00000000000000
0.09184290030211 0.12132930513595 1.80785498489426 0.00000000000000 -0.00000000000000 1.00000000000000
0.11636363636364 0.12169696969697 1.81333333333333 0.00000000000000 -0.00000000000000 1.00000000000000
0.14103343465046 0.12206686930091 1.81884498480243 0.00000000000000 -0.00000000000000 1.00000000000000
0.16585365853659 0.12243902439024 1.82439024390244 0.00000000000000 0.00000000000000 1.00000000000000
0.19082568807339 0.12281345565749 1.82996941896024 0.00000000000000 0.00000000000000 -1.00000000000000
0.21795665634675 0.12433436532508 1.85263157894737 -0.00000000000000 0.00000000000000 1.00000000000000
0.24272445820433 0.12433436532508 1.85263157894737 -0.00000000000000 0.00000000000000 -1.00000000000000
0.30000000000000 0.13944444444444 2.07777777777778 0.00000000000000 -0.00000000000000 1.00000000000000
0.32664359861592 0.13896193771626 2.07058823529412 -0.00000000000000 0.00000000000000 -1.00000000000000
-0.38451612903226 0.16258064516129 2.41290322580645 -0.00000000000000 0.00000000000000 1.00000000000000
-0.35225806451613 0.16258064516129 2.41290322580645 -0.00000000000000 0.00000000000000 1.00000000000000
-0.25850162866450 0.13133550488599 1.94918566775244 0.00000000000000 0.00000000000000 1.00000000000000
-0.22945337620579 0.12964630225080 1.92411575562701 -0.00000000000000 -0.00000000000000 1.00000000000000
-0.19924528301887 0.12679245283019 1.88176100628931 -0.00000000000000 -0.00000000000000 -1.00000000000000
-0.17246105919003 0.12560747663551 1.86417445482866 0.00000000000000 -0.00000000000000 1.00000000000000
-0.14662538699690 0.12482972136223 1.85263157894737 0.00000000000000 0.00000000000000 1.00000000000000
-0.12073619631902 0.12368098159509 1.83558282208589 0.00000000000000 -0.00000000000000 1.00000000000000
-0.09590214067278 0.12330275229358 1.82996941896024 0.00000000000000 0.00000000000000 1.00000000000000
-0.07121951219512 0.12292682926829 1.82439024390244 -0.00000000000000 0.00000000000000 1.00000000000000
-0.04697247706422 0.12330275229358 1.82996941896024 nan nan nan
-0.02278637770898 0.12482972136223 1.85263157894737 0.00000000000000 0.00000000000000 -1.00000000000000
0.00198142414861 0.12482972136223 1.85263157894737 0.96134045866746 0.27466870247642 -0.01953526065741
0.02634146341463 0.12292682926829 1.82439024390244 0.00000000000000 0.00000000000000 1.00000000000000
0.05027190332326 0.12181268882175 1.80785498489426 0.00000000000000 -0.00000000000000 1.00000000000000
0.07444108761329 0.12181268882175 1.80785498489426 -0.00000000000000 0.00000000000000 -1.00000000000000
0.09861027190332 0.12181268882175 1.80785498489426 0.00000000000000 -0.00000000000000 1.00000000000000
0.12315151515152 0.12218181818182 1.81333333333333 0.00000000000000 -0.00000000000000 1.00000000000000
0.14784194528875 0.12255319148936 1.81884498480243 0.00000000000000 -0.00000000000000 1.00000000000000
0.17268292682927 0.12292682926829 1.82439024390244 nan nan nan
0.19828220858896 0.12368098159509 1.83558282208589 0.00000000000000 0.00000000000000 -1.00000000000000
0.22489164086687 0.12482972136223 1.85263157894737 0.00000000000000 -0.00000000000000 1.00000000000000
0.28195804195804 0.14097902097902 2.09230769230769 0.00000000000000 -0.00000000000000 -1.00000000000000
0.30777777777778 0.14000000000000 2.07777777777778 0.00000000000000 -0.00000000000000 1.00000000000000
0.33439446366782 0.13951557093426 2.07058823529412 -0.00000000000000 0.00000000000000 -1.00000000000000
-0.37548387096774 0.16322580645161 2.41290322580645 -0.00000000000000 0.00000000000000 1.00000000000000
-0.34322580645161 0.16322580645161 2.41290322580645 -0.00000000000000 0.00000000000000 1.00000000000000
-0.25038961038961 0.13142857142857 1.94285714285714 0.00000000000000 -0.00000000000000 1.00000000000000
-0.22083067092652 0.12932907348243 1.91182108626198 0.95743842497147 0.27355383570614 0.09208670565616
-0.19159874608150 0.12689655172414 1.87586206896552 0.00000000000000 -0.00000000000000 1.00000000000000
-0.16496894409938 0.12571428571429 1.85838509316770 0.00000000000000 -0.00000000000000 1.00000000000000
-0.13925925925926 0.12493827160494 1.84691358024691 0.00000000000000 0.00000000000000 1.00000000000000
-0.11386503067485 0.12417177914110 1.83558282208589 0.00000000000000 0.00000000000000 1.00000000000000
-0.08878048780488 0.12341463414634 1.82439024390244 0.00000000000000 -0.00000000000000 1.00000000000000
-0.06439024390244 0.12341463414634 1.82439024390244 -0.00000000000000 0.00000000000000 1.00000000000000
-0.04012232415902 0.12379204892966 1.82996941896024 0.00000000000000 -0.00000000000000 -1.00000000000000
-0.01590062111801 0.12571428571429 1.85838509316770 0.00000000000000 0.00000000000000 1.00000000000000
0.00886153846154 0.12455384615385 1.84123076923077 -0.00000000000000 -0.00000000000000 -1.00000000000000
0.03306990881459 0.12303951367781 1.81884498480243 0.00000000000000 0.00000000000000 1.00000000000000
0.05703927492447 0.12229607250755 1.80785498489426 0.00000000000000 -0.00000000000000 1.00000000000000
0.08120845921450 0.12229607250755 1.80785498489426 nan nan nan
0.10537764350453 0.12229607250755 1.80785498489426 0.00000000000000 -0.00000000000000 1.00000000000000
0.12993939393939 0.12266666666667 1.81333333333333 0.00000000000000 -0.00000000000000 1.00000000000000
0.15465045592705 0.12303951367781 1.81884498480243 0.00000000000000 -0.00000000000000 -1.00000000000000
0.17951219512195 0.12341463414634 1.82439024390244 -0.00000000000000 0.00000000000000 1.00000000000000
0.20578461538462 0.12455384615385 1.84123076923077 0.00000000000000 -0.00000000000000 1.00000000000000
0.23182662538700 0.12532507739938 1.85263157894737 0.00000000000000 -0.00000000000000 1.00000000000000
0.28878048780488 0.14104529616725 2.08501742160279 0.00000000000000 -0.00000000000000 1.00000000000000
0.31555555555556 0.14055555555556 2.07777777777778 0.00000000000000 -0.00000000000000 -1.00000000000000
-0.42256410256410 0.17367521367521 2.55726495726496 -0.98662112739732 0.00000000000000 -0.16302990821699
-0.36645161290323 0.16387096774194 2.41290322580645 nan nan nan
-0.33419354838710 0.16387096774194 2.41290322580645 0.00000000000000 0.00000000000000 1.00000000000000
-0.24311688311688 0.13194805194805 1.94285714285714 0.00000000000000 0.00000000000000 1.00000000000000
-0.21164556962025 0.12860759493671 1.89367088607595 0.00000000000000 0.00000000000000 1.00000000000000
-0.18400000000000 0.12700000000000 1.87000000000000 0.00000000000000 -0.00000000000000 1.00000000000000
-0.15801242236025 0.12621118012422 1.85838509316770 0.00000000000000 0.00000000000000 1.00000000000000
-0.13193846153846 0.12504615384615 1.84123076923077 -0.00000000000000 -0.00000000000000 -1.00000000000000
-0.10666666666667 0.12428134556575 1.82996941896024 0.00000000000000 0.00000000000000 -1.00000000000000
-0.08195121951220 0.12390243902439 1.82439024390244 -0.00000000000000 0.00000000000000 1.00000000000000
-0.05756097560976 0.12390243902439 1.82439024390244 0.00000000000000 -0.00000000000000 -1.00000000000000
-0.03337423312883 0.12466257668712 1.83558282208589 -0.00000000000000 0.00000000000000 1.00000000000000
-0.00902821316614 0.12739811912226 1.87586206896552 0.89068258648508 -0.32388457690367 -0.31903496826553
0.01565749235474 0.12428134556575 1.82996941896024 0.00000000000000 0.00000000000000 -1.00000000000000
0.03975757575758 0.12315151515152 1.81333333333333 -0.00000000000000 -0.00000000000000 -1.00000000000000
0.06380664652568 0.12277945619335 1.80785498489426 0.00000000000000 0.00000000000000 1.00000000000000
0.08797583081571 0.12277945619335 1.80785498489426 0.00000000000000 -0.00000000000000 -1.00000000000000
0.11248484848485 0.12315151515152 1.81333333333333 0.00000000000000 0.00000000000000 1.00000000000000
0.13714285714286 0.12352583586626 1.81884498480243 0.00000000000000 0.00000000000000 1.00000000000000
0.16145896656535 0.12352583586626 1.81884498480243 0.00000000000000 -0.00000000000000 1.00000000000000
0.18634146341463 0.12390243902439 1.82439024390244 0.00000000000000 -0.00000000000000 1.00000000000000
0.21333333333333 0.12543209876543 1.84691358024691 -0.00000000000000 0.00000000000000 1.00000000000000
0.23876160990712 0.12582043343653 1.85263157894737 -0.00000000000000 0.00000000000000 -1.00000000000000
0.29658536585366 0.14160278745645 2.08501742160279 -0.00000000000000 0.00000000000000 -1.00000000000000
0.32221453287197 0.14062283737024 2.07058823529412 0.00000000000000 -0.00000000000000 1.00000000000000
-0.38967741935484 0.16451612903226 2.41290322580645 -0.00000000000000 0.00000000000000 1.00000000000000
-0.35741935483871 0.16451612903226 2.41290322580645 -0.00000000000000 0.00000000000000 1.00000000000000
-0.26267100977199 0.13289902280130 1.94918566775244 0.00000000000000 0.00000000000000 1.00000000000000
-0.23432258064516 0.13161290322581 1.93032258064516 -0.00000000000000 -0.00000000000000 -1.00000000000000
-0.20327044025157 0.12830188679245 1.88176100628931 0.00000000000000 0.00000000000000 -1.00000000000000
-0.17700000000000 0.12750000000000 1.87000000000000 0.00000000000000 0.00000000000000 1.00000000000000
-0.15058823529412 0.12631578947368 1.85263157894737 0.00000000000000 0.00000000000000 1.00000000000000
-0.12466257668712 0.12515337423313 1.83558282208589 0.00000000000000 -0.00000000000000 1.00000000000000
-0.09951219512195 0.12439024390244 1.82439024390244 0.00000000000000 -0.00000000000000 1.00000000000000
-0.07512195121951 0.12439024390244 1.82439024390244 0.00000000000000 0.00000000000000 1.00000000000000
-0.05073170731707 0.12439024390244 1.82439024390244 -0.00000000000000 0.00000000000000 -1.00000000000000
-0.02658461538462 0.12553846153846 1.84123076923077 -0.00000000000000 0.00000000000000 -1.00000000000000
-0.00198757763975 0.12670807453416 1.85838509316770 -0.00000000000000 -0.00000000000000 1.00000000000000
0.02243902439024 0.12439024390244 1.82439024390244 -0.00000000000000 -0.00000000000000 -1.00000000000000
0.04654545454545 0.12363636363636 1.81333333333333 0.00000000000000 0.00000000000000 1.00000000000000
0.07057401812689 0.12326283987915 1.80785498489426 0.00000000000000 0.00000000000000 1.00000000000000
0.09474320241692 0.12326283987915 1.80785498489426 -0.00000000000000 0.00000000000000 -1.00000000000000
0.11927272727273 0.12363636363636 1.81333333333333 -0.00000000000000 0.00000000000000 1.00000000000000
0.14395136778115 0.12401215805471 1.81884498480243 0.00000000000000 -0.00000000000000 -1.00000000000000
0.16826747720365 0.12401215805471 1.81884498480243 0.00000000000000 -0.00000000000000 1.00000000000000
0.19376146788991 0.12477064220183 1.82996941896024 0.00000000000000 -0.00000000000000 1.00000000000000
0.22092879256966 0.12631578947368 1.85263157894737 0.00000000000000 -0.00000000000000 -1.00000000000000
0.27651567944251 0.14216027874564 2.08501742160279 -0.86362750402776 0.31404636510101 0.39436330312750
0.30333333333333 0.14166666666667 2.07777777777778 -0.00000000000000 0.00000000000000 -1.00000000000000
0.32996539792388 0.14117647058824 2.07058823529412 0.00000000000000 -0.00000000000000 1.00000000000000
-0.38064516129032 0.16516129032258 2.41290322580645 -0.00000000000000 0.00000000000000 -1.00000000000000
-0.34838709677419 0.16516129032258 2.41290322580645 -0.00000000000000 0.00000000000000 -1.00000000000000
-0.25454545454545 0.13298701298701 1.94285714285714 0.00000000000000 -0.00000000000000 1.00000000000000
-0.22564102564103 0.13128205128205 1.91794871794872 0.95727564578515 0.27350732736719 0.09389930704264
-0.19561128526646 0.12840125391850 1.87586206896552 0.00000000000000 -0.00000000000000 1.00000000000000
-0.16947040498442 0.12760124610592 1.86417445482866 0.00000000000000 0.00000000000000 1.00000000000000
-0.14320987654321 0.12641975308642 1.84691358024691 0.00000000000000 0.00000000000000 1.00000000000000
-0.11779141104294 0.12564417177914 1.83558282208589 0.00000000000000 0.00000000000000 1.00000000000000
-0.09268292682927 0.12487804878049 1.82439024390244 0.00000000000000 -0.00000000000000 1.00000000000000
-0.06829268292683 0.12487804878049 1.82439024390244 0.00000000000000 0.00000000000000 1.00000000000000
-0.04403669724771 0.12525993883792 1.82996941896024 -0.00000000000000 0.00000000000000 1.00000000000000
-0.01981424148607 0.12681114551084 1.85263157894737 0.00000000000000 -0.00000000000000 -1.00000000000000
0.00492307692308 0.12603076923077 1.84123076923077 0.00000000000000 0.00000000000000 -1.00000000000000
0.02917933130699 0.12449848024316 1.81884498480243 0.00000000000000 0.00000000000000 1.00000000000000
0.05317220543807 0.12374622356495 1.80785498489426 0.00000000000000 0.00000000000000 1.00000000000000
0.07710843373494 0.12337349397590 1.80240963855422 0.00000000000000 -0.00000000000000 1.00000000000000
0.10151057401813 0.12374622356495 1.80785498489426 -0.00000000000000 0.00000000000000 -1.00000000000000
0.12606060606061 0.12412121212121 1.81333333333333 -0.00000000000000 0.00000000000000 1.00000000000000
0.15075987841945 0.12449848024316 1.81884498480243 -0.00000000000000 0.00000000000000 1.00000000000000
0.17560975609756 0.12487804878049 1.82439024390244 0.00000000000000 0.00000000000000 1.00000000000000
0.20122699386503 0.12564417177914 1.83558282208589 -0.00000000000000 0.00000000000000 -1.00000000000000
0.22786377708978 0.12681114551084 1.85263157894737 0.00000000000000 -0.00000000000000 -1.00000000000000
0.28531468531469 0.14321678321678 2.09230769230769 0.00000000000000 0.00000000000000 1.00000000000000
0.31111111111111 0.14222222222222 2.07777777777778 -0.00000000000000 0.00000000000000 1.00000000000000
0.33771626297578 0.14173010380623 2.07058823529412 0.00000000000000 -0.00000000000000 1.00000000000000
-0.37161290322581 0.16580645161290 2.41290322580645 0.00000000000000 -0.00000000000000 1.00000000000000
-0.33935483870968 0.16580645161290 2.41290322580645 0.00000000000000 -0.00000000000000 1.00000000000000
-0.24727272727273 0.13350649350649 1.94285714285714 0.00000000000000 0.00000000000000 1.00000000000000
-0.21638095238095 0.13053968253968 1.89968253968254 0.95759808425623 0.27359945264462 0.09027318838595
-0.18858934169279 0.12890282131661 1.87586206896552 0.00000000000000 0.00000000000000 1.00000000000000
-0.16198757763975 0.12770186335404 1.85838509316770 0.00000000000000 0.00000000000000 1.00000000000000
-0.13587692307692 0.12652307692308 1.84123076923077 0.00000000000000 -0.00000000000000 1.00000000000000
-0.11058103975535 0.12574923547401 1.82996941896024 0.00000000000000 0.00000000000000 -1.00000000000000
-0.08585365853659 0.12536585365854 1.82439024390244 0.00000000000000 0.00000000000000 1.00000000000000
-0.06146341463415 0.12536585365854 1.82439024390244 0.00000000000000 0.00000000000000 1.00000000000000
-0.03718654434251 0.12574923547401 1.82996941896024 -0.00000000000000 0.00000000000000 -1.00000000000000
-0.01295950155763 0.12809968847352 1.86417445482866 0.89068258648508 -0.32388457690366 -0.31903496826554
0.01177914110429 0.12613496932515 1.83558282208589 -0.00000000000000 -0.00000000000000 -1.00000000000000
0.03587878787879 0.12460606060606 1.81333333333333 0.00000000000000 0.00000000000000 1.00000000000000
0.05993957703927 0.12422960725076 1.80785498489426 0.00000000000000 0.00000000000000 1.00000000000000
0.08410876132931 0.12422960725076 1.80785498489426 0.00000000000000 0.00000000000000 1.00000000000000
0.10827794561934 0.12422960725076 1.80785498489426 nan nan nan
0.13284848484848 0.12460606060606 1.81333333333333 -0.00000000000000 0.00000000000000 1.00000000000000
0.15756838905775 0.12498480243161 1.81884498480243 -0.00000000000000 0.00000000000000 1.00000000000000
0.18243902439024 0.12536585365854 1.82439024390244 0.00000000000000 0.00000000000000 1.00000000000000
0.20873846153846 0.12652307692308 1.84123076923077 -0.00000000000000 0.00000000000000 -1.00000000000000
0.23479876160991 0.12730650154799 1.85263157894737 -0.00000000000000 0.00000000000000 1.00000000000000
0.29212543554007 0.14327526132404 2.08501742160279 -0.00000000000000 0.00000000000000 1.00000000000000
0.31888888888889 0.14277777777778 2.07777777777778 -0.00000000000000 0.00000000000000 -1.00000000000000
-0.39483870967742 0.16645161290323 2.41290322580645 0.00000000000000 -0.00000000000000 1.00000000000000
-0.36258064516129 0.16645161290323 2.41290322580645 0.00000000000000 -0.00000000000000 -1.00000000000000
-0.28054794520548 0.14136986301370 2.04931506849315 0.63142932948505 0.63142932948500 -0.45010443647245
-0.23845161290323 0.13316129032258 1.93032258064516 0.00000000000000 -0.00000000000000 1.00000000000000
-0.20794952681388 0.13022082018927 1.88769716088328 -0.00000000000000 -0.00000000000000 -1.00000000000000
-0.18100000000000 0.12900000000000 1.87000000000000 0.00000000000000 0.00000000000000 1.00000000000000
-0.15455108359133 0.12780185758514 1.85263157894737 0.00000000000000 0.00000000000000 -1.00000000000000
-0.12858895705521 0.12662576687117 1.83558282208589 0.00000000000000 -0.00000000000000 1.00000000000000
-0.10341463414634 0.12585365853659 1.82439024390244 0.00000000000000 -0.00000000000000 1.00000000000000
-0.07902439024390 0.12585365853659 1.82439024390244 0.00000000000000 0.00000000000000 1.00000000000000
-0.05463414634146 0.12585365853659 1.82439024390244 -0.00000000000000 0.00000000000000 -1.00000000000000
-0.03042944785276 0.12662576687117 1.83558282208589 -0.00000000000000 0.00000000000000 -1.00000000000000
-0.00600000000000 0.12900000000000 1.87000000000000 0.00000000000000 0.00000000000000 1.00000000000000
0.01853658536585 0.12585365853659 1.82439024390244 0.00000000000000 0.00000000000000 -1.00000000000000
0.04253776435045 0.12471299093656 1.80785498489426 0.00000000000000 -0.00000000000000 1.00000000000000
0.06650602409639 0.12433734939759 1.80240963855422 0.00000000000000 -0.00000000000000 1.00000000000000
0.09087613293051 0.12471299093656 1.80785498489426 0.00000000000000 0.00000000000000 1.00000000000000
0.11504531722054 0.12471299093656 1.80785498489426 0.00000000000000 -0.00000000000000 1.00000000000000
0.13963636363636 0.12509090909091 1.81333333333333 0.00000000000000 -0.00000000000000 1.00000000000000
0.16437689969605 0.12547112462006 1.81884498480243 0.00000000000000 -0.00000000000000 -1.00000000000000
0.18926829268293 0.12585365853659 1.82439024390244 -0.00000000000000 0.00000000000000 -1.00000000000000
0.21629629629630 0.12740740740741 1.84691358024691 0.00000000000000 -0.00000000000000 1.00000000000000
0.24173374613003 0.12780185758514 1.85263157894737 0.00000000000000 0.00000000000000 1.00000000000000
0.29888888888889 0.14333333333333 2.07777777777778 0.00000000000000 0.00000000000000 -1.00000000000000
0.32553633217993 0.14283737024221 2.07058823529412 -0.00000000000000 0.00000000000000 1.00000000000000
-0.38580645161290 0.16709677419355 2.41290322580645 0.00000000000000 -0.00000000000000 1.00000000000000
-0.35354838709677 0.16709677419355 2.41290322580645 0.00000000000000 -0.00000000000000 1.00000000000000
-0.25870129870130 0.13454545454545 1.94285714285714 0.00000000000000 -0.00000000000000 1.00000000000000
-0.23048231511254 0.13324758842444 1.92411575562701 0.95710975152429 0.27345992900694 0.09571097515243
-0.19962382445141 0.12990595611285 1.87586206896552 0.00000000000000 -0.00000000000000 1.00000000000000
-0.17345794392523 0.12909657320872 1.86417445482866 -0.00000000000000 -0.00000000000000 -1.00000000000000
-0.14716049382716 0.12790123456790 1.84691358024691 0.00000000000000 0.00000000000000 -1.00000000000000
-0.12171779141104 0.12711656441718 1.83558282208589 0.00000000000000 0.00000000000000 1.00000000000000
-0.09658536585366 0.12634146341463 1.82439024390244 0.00000000000000 -0.00000000000000 -1.00000000000000
-0.07197568389058 0.12595744680851 1.81884498480243 0.00000000000000 -0.00000000000000 1.00000000000000
-0.04780487804878 0.12634146341463 1.82439024390244 0.00000000000000 -0.00000000000000 -1.00000000000000
-0.02370370370370 0.12790123456790 1.84691358024691 0.00000000000000 -0.00000000000000 -1.00000000000000
0.00098765432099 0.12790123456790 1.84691358024691 0.96134045866746 0.27466870247642 -0.01953526065741
0.02528875379939 0.12595744680851 1.81884498480243 0.00000000000000 0.00000000000000 -1.00000000000000
0.04930513595166 0.12519637462236 1.80785498489426 0.00000000000000 0.00000000000000 1.00000000000000
0.07325301204819 0.12481927710843 1.80240963855422 0.00000000000000 -0.00000000000000 1.00000000000000
0.09764350453172 0.12519637462236 1.80785498489426 0.00000000000000 0.00000000000000 1.00000000000000
0.12218181818182 0.12557575757576 1.81333333333333 0.00000000000000 0.00000000000000 1.00000000000000
0.14686930091185 0.12595744680851 1.81884498480243 0.00000000000000 0.00000000000000 1.00000000000000
0.17118541033435 0.12595744680851 1.81884498480243 -0.00000000000000 0.00000000000000 -1.00000000000000
0.19669724770642 0.12672782874618 1.82996941896024 -0.00000000000000 0.00000000000000 -1.00000000000000
0.22390092879257 0.12829721362229 1.85263157894737 0.00000000000000 -0.00000000000000 1.00000000000000
0.28083916083916 0.14489510489510 2.09230769230769 0.00000000000000 0.00000000000000 -1.00000000000000
0.30666666666667 0.14388888888889 2.07777777777778 0.00000000000000 -0.00000000000000 1.00000000000000
0.33328719723183 0.14339100346021 2.07058823529412 -0.00000000000000 0.00000000000000 1.00000000000000
-0.37677419354839 0.16774193548387 2.41290322580645 0.00000000000000 -0.00000000000000 1.00000000000000
-0.34451612903226 0.16774193548387 2.41290322580645 0.00000000000000 -0.00000000000000 1.00000000000000
-0.25142857142857 0.13506493506494 1.94285714285714 0.00000000000000 0.00000000000000 1.00000000000000
-0.22114649681529 0.13248407643312 1.90573248407643 0.95743842497147 0.27355383570614 0.09208670565616
-0.19260188087774 0.13040752351097 1.87586206896552 0.00000000000000 0.00000000000000 1.00000000000000
-0.16596273291925 0.12919254658385 1.85838509316770 0.00000000000000 0.00000000000000 1.00000000000000
-0.13981538461538 0.12800000000000 1.84123076923077 0.00000000000000 -0.00000000000000 1.00000000000000
-0.11449541284404 0.12721712538226 1.82996941896024 0.00000000000000 0.00000000000000 1.00000000000000
-0.08975609756098 0.12682926829268 1.82439024390244 0.00000000000000 0.00000000000000 1.00000000000000
-0.06516717325228 0.12644376899696 1.81884498480243 0.00000000000000 -0.00000000000000 1.00000000000000
-0.04110091743119 0.12721712538226 1.82996941896024 0.00000000000000 -0.00000000000000 -1.00000000000000
-0.01684210526316 0.12879256965944 1.85263157894737 -0.00000000000000 0.00000000000000 -1.00000000000000
0.00785276073620 0.12760736196319 1.83558282208589 0.00000000000000 0.00000000000000 -1.00000000000000
0.03200000000000 0.12606060606061 1.81333333333333 0.00000000000000 -0.00000000000000 1.00000000000000
0.05590361445783 0.12530120481928 1.80240963855422 0.00000000000000 -0.00000000000000 1.00000000000000
0.08000000000000 0.12530120481928 1.80240963855422 0.00000000000000 -0.00000000000000 -1.00000000000000
0.10441087613293 0.12567975830816 1.80785498489426 0.00000000000000 -0.00000000000000 -1.00000000000000
0.12896969696970 0.12606060606061 1.81333333333333 -0.00000000000000 0.00000000000000 -1.00000000000000
0.15367781155015 0.12644376899696 1.81884498480243 0.00000000000000 0.00000000000000 1.00000000000000
0.17799392097264 0.12644376899696 1.81884498480243 0.00000000000000 -0.00000000000000 1.00000000000000
0.20417177914110 0.12760736196319 1.83558282208589 -0.00000000000000 0.00000000000000 -1.00000000000000
0.23083591331269 0.12879256965944 1.85263157894737 0.00000000000000 -0.00000000000000 1.00000000000000
0.28766550522648 0.14494773519164 2.08501742160279 0.00000000000000 0.00000000000000 -1.00000000000000
0.31444444444444 0.14444444444444 2.07777777777778 nan nan nan
0.34103806228374 0.14394463667820 2.07058823529412 -0.00000000000000 0.00000000000000 -1.00000000000000
-0.36774193548387 0.16838709677419 2.41290322580645 -0.00000000000000 0.00000000000000 1.00000000000000
-0.33548387096774 0.16838709677419 2.41290322580645 -0.00000000000000 0.00000000000000 -1.00000000000000
-0.24336569579288 0.13514563106796 1.93656957928803 0.00000000000000 0.00000000000000 1.00000000000000
-0.21265822784810 0.13215189873418 1.89367088607595 0.00000000000000 0.00000000000000 -1.00000000000000
-0.18500000000000 0.13050000000000 1.87000000000000 -0.00000000000000 -0.00000000000000 -1.00000000000000
-0.15851393188854 0.12928792569659 1.85263157894737 0.00000000000000 -0.00000000000000 1.00000000000000
-0.13292307692308 0.12849230769231 1.84123076923077 0.00000000000000 0.00000000000000 1.00000000000000
-0.10764525993884 0.12770642201835 1.82996941896024 0.00000000000000 0.00000000000000 1.00000000000000
-0.08267477203647 0.12693009118541 1.81884498480243 0.00000000000000 -0.00000000000000 1.00000000000000
-0.05835866261398 0.12693009118541 1.81884498480243 0.00000000000000 -0.00000000000000 1.00000000000000
-0.03435582822086 0.12809815950920 1.83558282208589 0.00000000000000 0.00000000000000 -1.00000000000000
-0.01000000000000 0.13050000000000 1.87000000000000 0.00000000000000 -0.00000000000000 1.00000000000000
0.01467889908257 0.12770642201835 1.82996941896024 -0.00000000000000 -0.00000000000000 -1.00000000000000
0.03867069486405 0.12616314199396 1.80785498489426 0.00000000000000 -0.00000000000000 1.00000000000000
0.06265060240964 0.12578313253012 1.80240963855422 0.00000000000000 -0.00000000000000 1.00000000000000
0.08674698795181 0.12578313253012 1.80240963855422 0.00000000000000 -0.00000000000000 1.00000000000000
0.11117824773414 0.12616314199396 1.80785498489426 -0.00000000000000 0.00000000000000 1.00000000000000
0.13575757575758 0.12654545454545 1.81333333333333 0.00000000000000 -0.00000000000000 -1.00000000000000
0.16048632218845 0.12693009118541 1.81884498480243 0.00000000000000 -0.00000000000000 1.00000000000000
0.18480243161094 0.12693009118541 1.81884498480243 0.00000000000000 -0.00000000000000 1.00000000000000
0.21234567901235 0.12888888888889 1.84691358024691 0.00000000000000 0.00000000000000 -1.00000000000000
0.23777089783282 0.12928792569659 1.85263157894737 0.00000000000000 0.00000000000000 1.00000000000000
0.29547038327526 0.14550522648084 2.08501742160279 0.00000000000000 0.00000000000000 1.00000000000000
0.32110726643599 0.14449826989619 2.07058823529412 0.00000000000000 0.00000000000000 -1.00000000000000
-0.39096774193548 0.16903225806452 2.41290322580645 -0.00000000000000 0.00000000000000 1.00000000000000
-0.35870967741935 0.16903225806452 2.41290322580645 -0.00000000000000 0.00000000000000 1.00000000000000
-0.26285714285714 0.13610389610390 1.94285714285714 0.00000000000000 0.00000000000000 -1.00000000000000
-0.23535483870968 0.13522580645161 1.93032258064516 0.00000000000000 0.00000000000000 1.00000000000000
-0.20427672955975 0.13182389937107 1.88176100628931 0.95805829575658 0.27373094164474 0.08482731587333
-0.17744548286604 0.13059190031153 1.86417445482866 0.00000000000000 0.00000000000000 -1.00000000000000
-0.15111111111111 0.12938271604938 1.84691358024691 0.00000000000000 -0.00000000000000 1.00000000000000
-0.12564417177914 0.12858895705521 1.83558282208589 0.00000000000000 0.00000000000000 1.00000000000000
-0.10048780487805 0.12780487804878 1.82439024390244 -0.00000000000000 0.00000000000000 -1.00000000000000
-0.07586626139818 0.12741641337386 1.81884498480243 0.00000000000000 -0.00000000000000 1.00000000000000
-0.05170731707317 0.12780487804878 1.82439024390244 -0.00000000000000 0.00000000000000 -1.00000000000000
-0.02756923076923 0.12898461538462 1.84123076923077 0.00000000000000 0.00000000000000 -1.00000000000000
-0.00298136645963 0.13018633540373 1.85838509316770 0.00000000000000 0.00000000000000 1.00000000000000
0.02139817629179 0.12741641337386 1.81884498480243 0.00000000000000 -0.00000000000000 1.00000000000000
0.04543806646526 0.12664652567976 1.80785498489426 -0.00000000000000 0.00000000000000 -1.00000000000000
0.06939759036145 0.12626506024096 1.80240963855422 -0.00000000000000 0.00000000000000 -1.00000000000000
