0.000000000000000000e+00 -0.000000000000000000e+00 2.163331530557057916e-06
0.000000000000000000e+00 0.000000000000000000e+00 6.946535485452133671e-06
0.000000000000000000e+00 0.000000000000000000e+00 -1.127068125985068221e-05
4.377148708945845338e-06 8.754297417891903450e-05 4.894448101820890112e-06
4.299815484814925053e-06 8.599630969629346630e-05 4.807975496657237015e-06
-3.969096776679292360e-04 2.334762809811266634e-05 -5.521651618390815204e-05
0.000000000000000000e+00 -0.000000000000000000e+00 1.242223969099745501e-06
0.000000000000000000e+00 0.000000000000000000e+00 -5.912731774466158239e-06
0.000000000000000000e+00 0.000000000000000000e+00 7.527734462018366019e-06
0.000000000000000000e+00 0.000000000000000000e+00 7.394699065158723814e-06
0.000000000000000000e+00 0.000000000000000000e+00 -5.503908635116608512e-06
0.000000000000000000e+00 0.000000000000000000e+00 7.180681518754942469e-06
0.000000000000000000e+00 0.000000000000000000e+00 -1.075404326822088556e-05
0.000000000000000000e+00 0.000000000000000000e+00 -1.075404326822088556e-05
0.000000000000000000e+00 -0.000000000000000000e+00 1.087982048296195030e-06
0.000000000000000000e+00 -0.000000000000000000e+00 1.127068125985076522e-06
0.000000000000000000e+00 0.000000000000000000e+00 -5.503908635116600042e-06
0.000000000000000000e+00 0.000000000000000000e+00 -5.345985499014336198e-06
0.000000000000000000e+00 -0.000000000000000000e+00 1.056942792971333553e-06
0.000000000000000000e+00 0.000000000000000000e+00 6.975822433610804501e-06
0.000000000000000000e+00 0.000000000000000000e+00 -1.056942792971324067e-05
0.000000000000000000e+00 -0.000000000000000000e+00 1.063043460206487494e-06
0.000000000000000000e+00 -0.000000000000000000e+00 1.069197099802801552e-06
0.000000000000000000e+00 -0.000000000000000000e+00 1.075404326822043494e-06
0.000000000000000000e+00 -0.000000000000000000e+00 1.100781727023328140e-05
0.000000000000000000e+00 0.000000000000000000e+00 7.482993197278852527e-06
-1.327332168257746315e-05 -4.424440560859153930e-05 -1.021288646040033540e-05
4.330528452563623091e-06 8.661056905126738301e-05 4.842318178775700783e-06
4.254288280285522016e-06 8.508576560570876998e-05 4.757067804318804826e-06
0.000000000000000000e+00 0.000000000000000000e+00 -1.043468134043727471e-05
-0.000000000000000000e+00 -0.000000000000000000e+00 -1.211834319526652545e-06
0.000000000000000000e+00 0.000000000000000000e+00 -6.195991251030984652e-06
-0.000000000000000000e+00 -0.000000000000000000e+00 -1.127068125985081435e-05
-0.000000000000000000e+00 -0.000000000000000000e+00 -1.107266435986130448e-06
0.000000000000000000e+00 -0.000000000000000000e+00 -1.094353818268877938e-05
0.000000000000000000e+00 -0.000000000000000000e+00 -1.081665765278522436e-05
-0.000000000000000000e+00 -0.000000000000000000e+00 -1.075404326822107868e-06
-0.000000000000000000e+00 0.000000000000000000e+00 7.571660356949670094e-06
-0.000000000000000000e+00 0.000000000000000000e+00 7.750865051903002497e-06
1.254534164042932992e-05 2.509068328085860478e-06 8.909205186358164007e-07
-0.000000000000000000e+00 -0.000000000000000000e+00 -1.081665765278525654e-05
0.000000000000000000e+00 -0.000000000000000000e+00 -1.063043460206457001e-05
0.000000000000000000e+00 -0.000000000000000000e+00 -1.056942792971336772e-05
-0.000000000000000000e+00 -0.000000000000000000e+00 -1.056942792971298401e-06
-0.000000000000000000e+00 0.000000000000000000e+00 1.063043460206452258e-05
0.000000000000000000e+00 0.000000000000000000e+00 -8.929565065734345198e-06
0.000000000000000000e+00 0.000000000000000000e+00 -8.981255638344071666e-06
1.189781538195274905e-05 2.379563076390493143e-06 -4.084704532200851593e-07
-0.000000000000000000e+00 0.000000000000000000e+00 7.889476881895602568e-06
-0.000000000000000000e+00 -0.000000000000000000e+00 -1.127068125985048358e-06
3.794707603699265519e-19 2.127197449353753693e-04 -1.052223337247180091e-05
4.284567912173574084e-06 8.569135824346979101e-05 4.790925938158356213e-06
2.359574929516418450e-05 2.949468661895486132e-05 1.230732832554588651e-05
1.438350723219513902e-05 5.753402892878056115e-06 3.648949642221042769e-06
-0.000000000000000000e+00 -0.000000000000000000e+00 -2.350780532598757963e-06
-0.000000000000000000e+00 -0.000000000000000000e+00 -2.267573696145148395e-06
0.000000000000000000e+00 0.000000000000000000e+00 9.801515823913850716e-06
0.000000000000000000e+00 0.000000000000000000e+00 -8.535959782497073769e-06
-0.000000000000000000e+00 -0.000000000000000000e+00 -2.163331530557051563e-06
-0.000000000000000000e+00 -0.000000000000000000e+00 -2.150808653644183550e-06
0.000000000000000000e+00 0.000000000000000000e+00 -8.388153749212339560e-06
-0.000000000000000000e+00 0.000000000000000000e+00 5.471769091344309224e-06
1.269558391411825250e-05 0.000000000000000000e+00 -2.131771844402712923e-06
-0.000000000000000000e+00 -0.000000000000000000e+00 -2.188707636537727501e-06
0.000000000000000000e+00 0.000000000000000000e+00 -8.291738989610409672e-06
0.000000000000000000e+00 -0.000000000000000000e+00 -1.056942792971335247e-05
-0.000000000000000000e+00 0.000000000000000000e+00 1.056942792971336772e-05
0.000000000000000000e+00 0.000000000000000000e+00 -8.244153785176334631e-06
-0.000000000000000000e+00 -0.000000000000000000e+00 -2.126086920412885203e-06
-0.000000000000000000e+00 -0.000000000000000000e+00 -2.138394199605731430e-06
0.000000000000000000e+00 0.000000000000000000e+00 -8.388153749212371748e-06
0.000000000000000000e+00 0.000000000000000000e+00 -8.636678200692000029e-06
0.000000000000000000e+00 0.000000000000000000e+00 -8.791131382683662430e-06
4.165144064287168638e-06 -1.249543219286076696e-04 -7.439348221777728268e-07
4.165144064287168638e-06 8.330288128573885300e-05 4.768755851143897370e-06
-8.448657007327426197e-05 -4.224328503662628896e-06 -5.030565318079425617e-05
-0.000000000000000000e+00 -0.000000000000000000e+00 -3.726671907298918020e-06
1.373309633185245670e-05 8.239857799111566518e-06 4.265338154834366175e-06
-0.000000000000000000e+00 -0.000000000000000000e+00 -3.421697482735577565e-06
0.000000000000000000e+00 0.000000000000000000e+00 -9.187353383985228384e-06
0.000000000000000000e+00 0.000000000000000000e+00 -7.925628434567985985e-06
-0.000000000000000000e+00 -0.000000000000000000e+00 -3.263946144888656030e-06
0.000000000000000000e+00 0.000000000000000000e+00 -7.742911153119091272e-06
-0.000000000000000000e+00 -0.000000000000000000e+00 -3.226212980466297771e-06
0.000000000000000000e+00 0.000000000000000000e+00 -7.787993510005400026e-06
-0.000000000000000000e+00 0.000000000000000000e+00 3.341425849061522499e-06
1.954537567239276064e-05 2.198854763144181845e-05 7.300119423094780064e-06
-0.000000000000000000e+00 -0.000000000000000000e+00 -1.182944759504312303e-05
0.000000000000000000e+00 0.000000000000000000e+00 -1.183775928127879621e-05
0.000000000000000000e+00 -0.000000000000000000e+00 -1.056942792971338297e-05
-0.000000000000000000e+00 -0.000000000000000000e+00 -3.170828378913991343e-06
0.000000000000000000e+00 -0.000000000000000000e+00 -1.063043460206452258e-05
-0.000000000000000000e+00 0.000000000000000000e+00 1.069197099802859277e-05
0.000000000000000000e+00 0.000000000000000000e+00 -7.698219118580569451e-06
0.000000000000000000e+00 0.000000000000000000e+00 -7.879347491535700589e-06
0.000000000000000000e+00 0.000000000000000000e+00 -8.114890507092591276e-06
-0.000000000000000000e+00 -0.000000000000000000e+00 -3.381204377955211354e-06
4.165144064287168638e-06 8.330288128573885300e-05 -1.104542749454519884e-05
-4.150529523710479331e-06 1.245158857113139801e-04 7.968128871721513897e-07
0.000000000000000000e+00 0.000000000000000000e+00 -9.937791752797396500e-06
1.976592143367150153e-05 -2.823703061953003280e-06 1.679121820797844581e-06
-0.000000000000000000e+00 -0.000000000000000000e+00 -5.806357961968379181e-06
0.000000000000000000e+00 0.000000000000000000e+00 -7.889476881895563605e-06
0.000000000000000000e+00 0.000000000000000000e+00 -8.858131487889187578e-06
-0.000000000000000000e+00 -0.000000000000000000e+00 -5.471769091344422726e-06
0.000000000000000000e+00 -0.000000000000000000e+00 -2.163331530557090103e-06
-0.000000000000000000e+00 0.000000000000000000e+00 9.678638941398893736e-06
0.000000000000000000e+00 0.000000000000000000e+00 -8.603234614576785020e-06
0.000000000000000000e+00 0.000000000000000000e+00 -8.754830546150876123e-06
0.000000000000000000e+00 -0.000000000000000000e+00 -2.308614921227513507e-06
0.000000000000000000e+00 0.000000000000000000e+00 -8.653326122228221498e-06
-0.000000000000000000e+00 -0.000000000000000000e+00 -5.315217301032277383e-06
0.000000000000000000e+00 -0.000000000000000000e+00 8.407155934680284536e-06
-0.000000000000000000e+00 0.000000000000000000e+00 9.512485136741922359e-06
0.000000000000000000e+00 -0.000000000000000000e+00 8.455542343770663344e-06
-0.000000000000000000e+00 -0.000000000000000000e+00 -5.315217301032277383e-06
-0.000000000000000000e+00 0.000000000000000000e+00 9.622773898225907478e-06
-0.000000000000000000e+00 0.000000000000000000e+00 1.081665765278496559e-06
0.000000000000000000e+00 0.000000000000000000e+00 -8.910468930830900587e-06
-0.000000000000000000e+00 -0.000000000000000000e+00 -5.635340629925374139e-06
-1.185846126156020475e-20 4.136017182716115266e-06 1.105886947250368170e-07
4.136017182718589449e-06 -1.240805154815523997e-04 -7.940268281265122636e-07
-2.323261515181733315e-05 -1.161630757590960847e-05 -5.103099825459492507e-06
0.000000000000000000e+00 -0.000000000000000000e+00 -1.242223969099745501e-06
-0.000000000000000000e+00 -0.000000000000000000e+00 -1.182546354893312624e-06
0.000000000000000000e+00 0.000000000000000000e+00 -1.315192743764151959e-05
0.000000000000000000e+00 0.000000000000000000e+00 -1.292017994970465474e-05
-0.000000000000000000e+00 -0.000000000000000000e+00 -7.705472089163198723e-06
0.000000000000000000e+00 0.000000000000000000e+00 -1.254732287723082325e-05
-0.000000000000000000e+00 0.000000000000000000e+00 8.603234614576702011e-06
-0.000000000000000000e+00 0.000000000000000000e+00 8.603234614576734198e-06
-0.000000000000000000e+00 0.000000000000000000e+00 8.703856386369575489e-06
0.000000000000000000e+00 -0.000000000000000000e+00 -1.127068125985076522e-06
-0.000000000000000000e+00 -0.000000000000000000e+00 -7.705472089163239381e-06
-0.000000000000000000e+00 -0.000000000000000000e+00 -7.484379698620060004e-06
0.000000000000000000e+00 -0.000000000000000000e+00 -1.056942792971333553e-06
0.000000000000000000e+00 0.000000000000000000e+00 -1.219037610528653624e-05
-0.000000000000000000e+00 0.000000000000000000e+00 8.455542343770604052e-06
-0.000000000000000000e+00 0.000000000000000000e+00 8.504347681651739020e-06
-0.000000000000000000e+00 0.000000000000000000e+00 8.553576798422990094e-06
-0.000000000000000000e+00 0.000000000000000000e+00 8.603234614576734198e-06
-0.000000000000000000e+00 -0.000000000000000000e+00 -1.100781727023295529e-06
0.000000000000000000e+00 0.000000000000000000e+00 -1.307399026142701200e-05
-9.123281496506533165e-05 7.933288257831757717e-05 -4.182794415940815848e-05
4.107093985636395039e-06 8.624897369836266614e-05 -1.114955220218388576e-05
8.243211946045072362e-06 -4.945927167626820140e-05 3.654343691588958195e-06
-0.000000000000000000e+00 -0.000000000000000000e+00 -7.453343814598806316e-07
0.000000000000000000e+00 0.000000000000000000e+00 -1.211834319526652545e-06
-0.000000000000000000e+00 -0.000000000000000000e+00 -6.884434723368823516e-07
0.000000000000000000e+00 0.000000000000000000e+00 -1.344490739119774327e-05
0.000000000000000000e+00 -0.000000000000000000e+00 -1.040830449827005608e-05
0.000000000000000000e+00 0.000000000000000000e+00 -1.305578457955446996e-05
0.000000000000000000e+00 0.000000000000000000e+00 -1.290485192186515890e-05
-0.000000000000000000e+00 0.000000000000000000e+00 9.033396345305587849e-06
0.000000000000000000e+00 0.000000000000000000e+00 1.441041797941606536e-05
0.000000000000000000e+00 0.000000000000000000e+00 -7.045003052949353628e-06
-0.000000000000000000e+00 -0.000000000000000000e+00 -6.762408755910542140e-07
0.000000000000000000e+00 0.000000000000000000e+00 -1.527074144087377266e-05
0.000000000000000000e+00 0.000000000000000000e+00 -1.268331351565601280e-05
0.000000000000000000e+00 0.000000000000000000e+00 -1.261073390202046238e-05
-0.000000000000000000e+00 0.000000000000000000e+00 8.878319460959100543e-06
0.000000000000000000e+00 0.000000000000000000e+00 -1.268331351565598400e-05
-0.000000000000000000e+00 0.000000000000000000e+00 8.929565065734345198e-06
-0.000000000000000000e+00 0.000000000000000000e+00 8.981255638344071666e-06
1.182864203670877699e-05 2.365728407341699325e-06 -2.141806520657582079e-06
0.000000000000000000e+00 0.000000000000000000e+00 2.375266972444934537e-05
-0.000000000000000000e+00 0.000000000000000000e+00 9.467372258274747138e-06
4.107093985636395039e-06 8.624897369836266614e-05 4.554042448779543659e-06
-4.336808689942017736e-19 2.004053653981966614e-04 -9.913099625311494483e-06
-3.040484874879776245e-04 -5.894817614562866719e-05 -1.813490119222536316e-05
-0.000000000000000000e+00 -0.000000000000000000e+00 -2.469040546274932397e-07
-0.000000000000000000e+00 -0.000000000000000000e+00 -2.350780532597290902e-07
0.000000000000000000e+00 -0.000000000000000000e+00 -9.977324263038474554e-06
0.000000000000000000e+00 -0.000000000000000000e+00 -9.801515823913849022e-06
-0.000000000000000000e+00 0.000000000000000000e+00 8.535959782497072075e-06
0.000000000000000000e+00 -0.000000000000000000e+00 -9.518658734451014171e-06
0.000000000000000000e+00 -0.000000000000000000e+00 -9.463558076034499098e-06
-0.000000000000000000e+00 0.000000000000000000e+00 8.388153749212339560e-06
0.000000000000000000e+00 0.000000000000000000e+00 8.703856386369575489e-06
-5.048095680984697399e-06 -2.524047840492396133e-06 3.306907598504034028e-08
0.000000000000000000e+00 0.000000000000000000e+00 -2.188707636537727501e-06
-0.000000000000000000e+00 0.000000000000000000e+00 8.291738989610409672e-06
0.000000000000000000e+00 -0.000000000000000000e+00 1.155983941018548695e-05
0.000000000000000000e+00 -0.000000000000000000e+00 1.155983941018541580e-05
-0.000000000000000000e+00 0.000000000000000000e+00 8.244153785176334631e-06
-0.000000000000000000e+00 0.000000000000000000e+00 8.291738989610407978e-06
0.000000000000000000e+00 -0.000000000000000000e+00 -9.408934478265281988e-06
-0.000000000000000000e+00 0.000000000000000000e+00 8.388153749212371748e-06
-0.000000000000000000e+00 0.000000000000000000e+00 8.636678200692000029e-06
-0.000000000000000000e+00 0.000000000000000000e+00 8.791131382683662430e-06
7.906026098869520615e-06 -3.557711744491567863e-05 2.818899947284226289e-06
1.558540622947912624e-19 1.943655623168784720e-04 -9.614339312464952362e-06
8.157045967515255631e-06 -2.365543330579318593e-04 1.294658418801326928e-05
0.000000000000000000e+00 -0.000000000000000000e+00 -1.142846051571711583e-05
-0.000000000000000000e+00 -0.000000000000000000e+00 -2.154700782762261435e-06
-0.000000000000000000e+00 -0.000000000000000000e+00 -2.053018489641341287e-06
0.000000000000000000e+00 -0.000000000000000000e+00 -1.030776233325167833e-05
-0.000000000000000000e+00 0.000000000000000000e+00 7.925628434567985985e-06
0.000000000000000000e+00 -0.000000000000000000e+00 -1.000943484432511752e-05
-0.000000000000000000e+00 0.000000000000000000e+00 7.742911153119091272e-06
0.000000000000000000e+00 -0.000000000000000000e+00 -9.893719806763371383e-06
-0.000000000000000000e+00 0.000000000000000000e+00 7.787993510005400026e-06
-1.710220371334369944e-05 1.710220371334361135e-05 9.973236978289558806e-06
2.450378955978439047e-05 7.351136867935315616e-06 2.498207208327828814e-06
0.000000000000000000e+00 -0.000000000000000000e+00 1.154732867787096090e-05
0.000000000000000000e+00 -0.000000000000000000e+00 -9.723873695336220579e-06
0.000000000000000000e+00 -0.000000000000000000e+00 8.407155934679462914e-07
0.000000000000000000e+00 -0.000000000000000000e+00 -9.723873695336193474e-06
0.000000000000000000e+00 -0.000000000000000000e+00 8.455542343769773113e-07
0.000000000000000000e+00 -0.000000000000000000e+00 8.504347681649955168e-07
-0.000000000000000000e+00 0.000000000000000000e+00 7.698219118580569451e-06
-0.000000000000000000e+00 0.000000000000000000e+00 7.879347491535700589e-06
-0.000000000000000000e+00 0.000000000000000000e+00 8.114890507092591276e-06
-0.000000000000000000e+00 0.000000000000000000e+00 8.114890507092525207e-06
-5.802175688691957323e-19 -1.897446263728857065e-04 9.385763604006197418e-06
-3.066259269060567227e-19 1.586714645626749898e-05 -7.848722177565594606e-07
0.000000000000000000e+00 0.000000000000000000e+00 -9.937791752797396500e-06
-0.000000000000000000e+00 -0.000000000000000000e+00 -1.594954423027148430e-05
0.000000000000000000e+00 0.000000000000000000e+00 -5.806357961968380028e-06
-0.000000000000000000e+00 -0.000000000000000000e+00 -5.635340629925308917e-06
0.000000000000000000e+00 0.000000000000000000e+00 -8.858131487889185884e-06
0.000000000000000000e+00 -0.000000000000000000e+00 -9.849184364419637171e-06
0.000000000000000000e+00 -0.000000000000000000e+00 1.075404326822097535e-05
0.000000000000000000e+00 -0.000000000000000000e+00 1.069197099802865715e-05
0.000000000000000000e+00 0.000000000000000000e+00 -8.603234614576785020e-06
0.000000000000000000e+00 0.000000000000000000e+00 -8.754830546150874429e-06
5.154711884964023739e-06 -1.546413565489238885e-05 -7.191787865171626488e-06
0.000000000000000000e+00 0.000000000000000000e+00 -8.653326122228221498e-06
0.000000000000000000e+00 -0.000000000000000000e+00 -9.567391141858019838e-06
0.000000000000000000e+00 0.000000000000000000e+00 -8.407155934680284536e-06
0.000000000000000000e+00 -0.000000000000000000e+00 4.203577967339828866e-07
0.000000000000000000e+00 0.000000000000000000e+00 -8.455542343770661650e-06
0.000000000000000000e+00 0.000000000000000000e+00 -8.504347681651683115e-06
0.000000000000000000e+00 0.000000000000000000e+00 1.063043460206464455e-05
0.000000000000000000e+00 0.000000000000000000e+00 8.388153749212371748e-06
0.000000000000000000e+00 0.000000000000000000e+00 8.636678200692000029e-06
0.000000000000000000e+00 0.000000000000000000e+00 -9.016545007880783275e-06
7.797724371488827267e-06 -1.949431092872161924e-05 2.013022160607592359e-06
7.878763939907621649e-06 -1.969690984977031620e-05 1.926505246803636773e-06
-2.680859278059860573e-19 1.962875445236741566e-04 -9.709410624834032845e-06
0.000000000000000000e+00 -0.000000000000000000e+00 1.629566760541641644e-05
2.721548808685762247e-05 8.164646426057130886e-06 1.447369139164641554e-05
0.000000000000000000e+00 0.000000000000000000e+00 -9.977324263038462695e-06
0.000000000000000000e+00 0.000000000000000000e+00 -9.801515823913916785e-06
0.000000000000000000e+00 0.000000000000000000e+00 7.925628434567985985e-06
0.000000000000000000e+00 0.000000000000000000e+00 -9.518658734450904056e-06
0.000000000000000000e+00 0.000000000000000000e+00 7.742911153119091272e-06
0.000000000000000000e+00 -0.000000000000000000e+00 1.411340171739782811e-05
0.000000000000000000e+00 -0.000000000000000000e+00 -7.750351467376848102e-20
0.000000000000000000e+00 0.000000000000000000e+00 3.341425849061522499e-06
-0.000000000000000000e+00 -0.000000000000000000e+00 1.210859899725653161e-05
0.000000000000000000e+00 0.000000000000000000e+00 9.408934478265226084e-06
0.000000000000000000e+00 -0.000000000000000000e+00 1.387180729222249151e-05
0.000000000000000000e+00 -0.000000000000000000e+00 6.352747104407252543e-21
0.000000000000000000e+00 -0.000000000000000000e+00 1.387180729222254911e-05
-0.000000000000000000e+00 0.000000000000000000e+00 -6.395098751769967560e-20
-0.000000000000000000e+00 0.000000000000000000e+00 -1.537364799266555115e-19
-0.000000000000000000e+00 0.000000000000000000e+00 5.124549330888517051e-20
0.000000000000000000e+00 0.000000000000000000e+00 7.879347491535700589e-06
0.000000000000000000e+00 -0.000000000000000000e+00 1.054556019331603922e-19
0.000000000000000000e+00 0.000000000000000000e+00 8.114890507092526901e-06
7.797724371488344458e-06 -2.339317311446472336e-05 1.849353346927852584e-06
3.872065882061927704e-06 8.518544940536436783e-05 3.610132013569790108e-06
-0.000000000000000000e+00 0.000000000000000000e+00 1.380663704024509553e-19
1.964428499407872461e-05 -2.806326427725464627e-06 -7.623603343767649129e-07
-2.592882183098493460e-06 -5.185764366198720796e-06 -3.100366075620283356e-06
0.000000000000000000e+00 -0.000000000000000000e+00 1.120408949266481796e-05
0.000000000000000000e+00 0.000000000000000000e+00 8.858131487889187578e-06
0.000000000000000000e+00 -0.000000000000000000e+00 1.087982048296201341e-05
-0.000000000000000000e+00 0.000000000000000000e+00 1.029145030913974912e-19
0.000000000000000000e+00 -0.000000000000000000e+00 8.978549240895583594e-20
0.000000000000000000e+00 -0.000000000000000000e+00 -7.072725109573407831e-20
0.000000000000000000e+00 0.000000000000000000e+00 8.754830546150874429e-06
-5.154711884964023739e-06 1.546413565489238885e-05 7.191787865171627335e-06
0.000000000000000000e+00 0.000000000000000000e+00 8.653326122228221498e-06
0.000000000000000000e+00 -0.000000000000000000e+00 1.056942792971330335e-05
-0.000000000000000000e+00 0.000000000000000000e+00 0.000000000000000000e+00
0.000000000000000000e+00 -0.000000000000000000e+00 1.270549420881450509e-20
-0.000000000000000000e+00 0.000000000000000000e+00 1.270549420881450509e-20
0.000000000000000000e+00 0.000000000000000000e+00 8.504347681651681421e-06
-0.000000000000000000e+00 0.000000000000000000e+00 0.000000000000000000e+00
0.000000000000000000e+00 -0.000000000000000000e+00 -8.653326122228167288e-06
0.000000000000000000e+00 -0.000000000000000000e+00 -8.910468930830900587e-06
0.000000000000000000e+00 0.000000000000000000e+00 9.016545007880781581e-06
7.665110011429594457e-06 -2.299533003428738407e-05 1.869139125781744464e-06
3.898769784697041545e-06 8.577293526333687403e-05 3.635029475731805352e-06
-2.323261515181733992e-05 -1.161630757590960509e-05 -5.103099825459491660e-06
0.000000000000000000e+00 -0.000000000000000000e+00 8.394737857335860280e-06
0.000000000000000000e+00 0.000000000000000000e+00 -1.182546354893312624e-06
0.000000000000000000e+00 0.000000000000000000e+00 9.977324263038462695e-06
0.000000000000000000e+00 0.000000000000000000e+00 9.801515823913915090e-06
0.000000000000000000e+00 0.000000000000000000e+00 -7.441605964228436388e-06
0.000000000000000000e+00 0.000000000000000000e+00 9.518658734450904056e-06
0.000000000000000000e+00 0.000000000000000000e+00 -7.270540278659525147e-06
0.000000000000000000e+00 -0.000000000000000000e+00 7.270540278659487878e-06
0.000000000000000000e+00 -0.000000000000000000e+00 7.355327203894110415e-06
0.000000000000000000e+00 0.000000000000000000e+00 1.120408949266481711e-06
1.193260431581813090e-05 2.147868776847273794e-05 1.014016123971466586e-05
0.000000000000000000e+00 0.000000000000000000e+00 -7.228695529403913707e-06
0.000000000000000000e+00 -0.000000000000000000e+00 7.146082544478285055e-06
-0.000000000000000000e+00 0.000000000000000000e+00 -7.623296525288703052e-20
0.000000000000000000e+00 0.000000000000000000e+00 -7.146082544478240162e-06
0.000000000000000000e+00 0.000000000000000000e+00 -7.187210992205011242e-06
0.000000000000000000e+00 -0.000000000000000000e+00 7.228695529403919637e-06
0.000000000000000000e+00 0.000000000000000000e+00 -7.270540278659487878e-06
0.000000000000000000e+00 0.000000000000000000e+00 -9.686879197805382837e-06
-0.000000000000000000e+00 0.000000000000000000e+00 -5.293955920339377119e-20
2.973519575836223067e-05 -4.460279363754334939e-05 -1.780931510661195108e-06
-3.872065882061927704e-06 1.084178446977366998e-04 1.825254585581893236e-06
7.665110011429011698e-06 -2.299533003428766529e-05 1.715427026621963496e-06
0.000000000000000000e+00 -0.000000000000000000e+00 5.465785464038597636e-06
-1.102017791537619401e-05 2.755044478843931612e-06 -5.114511715672346110e-06
0.000000000000000000e+00 0.000000000000000000e+00 -3.442217361683800412e-06
0.000000000000000000e+00 0.000000000000000000e+00 -3.137145057946117875e-06
0.000000000000000000e+00 0.000000000000000000e+00 -3.082188835665282708e-06
0.000000000000000000e+00 0.000000000000000000e+00 1.000943484432511922e-05
0.000000000000000000e+00 0.000000000000000000e+00 9.893719806763345972e-06
0.000000000000000000e+00 0.000000000000000000e+00 -2.993751879447998337e-06
0.000000000000000000e+00 0.000000000000000000e+00 -3.011132115101870945e-06
0.000000000000000000e+00 0.000000000000000000e+00 -7.045003052949353628e-06
1.745955238952026422e-05 4.988443539862930094e-06 2.849014813140982289e-06
-0.000000000000000000e+00 -0.000000000000000000e+00 -7.957992018483497768e-06
0.000000000000000000e+00 0.000000000000000000e+00 9.723873695336249378e-06
0.000000000000000000e+00 -0.000000000000000000e+00 8.407155934681053219e-07
0.000000000000000000e+00 0.000000000000000000e+00 -2.942504577138146175e-06
0.000000000000000000e+00 -0.000000000000000000e+00 8.455542343770795905e-07
0.000000000000000000e+00 0.000000000000000000e+00 -2.959439820319689311e-06
0.000000000000000000e+00 0.000000000000000000e+00 -2.976521688578085702e-06
0.000000000000000000e+00 0.000000000000000000e+00 -3.028664142779950538e-06
0.000000000000000000e+00 0.000000000000000000e+00 8.910468930830900587e-06
0.000000000000000000e+00 0.000000000000000000e+00 -3.137145057946117875e-06
-7.484369000404520134e-06 -1.646561180088918061e-04 8.018680904978823821e-06
-1.372193374551966549e-19 1.922817699112725777e-04 -9.562676257619404381e-06
7.164270616543468332e-04 1.736792876737815671e-04 9.162472492442624882e-05
-0.000000000000000000e+00 0.000000000000000000e+00 -8.394737857335831481e-06
0.000000000000000000e+00 0.000000000000000000e+00 5.406795224977216076e-06
0.000000000000000000e+00 -0.000000000000000000e+00 2.254136251970162784e-06
0.000000000000000000e+00 -0.000000000000000000e+00 2.214532871972391339e-06
0.000000000000000000e+00 -0.000000000000000000e+00 2.626449163845281387e-06
0.000000000000000000e+00 -0.000000000000000000e+00 2.150808653644228442e-06
0.000000000000000000e+00 -0.000000000000000000e+00 2.566073039526890506e-06
0.000000000000000000e+00 -0.000000000000000000e+00 2.566073039526890506e-06
0.000000000000000000e+00 -0.000000000000000000e+00 2.595997836668478392e-06
0.000000000000000000e+00 -0.000000000000000000e+00 2.254136251970156008e-06
0.000000000000000000e+00 -0.000000000000000000e+00 2.175964096592404460e-06
0.000000000000000000e+00 -0.000000000000000000e+00 2.551304304495475712e-06
0.000000000000000000e+00 -0.000000000000000000e+00 2.522146780404067997e-06
0.000000000000000000e+00 -0.000000000000000000e+00 2.522146780404074349e-06
0.000000000000000000e+00 -0.000000000000000000e+00 2.522146780404061644e-06
0.000000000000000000e+00 -0.000000000000000000e+00 2.536662703131175032e-06
0.000000000000000000e+00 -0.000000000000000000e+00 2.551304304495472747e-06
0.000000000000000000e+00 -0.000000000000000000e+00 2.566073039526877800e-06
0.000000000000000000e+00 -0.000000000000000000e+00 2.641876144856008457e-06
0.000000000000000000e+00 -0.000000000000000000e+00 2.704963502364205845e-06
7.484369000404520134e-06 1.646561180088918061e-04 -9.195367795951891649e-06
-5.005964718272915004e-19 -1.919750258733335228e-04 9.496090852023336473e-06
-8.978549240895583594e-19 4.521379081065947207e-05 -2.248600291653165160e-06
0.000000000000000000e+00 0.000000000000000000e+00 -1.678947571467160875e-05
0.000000000000000000e+00 0.000000000000000000e+00 -8.379391932964656747e-06
0.000000000000000000e+00 0.000000000000000000e+00 -7.983960793049618869e-06
0.000000000000000000e+00 0.000000000000000000e+00 3.137145057946117875e-06
0.000000000000000000e+00 0.000000000000000000e+00 3.082188835665282708e-06
0.000000000000000000e+00 0.000000000000000000e+00 -4.110329908058356253e-06
0.000000000000000000e+00 0.000000000000000000e+00 -4.062948979250928850e-06
0.000000000000000000e+00 0.000000000000000000e+00 2.993751879447998337e-06
0.000000000000000000e+00 0.000000000000000000e+00 3.011132115101871369e-06
0.000000000000000000e+00 0.000000000000000000e+00 7.045003052949352781e-06
4.973684831165097786e-06 7.460527246747664890e-06 2.214885584573665317e-06
0.000000000000000000e+00 0.000000000000000000e+00 -4.062948979250933932e-06
0.000000000000000000e+00 0.000000000000000000e+00 -3.993399068973157178e-06
0.000000000000000000e+00 0.000000000000000000e+00 8.407155934680340441e-06
0.000000000000000000e+00 0.000000000000000000e+00 2.942504577138146175e-06
0.000000000000000000e+00 0.000000000000000000e+00 8.455542343770553230e-06
0.000000000000000000e+00 0.000000000000000000e+00 2.959439820319689311e-06
0.000000000000000000e+00 0.000000000000000000e+00 2.976521688578085702e-06
0.000000000000000000e+00 0.000000000000000000e+00 3.028664142779950538e-06
1.745955238952011853e-05 1.496533061958873692e-05 -5.950119420141359356e-06
0.000000000000000000e+00 0.000000000000000000e+00 3.137145057946117875e-06
-3.666966629929353294e-06 -9.900809900809897214e-05 -1.549146330291189439e-06
3.666966629929731917e-06 -8.067326585845031764e-05 -3.832666458929127212e-06
-7.164270616543469417e-04 -1.736792876737815671e-04 -9.162472492442624882e-05
1.995026602716206104e-05 2.850038003880287513e-05 3.900894262530310322e-06
-7.920503767334752951e-06 1.320083961222510155e-05 -3.113139181277856912e-07
-0.000000000000000000e+00 -0.000000000000000000e+00 -2.254136251970162784e-06
-0.000000000000000000e+00 -0.000000000000000000e+00 -2.214532871972391339e-06
-0.000000000000000000e+00 -0.000000000000000000e+00 -2.188707636537730042e-06
-0.000000000000000000e+00 -0.000000000000000000e+00 -2.150808653644228442e-06
-0.000000000000000000e+00 -0.000000000000000000e+00 -2.138394199605744135e-06
-0.000000000000000000e+00 -0.000000000000000000e+00 -2.138394199605744135e-06
-0.000000000000000000e+00 -0.000000000000000000e+00 -2.163331530557064268e-06
0.000000000000000000e+00 -0.000000000000000000e+00 -2.254136251970156008e-06
-0.000000000000000000e+00 -0.000000000000000000e+00 -2.175964096592404460e-06
-0.000000000000000000e+00 -0.000000000000000000e+00 -2.126086920412898332e-06
-0.000000000000000000e+00 -0.000000000000000000e+00 -2.101788983670053346e-06
0.000000000000000000e+00 -0.000000000000000000e+00 -2.522146780404074349e-06
-0.000000000000000000e+00 -0.000000000000000000e+00 -2.101788983670053346e-06
-0.000000000000000000e+00 -0.000000000000000000e+00 -2.113885585942648048e-06
-0.000000000000000000e+00 -0.000000000000000000e+00 -2.126086920412911038e-06
-0.000000000000000000e+00 -0.000000000000000000e+00 -2.138394199605731430e-06
-0.000000000000000000e+00 0.000000000000000000e+00 2.201563454046656280e-06
0.000000000000000000e+00 -0.000000000000000000e+00 -2.704963502364205845e-06
1.471742012282533434e-05 -2.207613018423799982e-05 2.590895563868511142e-05
3.630133444105992582e-06 -7.260266888211571812e-05 -4.152329110664022976e-06
-3.679355030706333585e-06 8.830452073695313768e-05 4.646415457226666602e-06
0.000000000000000000e+00 0.000000000000000000e+00 -5.465785464038597636e-06
-0.000000000000000000e+00 0.000000000000000000e+00 -1.035793594038164330e-05
-0.000000000000000000e+00 0.000000000000000000e+00 -7.802359353149956466e-06
0.000000000000000000e+00 -0.000000000000000000e+00 -3.137145057946117875e-06
0.000000000000000000e+00 -0.000000000000000000e+00 -3.082188835665282708e-06
-0.000000000000000000e+00 0.000000000000000000e+00 4.110329908058357100e-06
-0.000000000000000000e+00 0.000000000000000000e+00 4.062948979250928003e-06
0.000000000000000000e+00 -0.000000000000000000e+00 -2.993751879447998337e-06
0.000000000000000000e+00 -0.000000000000000000e+00 -3.011132115101870945e-06
0.000000000000000000e+00 -0.000000000000000000e+00 5.034027564036842582e-06
-4.973684831165097786e-06 -7.460527246747664890e-06 -2.214885584573664893e-06
-0.000000000000000000e+00 0.000000000000000000e+00 4.062948979250933932e-06
-0.000000000000000000e+00 0.000000000000000000e+00 3.993399068973157178e-06
0.000000000000000000e+00 -0.000000000000000000e+00 9.195102040816398358e-06
0.000000000000000000e+00 -0.000000000000000000e+00 -2.942504577138146175e-06
0.000000000000000000e+00 -0.000000000000000000e+00 9.247871528148485785e-06
0.000000000000000000e+00 -0.000000000000000000e+00 -2.959439820319689311e-06
0.000000000000000000e+00 -0.000000000000000000e+00 -2.976521688578085702e-06
0.000000000000000000e+00 -0.000000000000000000e+00 -3.028664142779950538e-06
0.000000000000000000e+00 0.000000000000000000e+00 -6.050208326038992348e-06
0.000000000000000000e+00 -0.000000000000000000e+00 -3.137145057946117875e-06
3.654661372782236605e-06 9.136653431955448195e-05 1.327013407550284900e-06
-1.670772488459107419e-19 -1.827330686391092553e-05 -5.423361128058521137e-07
9.044309028166345066e-04 1.507384838027713155e-04 1.253198375144609243e-04
0.000000000000000000e+00 -0.000000000000000000e+00 1.234520273137673086e-06
0.000000000000000000e+00 0.000000000000000000e+00 -5.876951331496794535e-06
0.000000000000000000e+00 0.000000000000000000e+00 -5.635340629925440207e-06
0.000000000000000000e+00 0.000000000000000000e+00 -5.536332179930717037e-06
0.000000000000000000e+00 -0.000000000000000000e+00 -7.003864436920884196e-06
0.000000000000000000e+00 0.000000000000000000e+00 -5.377021634110442780e-06
0.000000000000000000e+00 -0.000000000000000000e+00 -6.842861438738378353e-06
0.000000000000000000e+00 -0.000000000000000000e+00 -6.842861438738378353e-06
0.000000000000000000e+00 -0.000000000000000000e+00 -6.922660897782671727e-06
0.000000000000000000e+00 -0.000000000000000000e+00 1.120408949266481923e-06
0.000000000000000000e+00 0.000000000000000000e+00 -5.439910241480978751e-06
0.000000000000000000e+00 -0.000000000000000000e+00 -6.803478145321335481e-06
0.000000000000000000e+00 -0.000000000000000000e+00 -6.725724747744238640e-06
0.000000000000000000e+00 -0.000000000000000000e+00 1.044897959183674490e-06
0.000000000000000000e+00 -0.000000000000000000e+00 -6.725724747744232711e-06
0.000000000000000000e+00 -0.000000000000000000e+00 -6.764433875016483411e-06
0.000000000000000000e+00 -0.000000000000000000e+00 -6.803478145321358351e-06
0.000000000000000000e+00 -0.000000000000000000e+00 -6.842861438738340237e-06
0.000000000000000000e+00 -0.000000000000000000e+00 7.660476727882062559e-06
0.000000000000000000e+00 -0.000000000000000000e+00 1.120408949266580391e-06
7.827454477889132637e-05 7.115867707171942211e-05 1.112130211817169103e-04
-3.630133444105992582e-06 7.260266888211573167e-05 4.152329110664022976e-06
3.679355030706333585e-06 -8.830452073695313768e-05 -4.646415457226667449e-06
0.000000000000000000e+00 0.000000000000000000e+00 -2.469040546275222082e-06
-8.367329103526140158e-06 4.785736151986796916e-20 -3.512488420463967129e-07
0.000000000000000000e+00 0.000000000000000000e+00 -8.720283982932363777e-06
0.000000000000000000e+00 0.000000000000000000e+00 6.722453695599902473e-07
0.000000000000000000e+00 0.000000000000000000e+00 -8.365941125377338586e-06
0.000000000000000000e+00 0.000000000000000000e+00 1.087982048296201510e-05
0.000000000000000000e+00 0.000000000000000000e+00 -8.125897958501883110e-06
0.000000000000000000e+00 0.000000000000000000e+00 -2.126086920412833958e-06
0.000000000000000000e+00 0.000000000000000000e+00 1.026429215810762979e-05
0.000000000000000000e+00 0.000000000000000000e+00 -2.175964096592415895e-06
-1.113887377431294371e-03 -1.152125302328180570e-02 -1.133397520697085239e-03
0.000000000000000000e+00 0.000000000000000000e+00 -6.237345095568103495e-06
0.000000000000000000e+00 0.000000000000000000e+00 1.056942792971330335e-05
0.000000000000000000e+00 0.000000000000000000e+00 -7.941224489796009045e-06
0.000000000000000000e+00 0.000000000000000000e+00 -2.089795918367387096e-06
0.000000000000000000e+00 0.000000000000000000e+00 -7.986798137946319437e-06
0.000000000000000000e+00 0.000000000000000000e+00 -8.032765226582109255e-06
0.000000000000000000e+00 0.000000000000000000e+00 1.318173890656009189e-05
0.000000000000000000e+00 0.000000000000000000e+00 7.527830287754652588e-06
0.000000000000000000e+00 0.000000000000000000e+00 7.750865051903199008e-06
0.000000000000000000e+00 0.000000000000000000e+00 -8.515108014425226278e-06
-7.045102519104135111e-06 -3.874806385507182662e-05 -8.974970842853121784e-06
3.642356115634506241e-06 -8.377419065959889558e-05 -5.361275512451814919e-06
4.543641350846037833e-04 2.434093580810357905e-05 -4.894871075207123156e-04
0.000000000000000000e+00 0.000000000000000000e+00 -1.185139462212108158e-05
2.705004439027982970e-05 8.115013317083795427e-06 3.473109977596743948e-06
2.516535793348027641e-05 7.549607380044156445e-06 2.921603854202492875e-06
0.000000000000000000e+00 0.000000000000000000e+00 2.093960198745221726e-05
0.000000000000000000e+00 0.000000000000000000e+00 -1.050579665538116451e-05
0.000000000000000000e+00 0.000000000000000000e+00 -3.226212980466317252e-06
-0.000000000000000000e+00 -0.000000000000000000e+00 1.287490079826536515e-19
0.000000000000000000e+00 -0.000000000000000000e+00 -1.454108055731897406e-05
0.000000000000000000e+00 0.000000000000000000e+00 1.075404326822090081e-05
0.000000000000000000e+00 0.000000000000000000e+00 -3.321799307958484094e-06
0.000000000000000000e+00 0.000000000000000000e+00 -1.100781727023346351e-06
0.000000000000000000e+00 0.000000000000000000e+00 -1.020521721798196045e-05
0.000000000000000000e+00 0.000000000000000000e+00 -1.406074692442138563e-19
0.000000000000000000e+00 0.000000000000000000e+00 -1.003102040816324325e-05
0.000000000000000000e+00 -0.000000000000000000e+00 -1.429216508895649388e-05
0.000000000000000000e+00 0.000000000000000000e+00 -3.152683475505105431e-06
0.000000000000000000e+00 0.000000000000000000e+00 -3.170828378913965932e-06
0.000000000000000000e+00 0.000000000000000000e+00 1.020521721798196722e-05
0.000000000000000000e+00 0.000000000000000000e+00 -3.263946144888578950e-06
0.000000000000000000e+00 0.000000000000000000e+00 -3.361226847799399818e-06
0.000000000000000000e+00 0.000000000000000000e+00 1.523756171002414280e-05
-7.045102519104135111e-06 -3.874806385507182662e-05 -8.926936052950075294e-06
-7.045102519104135111e-06 -3.874806385507145392e-05 -8.832750190395111540e-06
-3.462795759825673149e-05 -1.442831566594007778e-05 -6.359260840570977788e-06
1.411851530976549328e-05 2.823703061953003280e-06 8.828224573106070245e-06
0.000000000000000000e+00 0.000000000000000000e+00 -3.019306140223712283e-06
0.000000000000000000e+00 0.000000000000000000e+00 -1.075592591295817700e-05
0.000000000000000000e+00 0.000000000000000000e+00 2.214532871972443855e-06
0.000000000000000000e+00 0.000000000000000000e+00 -5.166900978251232068e-20
0.000000000000000000e+00 0.000000000000000000e+00 2.150808653644228442e-06
0.000000000000000000e+00 0.000000000000000000e+00 2.138394199605731430e-06
0.000000000000000000e+00 0.000000000000000000e+00 2.138394199605731430e-06
0.000000000000000000e+00 0.000000000000000000e+00 6.489994591671125466e-06
0.000000000000000000e+00 0.000000000000000000e+00 -2.721088435374162150e-06
1.179425644939280791e-05 2.358851289878569036e-06 6.176532267855745863e-06
0.000000000000000000e+00 0.000000000000000000e+00 -3.388131789017201356e-21
0.000000000000000000e+00 0.000000000000000000e+00 -1.003102040816334828e-05
0.000000000000000000e+00 0.000000000000000000e+00 -1.003102040816336861e-05
0.000000000000000000e+00 0.000000000000000000e+00 2.101788983670078757e-06
0.000000000000000000e+00 0.000000000000000000e+00 2.113885585942648472e-06
0.000000000000000000e+00 0.000000000000000000e+00 2.126086920412885203e-06
0.000000000000000000e+00 0.000000000000000000e+00 6.415182598817194289e-06
0.000000000000000000e+00 0.000000000000000000e+00 6.604690362139851949e-06
0.000000000000000000e+00 0.000000000000000000e+00 -1.075592591295810923e-05
0.000000000000000000e+00 0.000000000000000000e+00 -1.356276420790058263e-05
0.000000000000000000e+00 0.000000000000000000e+00 -1.356276420790046574e-05
0.000000000000000000e+00 0.000000000000000000e+00 1.356276420790058263e-05
0.000000000000000000e+00 0.000000000000000000e+00 4.938081092550415365e-07
0.000000000000000000e+00 0.000000000000000000e+00 4.788223961692480933e-07
1.777381747976558264e-05 2.539116782823738762e-06 1.219319182339997158e-06
0.000000000000000000e+00 0.000000000000000000e+00 -1.069256271699691774e-05
0.000000000000000000e+00 0.000000000000000000e+00 -1.050579665538109844e-05
0.000000000000000000e+00 0.000000000000000000e+00 4.110329908058357100e-06
0.000000000000000000e+00 0.000000000000000000e+00 4.062948979250928003e-06
0.000000000000000000e+00 0.000000000000000000e+00 -1.020521721798199941e-05
0.000000000000000000e+00 0.000000000000000000e+00 1.133348925791025071e-05
0.000000000000000000e+00 0.000000000000000000e+00 3.283061454806617721e-06
1.232439119870801086e-05 2.464878239741591160e-06 3.102187666968968916e-06
0.000000000000000000e+00 0.000000000000000000e+00 4.062948979250933932e-06
0.000000000000000000e+00 0.000000000000000000e+00 3.993399068973156331e-06
0.000000000000000000e+00 0.000000000000000000e+00 3.134693877551001234e-06
0.000000000000000000e+00 0.000000000000000000e+00 -1.003102040816311620e-05
0.000000000000000000e+00 0.000000000000000000e+00 3.152683475505092725e-06
0.000000000000000000e+00 0.000000000000000000e+00 3.170828378913978637e-06
0.000000000000000000e+00 0.000000000000000000e+00 4.039565148784637571e-06
0.000000000000000000e+00 0.000000000000000000e+00 4.110329908058511260e-06
-0.000000000000000000e+00 0.000000000000000000e+00 8.739189804278585724e-06
0.000000000000000000e+00 0.000000000000000000e+00 4.257554007212592810e-06
0.000000000000000000e+00 0.000000000000000000e+00 -1.356276420790079100e-05
0.000000000000000000e+00 0.000000000000000000e+00 -1.356276420790084860e-05
9.980591415291444491e-04 2.052084216228143977e-04 1.471175786908909095e-04
0.000000000000000000e+00 0.000000000000000000e+00 6.172601365688020053e-06
0.000000000000000000e+00 0.000000000000000000e+00 5.876951331496794535e-06
0.000000000000000000e+00 0.000000000000000000e+00 5.635340629925440207e-06
-0.000000000000000000e+00 -0.000000000000000000e+00 -1.107266435986143365e-06
0.000000000000000000e+00 0.000000000000000000e+00 -1.044462766364352142e-05
0.000000000000000000e+00 0.000000000000000000e+00 5.377021634110442780e-06
0.000000000000000000e+00 0.000000000000000000e+00 -1.020521721798196722e-05
0.000000000000000000e+00 0.000000000000000000e+00 -1.020521721798198586e-05
0.000000000000000000e+00 0.000000000000000000e+00 1.139928586431426260e-05
0.000000000000000000e+00 -0.000000000000000000e+00 -1.120408949266481923e-06
-0.000000000000000000e+00 -0.000000000000000000e+00 -1.087982048296196089e-06
0.000000000000000000e+00 0.000000000000000000e+00 -1.014665081252483396e-05
0.000000000000000000e+00 0.000000000000000000e+00 -1.003102040816337539e-05
-0.000000000000000000e+00 -0.000000000000000000e+00 -1.044897959183674490e-06
0.000000000000000000e+00 0.000000000000000000e+00 -1.003102040816335167e-05
0.000000000000000000e+00 0.000000000000000000e+00 -1.008858712161624658e-05
0.000000000000000000e+00 0.000000000000000000e+00 -1.014665081252482888e-05
0.000000000000000000e+00 0.000000000000000000e+00 1.126826067818850723e-05
1.193260431581813090e-05 0.000000000000000000e+00 -2.360996575857060013e-06
-0.000000000000000000e+00 -0.000000000000000000e+00 -1.120408949266580391e-06
2.762605339044124083e-05 -2.762605339044170162e-05 -1.349540094768345113e-05
0.000000000000000000e+00 0.000000000000000000e+00 -1.356276420790055384e-05
0.000000000000000000e+00 0.000000000000000000e+00 -1.356276420790084860e-05
-0.000000000000000000e+00 0.000000000000000000e+00 2.469040546275222082e-06
0.000000000000000000e+00 0.000000000000000000e+00 -1.252587602092662911e-05
0.000000000000000000e+00 0.000000000000000000e+00 8.720283982932363777e-06
0.000000000000000000e+00 -0.000000000000000000e+00 -1.075592591295821596e-05
-0.000000000000000000e+00 -0.000000000000000000e+00 -5.063595944307360096e-06
0.000000000000000000e+00 -0.000000000000000000e+00 8.004326663061148592e-06
-0.000000000000000000e+00 -0.000000000000000000e+00 -4.918306659093259707e-06
0.000000000000000000e+00 0.000000000000000000e+00 -2.126086920412834381e-06
0.000000000000000000e+00 -0.000000000000000000e+00 -1.026429215810762979e-05
0.000000000000000000e+00 0.000000000000000000e+00 -2.175964096592415895e-06
-4.696254840705176015e-04 -8.191142164020901676e-06 -3.028532455723991488e-05
-0.000000000000000000e+00 -0.000000000000000000e+00 -4.946859903381601835e-06
0.000000000000000000e+00 -0.000000000000000000e+00 7.776619239579358911e-06
0.000000000000000000e+00 0.000000000000000000e+00 -2.089795918367355332e-06
0.000000000000000000e+00 0.000000000000000000e+00 -2.089795918367387096e-06
0.000000000000000000e+00 -0.000000000000000000e+00 -1.008858712161630926e-05
0.000000000000000000e+00 -0.000000000000000000e+00 -1.014665081252469335e-05
0.000000000000000000e+00 -0.000000000000000000e+00 7.821376667987814423e-06
-0.000000000000000000e+00 0.000000000000000000e+00 1.139928586431421686e-05
1.214421252371907795e-05 2.428842504743929940e-06 5.357740819288844076e-07
0.000000000000000000e+00 -0.000000000000000000e+00 -1.075592591295810923e-05
0.000000000000000000e+00 -0.000000000000000000e+00 1.045463074358996698e-05
0.000000000000000000e+00 -0.000000000000000000e+00 1.045463074358981960e-05
1.713743374012599422e-04 -1.170361328593975785e-04 -9.133668790999060257e-05
0.000000000000000000e+00 -0.000000000000000000e+00 -1.185139462212122049e-05
0.000000000000000000e+00 0.000000000000000000e+00 1.892074167829052187e-06
0.000000000000000000e+00 -0.000000000000000000e+00 6.536995130713526327e-06
0.000000000000000000e+00 -0.000000000000000000e+00 6.422145328719687464e-06
0.000000000000000000e+00 -0.000000000000000000e+00 -1.050579665538121533e-05
-0.000000000000000000e+00 0.000000000000000000e+00 3.226212980466316829e-06
0.000000000000000000e+00 -0.000000000000000000e+00 6.165652069197490587e-06
0.000000000000000000e+00 -0.000000000000000000e+00 6.165652069197458400e-06
-0.000000000000000000e+00 0.000000000000000000e+00 1.139928586431417112e-05
-0.000000000000000000e+00 0.000000000000000000e+00 3.321799307958484517e-06
-0.000000000000000000e+00 -0.000000000000000000e+00 -1.761250763237343489e-06
-0.000000000000000000e+00 -0.000000000000000000e+00 -1.700869536330315659e-06
0.000000000000000000e+00 -0.000000000000000000e+00 6.060408163265346302e-06
0.000000000000000000e+00 -0.000000000000000000e+00 -1.003102040816322970e-05
0.000000000000000000e+00 -0.000000000000000000e+00 6.060408163265362395e-06
-0.000000000000000000e+00 0.000000000000000000e+00 3.152683475505105431e-06
-0.000000000000000000e+00 0.000000000000000000e+00 3.170828378913965932e-06
0.000000000000000000e+00 -0.000000000000000000e+00 -1.020521721798196892e-05
-0.000000000000000000e+00 0.000000000000000000e+00 3.263946144888578526e-06
-0.000000000000000000e+00 0.000000000000000000e+00 3.361226847799399818e-06
0.000000000000000000e+00 -0.000000000000000000e+00 6.460089974852320594e-06
0.000000000000000000e+00 -0.000000000000000000e+00 8.194170042273178078e-06
0.000000000000000000e+00 -0.000000000000000000e+00 8.194170042273178078e-06
0.000000000000000000e+00 0.000000000000000000e+00 5.678793256433034421e-06
-0.000000000000000000e+00 -0.000000000000000000e+00 9.754610577655359870e-07
1.304250977643312262e-05 2.608501955286504331e-06 3.980406593267535914e-06
0.000000000000000000e+00 0.000000000000000000e+00 1.075592591295817700e-05
0.000000000000000000e+00 0.000000000000000000e+00 5.063595944307321132e-06
0.000000000000000000e+00 0.000000000000000000e+00 4.975662520281210759e-06
0.000000000000000000e+00 0.000000000000000000e+00 4.918306659093220744e-06
0.000000000000000000e+00 -0.000000000000000000e+00 7.016086837362881669e-06
0.000000000000000000e+00 0.000000000000000000e+00 4.889999916949741508e-06
-0.000000000000000000e+00 0.000000000000000000e+00 5.408328826392613025e-06
-0.000000000000000000e+00 0.000000000000000000e+00 2.721088435374162150e-06
1.172588394823643447e-05 2.345176789647294094e-06 5.062195781503513066e-06
0.000000000000000000e+00 0.000000000000000000e+00 4.834114662441210195e-06
