-0.000000000000000000e+00 0.000000000000000000e+00 3.291009058185985093e-06
-0.000000000000000000e+00 0.000000000000000000e+00 3.270408113127806847e-06
-0.000000000000000000e+00 0.000000000000000000e+00 3.270408113127803036e-06
-0.000000000000000000e+00 0.000000000000000000e+00 3.332799230892476740e-06
3.112384503794296521e-06 6.224769007588519350e-06 3.157322675774290202e-06
-0.000000000000000000e+00 0.000000000000000000e+00 3.270408113127803036e-06
-0.000000000000000000e+00 0.000000000000000000e+00 3.229782319659139759e-06
-0.000000000000000000e+00 0.000000000000000000e+00 3.209752710157777610e-06
0.000000000000000000e+00 -0.000000000000000000e+00 1.036997029435590106e-05
-0.000000000000000000e+00 0.000000000000000000e+00 3.229782319659149924e-06
-0.000000000000000000e+00 0.000000000000000000e+00 3.249999999999978201e-06
-0.000000000000000000e+00 0.000000000000000000e+00 3.249999999999978201e-06
0.000000000000000000e+00 0.000000000000000000e+00 -1.750000000000005945e-05
-0.000000000000000000e+00 0.000000000000000000e+00 3.332799230892491139e-06
-3.467640330828193097e-05 -2.196172209524526993e-04 -3.265515840956339860e-05
0.000000000000000000e+00 -0.000000000000000000e+00 -2.106995884773661477e-06
0.000000000000000000e+00 -0.000000000000000000e+00 -2.497398543184215178e-06
0.000000000000000000e+00 -0.000000000000000000e+00 -2.497398543184215178e-06
0.000000000000000000e+00 -0.000000000000000000e+00 -1.706666666666668396e-06
-0.000000000000000000e+00 0.000000000000000000e+00 -9.631819403386125922e-06
0.000000000000000000e+00 -0.000000000000000000e+00 6.659729448491160572e-06
-0.000000000000000000e+00 0.000000000000000000e+00 -9.204470742932336456e-06
0.000000000000000000e+00 -0.000000000000000000e+00 6.449987402368343196e-06
0.000000000000000000e+00 -0.000000000000000000e+00 -1.528525510254877780e-06
0.000000000000000000e+00 0.000000000000000000e+00 9.873027174558019229e-06
0.000000000000000000e+00 -0.000000000000000000e+00 -1.509419129135875456e-06
0.000000000000000000e+00 -0.000000000000000000e+00 -1.518927257624296593e-06
0.000000000000000000e+00 -0.000000000000000000e+00 -1.557872530325807867e-06
0.000000000000000000e+00 0.000000000000000000e+00 -1.281845858035603617e-06
0.000000000000000000e+00 -0.000000000000000000e+00 -1.500000000000030531e-06
0.000000000000000000e+00 -0.000000000000000000e+00 6.172601365688026829e-06
0.000000000000000000e+00 -0.000000000000000000e+00 -1.481424327765104281e-06
0.000000000000000000e+00 -0.000000000000000000e+00 -1.490668762919664066e-06
0.000000000000000000e+00 -0.000000000000000000e+00 6.211119845498381918e-06
0.000000000000000000e+00 -0.000000000000000000e+00 -1.500000000000023755e-06
0.000000000000000000e+00 -0.000000000000000000e+00 -1.500000000000023755e-06
0.000000000000000000e+00 -0.000000000000000000e+00 -1.518927257624317557e-06
0.000000000000000000e+00 0.000000000000000000e+00 1.006198034769464954e-05
3.507941084042431044e-05 -3.006806643464970662e-05 2.000651960497952094e-05
0.000000000000000000e+00 0.000000000000000000e+00 2.081165452653568200e-06
0.000000000000000000e+00 0.000000000000000000e+00 2.081165452653317478e-06
0.000000000000000000e+00 0.000000000000000000e+00 2.081165452653389476e-06
0.000000000000000000e+00 0.000000000000000000e+00 1.403447217227356825e-06
0.000000000000000000e+00 0.000000000000000000e+00 1.349300050598825098e-06
0.000000000000000000e+00 0.000000000000000000e+00 1.323394092286086292e-06
2.489907603035403674e-05 1.244953801517718608e-05 5.392580637590275879e-07
0.000000000000000000e+00 0.000000000000000000e+00 1.281845858035584559e-06
0.000000000000000000e+00 0.000000000000000000e+00 1.265772714686925227e-06
0.000000000000000000e+00 0.000000000000000000e+00 1.257849274279910366e-06
0.000000000000000000e+00 0.000000000000000000e+00 1.257849274279920531e-06
0.000000000000000000e+00 0.000000000000000000e+00 8.152136054692600179e-06
0.000000000000000000e+00 -0.000000000000000000e+00 -1.693944438126155692e-05
0.000000000000000000e+00 0.000000000000000000e+00 1.265772714686913369e-06
0.000000000000000000e+00 0.000000000000000000e+00 1.242223969099665880e-06
0.000000000000000000e+00 0.000000000000000000e+00 1.234520273137590289e-06
0.000000000000000000e+00 0.000000000000000000e+00 1.234520273137624593e-06
0.000000000000000000e+00 0.000000000000000000e+00 -4.968895876398725355e-06
0.000000000000000000e+00 0.000000000000000000e+00 -1.400000000000002520e-05
0.000000000000000000e+00 0.000000000000000000e+00 1.249999999999981679e-06
0.000000000000000000e+00 0.000000000000000000e+00 1.249999999999981679e-06
0.000000000000000000e+00 0.000000000000000000e+00 1.273771258545721001e-06
0.000000000000000000e+00 0.000000000000000000e+00 7.286948342862794919e-05
0.000000000000000000e+00 0.000000000000000000e+00 2.106995884773662324e-06
0.000000000000000000e+00 0.000000000000000000e+00 1.123829344432887746e-05
0.000000000000000000e+00 0.000000000000000000e+00 1.123829344432887746e-05
0.000000000000000000e+00 0.000000000000000000e+00 7.679999999999989149e-06
-4.358250889912766913e-05 -1.005750205364495501e-05 -1.693102484752629990e-05
0.000000000000000000e+00 0.000000000000000000e+00 7.192507804370446574e-06
1.879401411906585432e-05 1.879401411906602372e-05 8.799015701199053638e-06
0.000000000000000000e+00 0.000000000000000000e+00 6.965986394557892611e-06
0.000000000000000000e+00 0.000000000000000000e+00 6.878364796146791510e-06
0.000000000000000000e+00 0.000000000000000000e+00 7.547095645679564688e-06
0.000000000000000000e+00 0.000000000000000000e+00 6.792386081111592549e-06
0.000000000000000000e+00 0.000000000000000000e+00 1.518927257624296381e-06
0.000000000000000000e+00 0.000000000000000000e+00 1.557872530325807867e-06
-3.919668265221029505e-05 -9.045388304356221152e-06 -1.091009268474627677e-05
0.000000000000000000e+00 0.000000000000000000e+00 6.750000000000026006e-06
-0.000000000000000000e+00 0.000000000000000000e+00 -7.407121638825624741e-06
0.000000000000000000e+00 0.000000000000000000e+00 6.666409474943048037e-06
0.000000000000000000e+00 0.000000000000000000e+00 6.708009433138280457e-06
-0.000000000000000000e+00 0.000000000000000000e+00 -7.453343814598106244e-06
0.000000000000000000e+00 0.000000000000000000e+00 6.750000000000032782e-06
0.000000000000000000e+00 0.000000000000000000e+00 6.750000000000032782e-06
0.000000000000000000e+00 0.000000000000000000e+00 1.518927257624317557e-06
0.000000000000000000e+00 0.000000000000000000e+00 7.691075148213398087e-06
0.000000000000000000e+00 0.000000000000000000e+00 7.783198131590024062e-06
0.000000000000000000e+00 0.000000000000000000e+00 9.157127991675379563e-06
0.000000000000000000e+00 0.000000000000000000e+00 9.157127991675199992e-06
0.000000000000000000e+00 0.000000000000000000e+00 9.157127991675523558e-06
0.000000000000000000e+00 0.000000000000000000e+00 -3.624916947140304205e-06
0.000000000000000000e+00 0.000000000000000000e+00 -3.485510206219134081e-06
0.000000000000000000e+00 0.000000000000000000e+00 1.051939513477902463e-06
0.000000000000000000e+00 0.000000000000000000e+00 5.712199277861096177e-06
0.000000000000000000e+00 0.000000000000000000e+00 1.019017006836571211e-06
0.000000000000000000e+00 0.000000000000000000e+00 -3.291009058185985516e-06
0.000000000000000000e+00 0.000000000000000000e+00 5.534536806831703359e-06
0.000000000000000000e+00 0.000000000000000000e+00 5.534536806831688959e-06
0.000000000000000000e+00 0.000000000000000000e+00 -3.332799230892476740e-06
0.000000000000000000e+00 0.000000000000000000e+00 -1.038581686883851724e-06
0.000000000000000000e+00 0.000000000000000000e+00 -3.270408113127803036e-06
0.000000000000000000e+00 0.000000000000000000e+00 -3.229782319659139759e-06
0.000000000000000000e+00 0.000000000000000000e+00 -3.209752710157777610e-06
0.000000000000000000e+00 0.000000000000000000e+00 6.913313529570617086e-06
0.000000000000000000e+00 0.000000000000000000e+00 5.465785464038604413e-06
0.000000000000000000e+00 0.000000000000000000e+00 -3.249999999999978201e-06
0.000000000000000000e+00 0.000000000000000000e+00 5.499999999999940565e-06
0.000000000000000000e+00 0.000000000000000000e+00 9.559654484527525120e-06
0.000000000000000000e+00 0.000000000000000000e+00 5.640121775356588492e-06
-1.503335239184263282e-04 -1.036782923575356609e-04 2.415329972105266423e-04
-0.000000000000000000e+00 -0.000000000000000000e+00 -2.081165452653568200e-06
0.000000000000000000e+00 0.000000000000000000e+00 2.081165452653317478e-06
0.000000000000000000e+00 0.000000000000000000e+00 2.081165452653389052e-06
-0.000000000000000000e+00 -0.000000000000000000e+00 -1.403447217227356825e-06
-0.000000000000000000e+00 -0.000000000000000000e+00 -1.349300050598824886e-06
-0.000000000000000000e+00 -0.000000000000000000e+00 -1.323394092286086292e-06
0.000000000000000000e+00 0.000000000000000000e+00 -4.673617590977391414e-06
0.000000000000000000e+00 0.000000000000000000e+00 1.281845858035584771e-06
-0.000000000000000000e+00 -0.000000000000000000e+00 -1.265772714686925439e-06
-0.000000000000000000e+00 -0.000000000000000000e+00 -1.257849274279910154e-06
-0.000000000000000000e+00 -0.000000000000000000e+00 -1.257849274279920742e-06
0.000000000000000000e+00 -0.000000000000000000e+00 -8.152136054692600179e-06
0.000000000000000000e+00 0.000000000000000000e+00 -4.733727810650882107e-06
-0.000000000000000000e+00 -0.000000000000000000e+00 -1.265772714686913157e-06
0.000000000000000000e+00 0.000000000000000000e+00 1.242223969099665880e-06
0.000000000000000000e+00 0.000000000000000000e+00 1.234520273137590289e-06
0.000000000000000000e+00 0.000000000000000000e+00 1.234520273137624805e-06
0.000000000000000000e+00 0.000000000000000000e+00 4.968895876398726202e-06
0.000000000000000000e+00 0.000000000000000000e+00 -4.472006288758805640e-06
-0.000000000000000000e+00 -0.000000000000000000e+00 -1.249999999999981256e-06
-0.000000000000000000e+00 -0.000000000000000000e+00 -1.249999999999981256e-06
0.000000000000000000e+00 0.000000000000000000e+00 1.273771258545720578e-06
0.000000000000000000e+00 -0.000000000000000000e+00 -7.286948342862793564e-05
0.000000000000000000e+00 0.000000000000000000e+00 -8.779149519890253753e-06
0.000000000000000000e+00 0.000000000000000000e+00 -1.040582726326713373e-05
0.000000000000000000e+00 0.000000000000000000e+00 -1.040582726326713373e-05
0.000000000000000000e+00 0.000000000000000000e+00 7.111111111111046603e-06
0.000000000000000000e+00 0.000000000000000000e+00 -6.879871002418723569e-06
0.000000000000000000e+00 0.000000000000000000e+00 -6.659729448491168196e-06
0.000000000000000000e+00 0.000000000000000000e+00 -9.204470742932336456e-06
0.000000000000000000e+00 0.000000000000000000e+00 -6.449987402368329644e-06
0.000000000000000000e+00 0.000000000000000000e+00 6.368856292728492775e-06
0.000000000000000000e+00 0.000000000000000000e+00 4.025117677695779410e-06
0.000000000000000000e+00 0.000000000000000000e+00 6.289246371399655169e-06
0.000000000000000000e+00 0.000000000000000000e+00 4.025117677695779410e-06
0.000000000000000000e+00 0.000000000000000000e+00 3.095993953136809867e-06
0.000000000000000000e+00 0.000000000000000000e+00 -6.409229290177870703e-06
0.000000000000000000e+00 0.000000000000000000e+00 6.249999999999989288e-06
0.000000000000000000e+00 0.000000000000000000e+00 -6.172601365688048005e-06
0.000000000000000000e+00 0.000000000000000000e+00 3.926041656682262693e-06
0.000000000000000000e+00 -0.000000000000000000e+00 7.160217584198117525e-06
0.000000000000000000e+00 0.000000000000000000e+00 -6.211119845498346343e-06
0.000000000000000000e+00 0.000000000000000000e+00 6.249999999999989288e-06
0.000000000000000000e+00 0.000000000000000000e+00 -6.249999999999997758e-06
0.000000000000000000e+00 0.000000000000000000e+00 4.025117677695835314e-06
0.000000000000000000e+00 0.000000000000000000e+00 4.101906745713812313e-06
-5.604253451051209416e-04 4.172055346893677880e-04 -4.075304554249387784e-04
-0.000000000000000000e+00 0.000000000000000000e+00 7.492195629552619701e-06
-0.000000000000000000e+00 0.000000000000000000e+00 7.492195629552405402e-06
-0.000000000000000000e+00 0.000000000000000000e+00 7.492195629552405402e-06
-0.000000000000000000e+00 0.000000000000000000e+00 5.052409982018299409e-06
0.000000000000000000e+00 0.000000000000000000e+00 -1.349300050598824674e-06
-0.000000000000000000e+00 0.000000000000000000e+00 4.764218732229923527e-06
-0.000000000000000000e+00 0.000000000000000000e+00 4.673617590977391414e-06
0.000000000000000000e+00 0.000000000000000000e+00 -1.281845858035584559e-06
-0.000000000000000000e+00 0.000000000000000000e+00 4.556781772872952672e-06
0.000000000000000000e+00 0.000000000000000000e+00 -1.257849274279910366e-06
0.000000000000000000e+00 0.000000000000000000e+00 -1.257849274279920531e-06
0.000000000000000000e+00 -0.000000000000000000e+00 1.037933626043278780e-05
-0.000000000000000000e+00 0.000000000000000000e+00 4.733727810650882107e-06
0.000000000000000000e+00 0.000000000000000000e+00 -1.265772714686912945e-06
0.000000000000000000e+00 0.000000000000000000e+00 -1.242223969099665880e-06
0.000000000000000000e+00 0.000000000000000000e+00 -1.234520273137590289e-06
0.000000000000000000e+00 0.000000000000000000e+00 -1.234520273137624593e-06
0.000000000000000000e+00 -0.000000000000000000e+00 1.012306623972838792e-05
-0.000000000000000000e+00 0.000000000000000000e+00 4.472006288758805640e-06
0.000000000000000000e+00 0.000000000000000000e+00 -1.249999999999981256e-06
0.000000000000000000e+00 0.000000000000000000e+00 -1.249999999999981256e-06
-0.000000000000000000e+00 0.000000000000000000e+00 4.585576530764590354e-06
0.000000000000000000e+00 0.000000000000000000e+00 1.897131869892658862e-05
0.000000000000000000e+00 -0.000000000000000000e+00 -7.783198131590024062e-06
-0.000000000000000000e+00 -0.000000000000000000e+00 -1.664932362122544715e-06
-0.000000000000000000e+00 -0.000000000000000000e+00 -1.664932362122687864e-06
-0.000000000000000000e+00 -0.000000000000000000e+00 -1.664932362122544715e-06
-3.419178482945219879e-05 -2.051507089767128471e-05 -4.393735772469189890e-06
0.000000000000000000e+00 0.000000000000000000e+00 -1.145473465140476932e-05
-0.000000000000000000e+00 -0.000000000000000000e+00 -1.051939513477902039e-06
0.000000000000000000e+00 -0.000000000000000000e+00 -7.270071808186887103e-06
-0.000000000000000000e+00 -0.000000000000000000e+00 -1.019017006836571211e-06
0.000000000000000000e+00 0.000000000000000000e+00 -1.081750375880740076e-05
0.000000000000000000e+00 -0.000000000000000000e+00 -7.043955935967628155e-06
0.000000000000000000e+00 -0.000000000000000000e+00 -7.043955935967613755e-06
1.206051773914172476e-05 9.045388304356231316e-06 8.198894746461649231e-07
-0.000000000000000000e+00 -0.000000000000000000e+00 -1.038581686883831818e-06
0.000000000000000000e+00 0.000000000000000000e+00 -1.050000000000000789e-05
0.000000000000000000e+00 0.000000000000000000e+00 -1.036997029435589598e-05
0.000000000000000000e+00 0.000000000000000000e+00 -1.055123695233345748e-05
0.000000000000000000e+00 -0.000000000000000000e+00 -6.913313529570617086e-06
0.000000000000000000e+00 -0.000000000000000000e+00 -6.956454226958213633e-06
0.000000000000000000e+00 0.000000000000000000e+00 -1.068312613425723499e-05
0.000000000000000000e+00 -0.000000000000000000e+00 -6.999999999999943144e-06
0.000000000000000000e+00 0.000000000000000000e+00 8.999999999999829127e-06
0.000000000000000000e+00 -0.000000000000000000e+00 -7.178336804999246087e-06
-1.110902522162900575e-03 6.401811144667529999e-04 -4.174266823285370260e-04
-0.000000000000000000e+00 0.000000000000000000e+00 -5.618655692729747562e-06
-0.000000000000000000e+00 0.000000000000000000e+00 -6.659729448490841241e-06
-0.000000000000000000e+00 0.000000000000000000e+00 -6.659729448490841241e-06
0.000000000000000000e+00 0.000000000000000000e+00 -3.390691051975226974e-06
-0.000000000000000000e+00 0.000000000000000000e+00 -4.403117441547982339e-06
-0.000000000000000000e+00 0.000000000000000000e+00 -4.262226847034301567e-06
0.000000000000000000e+00 0.000000000000000000e+00 -3.135685778154275378e-06
-0.000000000000000000e+00 0.000000000000000000e+00 -7.481985386747328523e-06
0.000000000000000000e+00 0.000000000000000000e+00 -3.037854515248607162e-06
-0.000000000000000000e+00 0.000000000000000000e+00 -4.025117677695779410e-06
0.000000000000000000e+00 0.000000000000000000e+00 -3.000000000000005158e-06
-0.000000000000000000e+00 0.000000000000000000e+00 -4.025117677695779410e-06
-0.000000000000000000e+00 0.000000000000000000e+00 -3.095993953136809444e-06
-0.000000000000000000e+00 0.000000000000000000e+00 -4.101906745713812313e-06
0.000000000000000000e+00 0.000000000000000000e+00 -2.981337525839238347e-06
0.000000000000000000e+00 0.000000000000000000e+00 7.407121638825645070e-06
-0.000000000000000000e+00 0.000000000000000000e+00 -3.926041656682262693e-06
-0.000000000000000000e+00 0.000000000000000000e+00 -7.160217584198116678e-06
0.000000000000000000e+00 0.000000000000000000e+00 7.453343814598071515e-06
0.000000000000000000e+00 0.000000000000000000e+00 -2.981337525839217595e-06
0.000000000000000000e+00 0.000000000000000000e+00 7.499999999999999343e-06
-0.000000000000000000e+00 0.000000000000000000e+00 -4.025117677695834467e-06
-0.000000000000000000e+00 0.000000000000000000e+00 -4.101906745713812313e-06
-4.456558976421321893e-05 -4.367427796892908872e-04 6.691988024487164451e-06
-0.000000000000000000e+00 0.000000000000000000e+00 -3.476543209876568669e-05
0.000000000000000000e+00 -0.000000000000000000e+00 -3.080124869927161098e-05
0.000000000000000000e+00 -0.000000000000000000e+00 -3.080124869927161098e-05
0.000000000000000000e+00 0.000000000000000000e+00 -3.955806227304462739e-06
0.000000000000000000e+00 0.000000000000000000e+00 -3.802692866767730533e-06
-0.000000000000000000e+00 -0.000000000000000000e+00 9.263758646002304197e-06
-0.000000000000000000e+00 -0.000000000000000000e+00 9.087589760233534764e-06
-0.000000000000000000e+00 -0.000000000000000000e+00 8.972921006249010175e-06
-0.000000000000000000e+00 -0.000000000000000000e+00 8.860409002808275421e-06
0.000000000000000000e+00 -0.000000000000000000e+00 -1.861616925934302816e-05
0.000000000000000000e+00 0.000000000000000000e+00 -3.500000000000003759e-06
0.000000000000000000e+00 -0.000000000000000000e+00 -1.873343617736645728e-05
0.000000000000000000e+00 0.000000000000000000e+00 -2.336808795488699942e-06
-0.000000000000000000e+00 -0.000000000000000000e+00 1.164510897511955336e-05
-0.000000000000000000e+00 -0.000000000000000000e+00 8.695567783697710291e-06
0.000000000000000000e+00 0.000000000000000000e+00 -3.435286449596917070e-06
0.000000000000000000e+00 0.000000000000000000e+00 -3.435286449596940787e-06
-0.000000000000000000e+00 0.000000000000000000e+00 1.012306623972838792e-05
0.000000000000000000e+00 -0.000000000000000000e+00 -1.838491474267529559e-05
0.000000000000000000e+00 0.000000000000000000e+00 -3.478227113479186438e-06
0.000000000000000000e+00 -0.000000000000000000e+00 -1.849999999999993468e-05
0.000000000000000000e+00 0.000000000000000000e+00 -2.278390886436494124e-06
0.000000000000000000e+00 -0.000000000000000000e+00 -1.897131869892658862e-05
7.028630157098806849e-05 -2.723594185875789992e-04 9.918308618411393845e-05
0.000000000000000000e+00 0.000000000000000000e+00 7.492195629552619701e-06
0.000000000000000000e+00 0.000000000000000000e+00 7.492195629552405402e-06
0.000000000000000000e+00 0.000000000000000000e+00 7.492195629552405402e-06
0.000000000000000000e+00 0.000000000000000000e+00 5.052409982018299409e-06
6.532533578303343006e-06 9.798800367455230502e-06 5.184106861070671618e-06
0.000000000000000000e+00 0.000000000000000000e+00 4.764218732229923527e-06
0.000000000000000000e+00 0.000000000000000000e+00 4.673617590977391414e-06
3.015129434785451943e-06 -3.015129434785401968e-05 -8.053781565108676673e-06
0.000000000000000000e+00 0.000000000000000000e+00 4.556781772872952672e-06
2.931034482758667838e-06 -2.931034482758668007e-05 -7.994514106583117382e-06
0.000000000000000000e+00 -0.000000000000000000e+00 2.500000000000005710e-07
0.000000000000000000e+00 0.000000000000000000e+00 -1.037933626043278780e-05
0.000000000000000000e+00 0.000000000000000000e+00 4.733727810650882107e-06
5.936037558531824542e-06 8.904056337797718179e-06 4.139354532794319910e-06
2.876701446439028058e-06 -2.876701446439031869e-05 -8.095530140045641837e-06
0.000000000000000000e+00 -0.000000000000000000e+00 2.453776035427198218e-07
0.000000000000000000e+00 -0.000000000000000000e+00 2.453776035427126220e-07
-0.000000000000000000e+00 0.000000000000000000e+00 9.135450021218304847e-06
0.000000000000000000e+00 0.000000000000000000e+00 4.472006288758805640e-06
0.000000000000000000e+00 -0.000000000000000000e+00 2.484447938200500666e-07
5.825545171339600094e-06 8.738317757009403530e-06 3.545171339563845124e-06
0.000000000000000000e+00 0.000000000000000000e+00 4.585576530764591201e-06
-2.080584198496922093e-04 2.311760220552142397e-05 -3.727867885066798493e-05
1.677852687131180481e-05 2.936242202479570585e-04 8.541122562552623683e-05
0.000000000000000000e+00 0.000000000000000000e+00 -1.664932362122545562e-06
0.000000000000000000e+00 0.000000000000000000e+00 -1.664932362122687864e-06
0.000000000000000000e+00 0.000000000000000000e+00 -1.664932362122545562e-06
0.000000000000000000e+00 0.000000000000000000e+00 -1.673038590987808641e-05
-0.000000000000000000e+00 0.000000000000000000e+00 1.145473465140476932e-05
0.000000000000000000e+00 0.000000000000000000e+00 -1.051939513477901616e-06
3.072987628644348195e-06 -3.072987628644331340e-05 -9.659369669075539445e-06
0.000000000000000000e+00 0.000000000000000000e+00 -1.019017006836571211e-06
-0.000000000000000000e+00 0.000000000000000000e+00 1.081750375880740076e-05
0.000000000000000000e+00 -0.000000000000000000e+00 6.776263578034402713e-21
-0.000000000000000000e+00 0.000000000000000000e+00 -2.725000000000001184e-05
0.000000000000000000e+00 -0.000000000000000000e+00 -1.554000935425778275e-05
0.000000000000000000e+00 0.000000000000000000e+00 -1.038581686883831818e-06
-0.000000000000000000e+00 -0.000000000000000000e+00 1.999999999999989322e-06
0.000000000000000000e+00 -0.000000000000000000e+00 -1.061687434898341252e-05
0.000000000000000000e+00 -0.000000000000000000e+00 -1.055123695233345070e-05
-0.000000000000000000e+00 0.000000000000000000e+00 -2.674615878614772767e-05
-0.000000000000000000e+00 0.000000000000000000e+00 -6.183340514956392475e-20
-0.000000000000000000e+00 0.000000000000000000e+00 1.068312613425723499e-05
0.000000000000000000e+00 -0.000000000000000000e+00 -5.548065804515667221e-20
-0.000000000000000000e+00 0.000000000000000000e+00 1.074999999999994959e-05
-0.000000000000000000e+00 0.000000000000000000e+00 -2.776821343629660340e-05
4.456558976421321893e-05 4.367427796892908330e-04 -6.691988024487163604e-06
0.000000000000000000e+00 0.000000000000000000e+00 1.053497942386802363e-06
0.000000000000000000e+00 0.000000000000000000e+00 1.248699271592067990e-06
0.000000000000000000e+00 0.000000000000000000e+00 1.248699271592103142e-06
0.000000000000000000e+00 0.000000000000000000e+00 8.476727629937183344e-07
0.000000000000000000e+00 0.000000000000000000e+00 -7.430260682612220303e-06
0.000000000000000000e+00 0.000000000000000000e+00 -7.192507804370432175e-06
0.000000000000000000e+00 0.000000000000000000e+00 7.839214445386186078e-07
0.000000000000000000e+00 0.000000000000000000e+00 -7.481985386747328523e-06
0.000000000000000000e+00 0.000000000000000000e+00 7.594636288121693665e-07
0.000000000000000000e+00 0.000000000000000000e+00 -6.792386081111669629e-06
0.000000000000000000e+00 0.000000000000000000e+00 7.500000000000082776e-07
0.000000000000000000e+00 0.000000000000000000e+00 7.547095645679344459e-07
0.000000000000000000e+00 0.000000000000000000e+00 9.485659349463245184e-06
0.000000000000000000e+00 0.000000000000000000e+00 -6.921967633392048114e-06
0.000000000000000000e+00 0.000000000000000000e+00 7.453343814598372212e-07
0.000000000000000000e+00 0.000000000000000000e+00 7.361328106279458013e-07
0.000000000000000000e+00 0.000000000000000000e+00 7.361328106279386015e-07
0.000000000000000000e+00 0.000000000000000000e+00 -7.160217584198116678e-06
0.000000000000000000e+00 0.000000000000000000e+00 7.407121638826107973e-07
0.000000000000000000e+00 0.000000000000000000e+00 7.453343814598459033e-07
0.000000000000000000e+00 0.000000000000000000e+00 7.453343814598459033e-07
0.000000000000000000e+00 -0.000000000000000000e+00 1.025000000000001875e-05
0.000000000000000000e+00 0.000000000000000000e+00 7.691075148213844897e-07
5.831273988082244161e-05 7.497352270391457747e-05 -4.364545981530617148e-06
0.000000000000000000e+00 -0.000000000000000000e+00 1.053497942386802151e-06
0.000000000000000000e+00 -0.000000000000000000e+00 1.248699271592067567e-06
0.000000000000000000e+00 -0.000000000000000000e+00 1.248699271592103142e-06
0.000000000000000000e+00 -0.000000000000000000e+00 8.476727629937183344e-07
0.000000000000000000e+00 0.000000000000000000e+00 7.430260682612220303e-06
0.000000000000000000e+00 0.000000000000000000e+00 7.192507804370432175e-06
0.000000000000000000e+00 -0.000000000000000000e+00 7.839214445386186078e-07
0.000000000000000000e+00 0.000000000000000000e+00 -2.563691716071422804e-07
0.000000000000000000e+00 -0.000000000000000000e+00 7.594636288121692607e-07
0.000000000000000000e+00 0.000000000000000000e+00 6.792386081111669629e-06
0.000000000000000000e+00 -0.000000000000000000e+00 7.500000000000082776e-07
0.000000000000000000e+00 -0.000000000000000000e+00 7.547095645679341283e-07
-0.000000000000000000e+00 0.000000000000000000e+00 -7.178336804999218982e-06
0.000000000000000000e+00 0.000000000000000000e+00 6.921967633392047267e-06
0.000000000000000000e+00 -0.000000000000000000e+00 7.453343814598372212e-07
0.000000000000000000e+00 -0.000000000000000000e+00 7.361328106279458013e-07
0.000000000000000000e+00 -0.000000000000000000e+00 7.361328106279389192e-07
0.000000000000000000e+00 0.000000000000000000e+00 -2.453776035426440123e-07
0.000000000000000000e+00 -0.000000000000000000e+00 7.407121638826106914e-07
0.000000000000000000e+00 -0.000000000000000000e+00 7.453343814598457974e-07
0.000000000000000000e+00 -0.000000000000000000e+00 7.453343814598457974e-07
0.000000000000000000e+00 0.000000000000000000e+00 -2.515698548559443379e-07
0.000000000000000000e+00 -0.000000000000000000e+00 7.691075148213845956e-07
-2.885053389208378158e-05 -3.709354357553629303e-05 -3.650948005518996173e-06
-0.000000000000000000e+00 0.000000000000000000e+00 3.511659807956061521e-07
-0.000000000000000000e+00 0.000000000000000000e+00 4.162330905307011886e-07
-0.000000000000000000e+00 0.000000000000000000e+00 4.162330905307011886e-07
-0.000000000000000000e+00 0.000000000000000000e+00 2.825575876645874953e-07
0.000000000000000000e+00 0.000000000000000000e+00 4.100986799948737324e-06
0.000000000000000000e+00 0.000000000000000000e+00 3.970182276858165703e-06
-0.000000000000000000e+00 0.000000000000000000e+00 2.613071481795395712e-07
-0.000000000000000000e+00 0.000000000000000000e+00 2.563691716071422804e-07
-0.000000000000000000e+00 0.000000000000000000e+00 2.531545429373991062e-07
0.000000000000000000e+00 0.000000000000000000e+00 3.749999999999985695e-06
-0.000000000000000000e+00 0.000000000000000000e+00 2.500000000000073473e-07
-0.000000000000000000e+00 0.000000000000000000e+00 2.515698548559687960e-07
0.000000000000000000e+00 0.000000000000000000e+00 2.579994960947497198e-07
0.000000000000000000e+00 0.000000000000000000e+00 3.821313775637147334e-06
-0.000000000000000000e+00 0.000000000000000000e+00 2.484447938199531872e-07
-0.000000000000000000e+00 0.000000000000000000e+00 2.453776035426577766e-07
-0.000000000000000000e+00 0.000000000000000000e+00 2.453776035426576707e-07
-0.000000000000000000e+00 0.000000000000000000e+00 2.453776035426440123e-07
-0.000000000000000000e+00 0.000000000000000000e+00 2.469040546275552848e-07
-0.000000000000000000e+00 0.000000000000000000e+00 2.484447938199670574e-07
-0.000000000000000000e+00 0.000000000000000000e+00 2.484447938199532931e-07
-0.000000000000000000e+00 0.000000000000000000e+00 2.515698548559444438e-07
0.000000000000000000e+00 0.000000000000000000e+00 3.076430059285369823e-06
0.000000000000000000e+00 0.000000000000000000e+00 1.564868697735805340e-06
0.000000000000000000e+00 0.000000000000000000e+00 3.511659807956059403e-07
0.000000000000000000e+00 0.000000000000000000e+00 2.081165452653559306e-06
0.000000000000000000e+00 0.000000000000000000e+00 2.081165452653451733e-06
0.000000000000000000e+00 -0.000000000000000000e+00 2.825575876646391643e-07
-0.000000000000000000e+00 0.000000000000000000e+00 -4.100986799948737324e-06
0.000000000000000000e+00 -0.000000000000000000e+00 2.646788184572501022e-07
0.000000000000000000e+00 0.000000000000000000e+00 2.613071481795394653e-07
0.000000000000000000e+00 0.000000000000000000e+00 1.281845858035556819e-06
0.000000000000000000e+00 -0.000000000000000000e+00 2.531545429373781421e-07
0.000000000000000000e+00 -0.000000000000000000e+00 2.500000000000073473e-07
0.000000000000000000e+00 -0.000000000000000000e+00 2.500000000000073473e-07
0.000000000000000000e+00 0.000000000000000000e+00 1.257849274279927519e-06
0.000000000000000000e+00 -0.000000000000000000e+00 2.579994960947497198e-07
0.000000000000000000e+00 -0.000000000000000000e+00 2.547542517091253326e-07
0.000000000000000000e+00 -0.000000000000000000e+00 2.484447938199324349e-07
0.000000000000000000e+00 0.000000000000000000e+00 1.226888017713185757e-06
0.000000000000000000e+00 0.000000000000000000e+00 1.226888017713171781e-06
0.000000000000000000e+00 -0.000000000000000000e+00 2.453776035426233659e-07
0.000000000000000000e+00 -0.000000000000000000e+00 2.469040546275552848e-07
0.000000000000000000e+00 0.000000000000000000e+00 1.242223969099634752e-06
0.000000000000000000e+00 -0.000000000000000000e+00 2.484447938199325408e-07
0.000000000000000000e+00 -0.000000000000000000e+00 2.515698548559444438e-07
0.000000000000000000e+00 0.000000000000000000e+00 1.273771258545706814e-06
0.000000000000000000e+00 -0.000000000000000000e+00 3.129737395471175728e-07
4.828466488846836438e-06 -4.828466488847176946e-06 -2.388412568012626649e-07
0.000000000000000000e+00 -0.000000000000000000e+00 1.248699271592058673e-06
0.000000000000000000e+00 -0.000000000000000000e+00 1.248699271592094460e-06
0.000000000000000000e+00 -0.000000000000000000e+00 2.825575876645358793e-07
0.000000000000000000e+00 -0.000000000000000000e+00 8.148627571645110841e-07
0.000000000000000000e+00 -0.000000000000000000e+00 7.940364553716289690e-07
0.000000000000000000e+00 -0.000000000000000000e+00 7.789362651628950396e-07
0.000000000000000000e+00 -0.000000000000000000e+00 7.691075148213495496e-07
0.000000000000000000e+00 0.000000000000000000e+00 -2.531545429373781421e-07
0.000000000000000000e+00 -0.000000000000000000e+00 7.499999999999875253e-07
0.000000000000000000e+00 -0.000000000000000000e+00 2.500000000000004651e-07
0.000000000000000000e+00 -0.000000000000000000e+00 2.515698548559966951e-07
0.000000000000000000e+00 -0.000000000000000000e+00 7.739984882841962199e-07
0.000000000000000000e+00 0.000000000000000000e+00 -2.547542517091252267e-07
0.000000000000000000e+00 0.000000000000000000e+00 -2.484447938199323290e-07
0.000000000000000000e+00 -0.000000000000000000e+00 2.453776035426199248e-07
0.000000000000000000e+00 -0.000000000000000000e+00 2.453776035426096016e-07
0.000000000000000000e+00 -0.000000000000000000e+00 7.361328106279045084e-07
0.000000000000000000e+00 -0.000000000000000000e+00 7.407121638825555284e-07
0.000000000000000000e+00 -0.000000000000000000e+00 2.484447938199048005e-07
0.000000000000000000e+00 -0.000000000000000000e+00 2.484447938199324879e-07
0.000000000000000000e+00 -0.000000000000000000e+00 7.547095645679585864e-07
0.000000000000000000e+00 -0.000000000000000000e+00 2.547542517091497378e-07
-0.000000000000000000e+00 0.000000000000000000e+00 -9.389212186415080430e-07
-4.828466488846836438e-06 4.828466488847176946e-06 2.388412568012626120e-07
-0.000000000000000000e+00 0.000000000000000000e+00 -1.248699271592058461e-06
-0.000000000000000000e+00 0.000000000000000000e+00 -1.248699271592094248e-06
0.000000000000000000e+00 0.000000000000000000e+00 -2.825575876645358263e-07
-0.000000000000000000e+00 0.000000000000000000e+00 -8.148627571645109782e-07
-0.000000000000000000e+00 0.000000000000000000e+00 -7.940364553716289690e-07
-0.000000000000000000e+00 0.000000000000000000e+00 -7.789362651628951455e-07
-0.000000000000000000e+00 0.000000000000000000e+00 -7.691075148213495496e-07
0.000000000000000000e+00 0.000000000000000000e+00 -4.276687532551758264e-06
-0.000000000000000000e+00 0.000000000000000000e+00 -7.499999999999875253e-07
-0.000000000000000000e+00 0.000000000000000000e+00 -7.500000000000013954e-07
-0.000000000000000000e+00 0.000000000000000000e+00 -7.547095645679621863e-07
-0.000000000000000000e+00 0.000000000000000000e+00 -7.739984882841962199e-07
0.000000000000000000e+00 0.000000000000000000e+00 2.531545429373841137e-06
0.000000000000000000e+00 0.000000000000000000e+00 -4.197368928667891176e-06
-0.000000000000000000e+00 0.000000000000000000e+00 -7.361328106279112847e-07
-0.000000000000000000e+00 0.000000000000000000e+00 -7.361328106279182727e-07
-0.000000000000000000e+00 0.000000000000000000e+00 -7.361328106279045084e-07
-0.000000000000000000e+00 0.000000000000000000e+00 -7.407121638825555284e-07
-0.000000000000000000e+00 0.000000000000000000e+00 -7.453343814598181630e-07
-0.000000000000000000e+00 0.000000000000000000e+00 -7.453343814597905285e-07
-0.000000000000000000e+00 0.000000000000000000e+00 -7.547095645679585864e-07
-0.000000000000000000e+00 0.000000000000000000e+00 -7.642627551274281963e-07
0.000000000000000000e+00 0.000000000000000000e+00 9.389212186415080430e-07
1.035667411841063493e-04 -4.013211220884124069e-04 1.562616283262393321e-05
0.000000000000000000e+00 0.000000000000000000e+00 -1.248699271592058461e-06
0.000000000000000000e+00 0.000000000000000000e+00 1.248699271592094248e-06
0.000000000000000000e+00 0.000000000000000000e+00 -8.701372746809345332e-06
0.000000000000000000e+00 0.000000000000000000e+00 -8.148627571645108723e-07
0.000000000000000000e+00 0.000000000000000000e+00 7.940364553716289690e-07
0.000000000000000000e+00 0.000000000000000000e+00 -7.789362651628950396e-07
0.000000000000000000e+00 0.000000000000000000e+00 7.691075148213495496e-07
-0.000000000000000000e+00 0.000000000000000000e+00 4.276687532551758264e-06
0.000000000000000000e+00 0.000000000000000000e+00 -7.499999999999874194e-07
0.000000000000000000e+00 0.000000000000000000e+00 -7.500000000000013954e-07
0.000000000000000000e+00 0.000000000000000000e+00 -7.547095645679621863e-07
0.000000000000000000e+00 0.000000000000000000e+00 7.739984882841962199e-07
-2.986744449797427218e-06 -5.973488899594926434e-06 -4.951287590573500188e-07
-0.000000000000000000e+00 0.000000000000000000e+00 4.197368928667892023e-06
0.000000000000000000e+00 0.000000000000000000e+00 7.361328106279112847e-07
0.000000000000000000e+00 0.000000000000000000e+00 7.361328106279182727e-07
0.000000000000000000e+00 0.000000000000000000e+00 7.361328106279045084e-07
0.000000000000000000e+00 0.000000000000000000e+00 7.407121638825555284e-07
0.000000000000000000e+00 0.000000000000000000e+00 7.453343814598181630e-07
0.000000000000000000e+00 0.000000000000000000e+00 -7.453343814597906344e-07
0.000000000000000000e+00 0.000000000000000000e+00 -7.547095645679585864e-07
0.000000000000000000e+00 0.000000000000000000e+00 -7.642627551274281963e-07
0.000000000000000000e+00 0.000000000000000000e+00 -3.091670257478196238e-20
1.637113421452214887e-05 -6.139175330446043166e-05 -9.751549263744452406e-06
0.000000000000000000e+00 0.000000000000000000e+00 -1.075731843012961431e-19
0.000000000000000000e+00 0.000000000000000000e+00 -7.178604227980195374e-20
-0.000000000000000000e+00 -0.000000000000000000e+00 7.017236086136534251e-06
0.000000000000000000e+00 0.000000000000000000e+00 3.554188559955614417e-06
0.000000000000000000e+00 0.000000000000000000e+00 2.858736196983263644e-20
0.000000000000000000e+00 0.000000000000000000e+00 -1.817517952046755022e-06
0.000000000000000000e+00 0.000000000000000000e+00 1.418780186650953068e-20
0.000000000000000000e+00 0.000000000000000000e+00 5.063090858747652628e-06
0.000000000000000000e+00 0.000000000000000000e+00 -3.451659260061273882e-20
0.000000000000000000e+00 0.000000000000000000e+00 -6.211119845498388694e-06
0.000000000000000000e+00 0.000000000000000000e+00 -6.249999999999997758e-06
0.000000000000000000e+00 0.000000000000000000e+00 6.665598461784998372e-06
0.000000000000000000e+00 0.000000000000000000e+00 3.311805272218842671e-06
0.000000000000000000e+00 0.000000000000000000e+00 4.968895876398684697e-06
-0.000000000000000000e+00 -0.000000000000000000e+00 -3.388131789017201356e-21
0.000000000000000000e+00 0.000000000000000000e+00 -6.096631611034916180e-06
-0.000000000000000000e+00 -0.000000000000000000e+00 -6.776263578034402713e-21
0.000000000000000000e+00 0.000000000000000000e+00 5.505714157152952204e-20
0.000000000000000000e+00 0.000000000000000000e+00 -4.968895876398718579e-06
-0.000000000000000000e+00 -0.000000000000000000e+00 5.526889980834309712e-20
0.000000000000000000e+00 0.000000000000000000e+00 -3.270408113127827600e-06
-0.000000000000000000e+00 -0.000000000000000000e+00 2.816384549620548627e-20
0.000000000000000000e+00 0.000000000000000000e+00 3.091670257478196238e-20
2.046391776815272506e-05 -2.046391776815464613e-05 -1.024837379137756102e-05
-0.000000000000000000e+00 -0.000000000000000000e+00 -4.162330905307905506e-07
-0.000000000000000000e+00 -0.000000000000000000e+00 -4.162330905307547634e-07
0.000000000000000000e+00 0.000000000000000000e+00 7.346497279279422474e-06
-0.000000000000000000e+00 0.000000000000000000e+00 6.834977999914572089e-06
-0.000000000000000000e+00 -0.000000000000000000e+00 -2.646788184571716457e-07
0.000000000000000000e+00 0.000000000000000000e+00 6.793985852667650440e-06
-0.000000000000000000e+00 -0.000000000000000000e+00 -2.563691716071352924e-07
-0.000000000000000000e+00 -0.000000000000000000e+00 -2.531545429373571781e-07
-0.000000000000000000e+00 -0.000000000000000000e+00 -2.500000000000280996e-07
-0.000000000000000000e+00 -0.000000000000000000e+00 -2.484447938199670574e-07
-0.000000000000000000e+00 -0.000000000000000000e+00 -2.500000000000386875e-07
0.000000000000000000e+00 0.000000000000000000e+00 -6.665598461784998372e-06
-0.000000000000000000e+00 0.000000000000000000e+00 6.368856292728539362e-06
-0.000000000000000000e+00 -0.000000000000000000e+00 -2.484447938199687515e-07
-0.000000000000000000e+00 -0.000000000000000000e+00 -2.453776035426302481e-07
-0.000000000000000000e+00 -0.000000000000000000e+00 -2.438652644414251837e-07
-0.000000000000000000e+00 -0.000000000000000000e+00 -2.453776035426372361e-07
-0.000000000000000000e+00 -0.000000000000000000e+00 -2.469040546274587231e-07
0.000000000000000000e+00 0.000000000000000000e+00 -7.654025693453254776e-06
-0.000000000000000000e+00 -0.000000000000000000e+00 -2.484447938199670574e-07
0.000000000000000000e+00 0.000000000000000000e+00 -7.750000000000013890e-06
-0.000000000000000000e+00 -0.000000000000000000e+00 -2.547542517091849426e-07
0.000000000000000000e+00 0.000000000000000000e+00 1.260695598645735032e-05
0.000000000000000000e+00 0.000000000000000000e+00 -1.149947188869583276e-05
-0.000000000000000000e+00 -0.000000000000000000e+00 -8.324661810613841660e-07
-0.000000000000000000e+00 -0.000000000000000000e+00 -8.324661810613481671e-07
0.000000000000000000e+00 0.000000000000000000e+00 -1.214997626957753578e-05
0.000000000000000000e+00 0.000000000000000000e+00 9.081429723192830782e-06
-0.000000000000000000e+00 -0.000000000000000000e+00 -5.293576369144788168e-07
-0.000000000000000000e+00 -0.000000000000000000e+00 -5.226142963589796161e-07
-0.000000000000000000e+00 -0.000000000000000000e+00 -5.127383432141791053e-07
-0.000000000000000000e+00 -0.000000000000000000e+00 -5.063090858748121885e-07
-0.000000000000000000e+00 -0.000000000000000000e+00 -5.000000000000079183e-07
-0.000000000000000000e+00 -0.000000000000000000e+00 -4.968895876398650816e-07
-0.000000000000000000e+00 -0.000000000000000000e+00 -4.999999999999973304e-07
0.000000000000000000e+00 0.000000000000000000e+00 1.146394132691141659e-05
0.000000000000000000e+00 0.000000000000000000e+00 8.460182663034768389e-06
-0.000000000000000000e+00 -0.000000000000000000e+00 -4.968895876398682580e-07
-0.000000000000000000e+00 -0.000000000000000000e+00 -4.907552070852501200e-07
-0.000000000000000000e+00 -0.000000000000000000e+00 -4.877305288827406767e-07
-0.000000000000000000e+00 -0.000000000000000000e+00 -4.907552070852399556e-07
0.000000000000000000e+00 0.000000000000000000e+00 -2.469040546274589348e-07
-0.000000000000000000e+00 -0.000000000000000000e+00 -4.938081092551245457e-07
-0.000000000000000000e+00 -0.000000000000000000e+00 -4.968895876398511056e-07
-0.000000000000000000e+00 0.000000000000000000e+00 7.750000000000013890e-06
-0.000000000000000000e+00 -0.000000000000000000e+00 -5.095085034182222896e-07
-0.000000000000000000e+00 -0.000000000000000000e+00 2.048630347799322709e-05
0.000000000000000000e+00 0.000000000000000000e+00 -1.149947188869583106e-05
0.000000000000000000e+00 0.000000000000000000e+00 -1.540062434963572417e-05
0.000000000000000000e+00 0.000000000000000000e+00 -1.540062434963554799e-05
-1.494443288241413786e-04 -8.717585848074919398e-05 -5.321456815816824051e-05
0.000000000000000000e+00 0.000000000000000000e+00 -1.662049861495831592e-05
0.000000000000000000e+00 0.000000000000000000e+00 -9.793116282916839341e-06
0.000000000000000000e+00 0.000000000000000000e+00 -9.668364482642443315e-06
0.000000000000000000e+00 0.000000000000000000e+00 -9.485659349463175727e-06
-0.000000000000000000e+00 -0.000000000000000000e+00 -2.531545429373292260e-07
0.000000000000000000e+00 0.000000000000000000e+00 -9.249999999999967341e-06
0.000000000000000000e+00 0.000000000000000000e+00 -9.192457371337632547e-06
0.000000000000000000e+00 -0.000000000000000000e+00 -1.949999999999999626e-05
0.000000000000000000e+00 -0.000000000000000000e+00 1.063249080337012464e-05
-3.053538339855434413e-05 -1.526769169927719239e-05 -1.090374452640874109e-05
0.000000000000000000e+00 0.000000000000000000e+00 -9.192457371337664734e-06
-0.000000000000000000e+00 -0.000000000000000000e+00 -2.453776035426920815e-07
0.000000000000000000e+00 0.000000000000000000e+00 -9.023014784331688889e-06
0.000000000000000000e+00 -0.000000000000000000e+00 -1.913945307632587467e-05
0.000000000000000000e+00 -0.000000000000000000e+00 1.030585934879078679e-05
0.000000000000000000e+00 0.000000000000000000e+00 -9.135450021218387856e-06
0.000000000000000000e+00 -0.000000000000000000e+00 -1.937869391795482839e-05
0.000000000000000000e+00 -0.000000000000000000e+00 1.043468134043737297e-05
0.000000000000000000e+00 0.000000000000000000e+00 -9.425907313238204713e-06
5.223486485186662389e-06 3.917614863891638816e-04 -2.696212885007346943e-04
0.000000000000000000e+00 0.000000000000000000e+00 -1.212106496376068042e-05
0.000000000000000000e+00 0.000000000000000000e+00 -1.623309053069721549e-05
0.000000000000000000e+00 0.000000000000000000e+00 -1.623309053069743233e-05
0.000000000000000000e+00 0.000000000000000000e+00 1.831425598335061682e-05
-2.058277740228396237e-05 -3.430462900380681289e-05 -1.326139909457333128e-05
0.000000000000000000e+00 0.000000000000000000e+00 -6.126951092611722952e-06
0.000000000000000000e+00 0.000000000000000000e+00 -1.019097877900152182e-05
0.000000000000000000e+00 0.000000000000000000e+00 -1.135197782816833037e-05
0.000000000000000000e+00 0.000000000000000000e+00 -9.873027174557941302e-06
0.000000000000000000e+00 0.000000000000000000e+00 -9.749999999999960860e-06
0.000000000000000000e+00 0.000000000000000000e+00 -9.689346958977470100e-06
0.000000000000000000e+00 0.000000000000000000e+00 1.093157092807709871e-05
-0.000000000000000000e+00 0.000000000000000000e+00 1.063249080337012464e-05
0.000000000000000000e+00 0.000000000000000000e+00 1.149751451989916642e-05
0.000000000000000000e+00 0.000000000000000000e+00 1.099999999999993873e-05
0.000000000000000000e+00 0.000000000000000000e+00 -9.569726538162903452e-06
0.000000000000000000e+00 0.000000000000000000e+00 -9.510745313214423636e-06
0.000000000000000000e+00 0.000000000000000000e+00 1.073007163542137740e-05
0.000000000000000000e+00 0.000000000000000000e+00 -9.569726538162876347e-06
0.000000000000000000e+00 0.000000000000000000e+00 -9.629258130473304032e-06
0.000000000000000000e+00 0.000000000000000000e+00 1.086377840361092397e-05
-0.000000000000000000e+00 0.000000000000000000e+00 1.043468134043737127e-05
0.000000000000000000e+00 0.000000000000000000e+00 1.113879988924495759e-05
4.129554655870437511e-04 -3.176580504515771203e-05 9.573483196964995348e-04
0.000000000000000000e+00 0.000000000000000000e+00 -1.367504765142225068e-05
0.000000000000000000e+00 0.000000000000000000e+00 -1.831425598335068797e-05
0.000000000000000000e+00 0.000000000000000000e+00 -1.831425598335068797e-05
0.000000000000000000e+00 0.000000000000000000e+00 -1.831425598335068797e-05
0.000000000000000000e+00 0.000000000000000000e+00 -1.403447217227320233e-05
0.000000000000000000e+00 0.000000000000000000e+00 2.949277866800738194e-06
0.000000000000000000e+00 0.000000000000000000e+00 -1.314924391847473539e-05
0.000000000000000000e+00 0.000000000000000000e+00 -1.135197782816833037e-05
0.000000000000000000e+00 0.000000000000000000e+00 -1.113879988924483222e-05
-2.940222678629423539e-06 -2.940222678629382966e-05 -1.118385235994143843e-05
0.000000000000000000e+00 0.000000000000000000e+00 -1.093157092807716139e-05
0.000000000000000000e+00 0.000000000000000000e+00 -1.093157092807716817e-05
-1.176089071451753153e-05 2.352178142903506305e-05 9.811224339383444682e-06
0.000000000000000000e+00 0.000000000000000000e+00 -1.149751451989916812e-05
0.000000000000000000e+00 0.000000000000000000e+00 -1.099999999999994042e-05
0.000000000000000000e+00 0.000000000000000000e+00 -1.079661455587614003e-05
0.000000000000000000e+00 0.000000000000000000e+00 -1.073007163542135029e-05
0.000000000000000000e+00 0.000000000000000000e+00 -1.073007163542135029e-05
0.000000000000000000e+00 0.000000000000000000e+00 -1.079661455587609429e-05
0.000000000000000000e+00 0.000000000000000000e+00 -1.086377840361092397e-05
0.000000000000000000e+00 0.000000000000000000e+00 -1.086377840361097818e-05
0.000000000000000000e+00 0.000000000000000000e+00 -1.086377840361099173e-05
0.000000000000000000e+00 0.000000000000000000e+00 -1.113879988924495759e-05
0.000000000000000000e+00 0.000000000000000000e+00 -1.273771258545713971e-05
0.000000000000000000e+00 0.000000000000000000e+00 -1.398584418895440008e-05
0.000000000000000000e+00 0.000000000000000000e+00 -9.323896125969652001e-06
0.000000000000000000e+00 -0.000000000000000000e+00 6.243496357960498771e-06
0.000000000000000000e+00 -0.000000000000000000e+00 6.243496357960498771e-06
0.000000000000000000e+00 -0.000000000000000000e+00 4.210341651681938339e-06
0.000000000000000000e+00 0.000000000000000000e+00 4.617555623932262370e-06
0.000000000000000000e+00 0.000000000000000000e+00 -1.314924391847473708e-05
0.000000000000000000e+00 0.000000000000000000e+00 4.413972169256405083e-06
0.000000000000000000e+00 -0.000000000000000000e+00 1.273771258545713802e-05
0.000000000000000000e+00 0.000000000000000000e+00 4.276687532551758264e-06
0.000000000000000000e+00 0.000000000000000000e+00 -1.118001572189709287e-05
0.000000000000000000e+00 -0.000000000000000000e+00 8.695567783697737396e-06
0.000000000000000000e+00 -0.000000000000000000e+00 8.749999999999967046e-06
0.000000000000000000e+00 0.000000000000000000e+00 4.385991433610498750e-06
0.000000000000000000e+00 -0.000000000000000000e+00 1.257849274279927519e-06
0.000000000000000000e+00 0.000000000000000000e+00 4.197368928667892023e-06
0.000000000000000000e+00 0.000000000000000000e+00 -1.097393689986286505e-05
0.000000000000000000e+00 -0.000000000000000000e+00 8.535284255448886379e-06
0.000000000000000000e+00 0.000000000000000000e+00 4.171419260224886800e-06
0.000000000000000000e+00 0.000000000000000000e+00 -1.104199215941873957e-05
