ply
            format ascii 1.0
            element vertex 26905
            property float x
            property float y
            property float z
            property float nx
            property float ny
            property float nz
end_header
0.18944785276074 0.11484662576687 1.83558282208589 -0.00000000000000 0.00000000000000 -1.00000000000000
0.21664596273292 0.11627329192547 1.85838509316770 0.00000000000000 0.00000000000000 -1.00000000000000
0.24149068322981 0.11627329192547 1.85838509316770 0.00000000000000 0.00000000000000 1.00000000000000
0.29881533101045 0.13045296167247 2.08501742160279 0.00000000000000 0.00000000000000 1.00000000000000
0.32442906574394 0.12955017301038 2.07058823529412 0.00000000000000 -0.00000000000000 1.00000000000000
-0.38709677419355 0.15161290322581 2.41290322580645 0.00000000000000 -0.00000000000000 -1.00000000000000
-0.35483870967742 0.15161290322581 2.41290322580645 0.00000000000000 -0.00000000000000 -1.00000000000000
-0.26143790849673 0.12287581699346 1.95555555555556 0.00000000000000 0.00000000000000 1.00000000000000
-0.23300970873786 0.12168284789644 1.93656957928803 -0.00000000000000 -0.00000000000000 -1.00000000000000
-0.20253164556962 0.11898734177215 1.89367088607595 0.00000000000000 0.00000000000000 1.00000000000000
-0.17554858934169 0.11786833855799 1.87586206896552 -0.00000000000000 -0.00000000000000 -1.00000000000000
-0.14906832298137 0.11677018633540 1.85838509316770 0.00000000000000 0.00000000000000 1.00000000000000
-0.12345679012346 0.11604938271605 1.84691358024691 0.00000000000000 0.00000000000000 1.00000000000000
-0.09815950920245 0.11533742331288 1.83558282208589 -0.00000000000000 0.00000000000000 -1.00000000000000
-0.07339449541284 0.11498470948012 1.82996941896024 0.00000000000000 -0.00000000000000 1.00000000000000
-0.04907975460123 0.11533742331288 1.83558282208589 -0.00000000000000 0.00000000000000 -1.00000000000000
-0.02476780185759 0.11640866873065 1.85263157894737 0.00000000000000 0.00000000000000 1.00000000000000
0.00000000000000 0.11677018633540 1.85838509316770 0.00000000000000 0.00000000000000 -1.00000000000000
0.02446483180428 0.11498470948012 1.82996941896024 0.00000000000000 0.00000000000000 -1.00000000000000
0.04863221884498 0.11428571428571 1.81884498480243 0.00000000000000 0.00000000000000 1.00000000000000
0.07272727272727 0.11393939393939 1.81333333333333 0.00000000000000 -0.00000000000000 1.00000000000000
0.09726443768997 0.11428571428571 1.81884498480243 0.00000000000000 0.00000000000000 1.00000000000000
0.12158054711246 0.11428571428571 1.81884498480243 0.00000000000000 -0.00000000000000 1.00000000000000
0.14634146341463 0.11463414634146 1.82439024390244 0.00000000000000 -0.00000000000000 1.00000000000000
0.17125382262997 0.11498470948012 1.82996941896024 0.00000000000000 -0.00000000000000 1.00000000000000
0.19631901840491 0.11533742331288 1.83558282208589 -0.00000000000000 0.00000000000000 -1.00000000000000
0.22360248447205 0.11677018633540 1.85838509316770 nan nan nan
0.28070175438596 0.13192982456140 2.09964912280702 0.00000000000000 0.00000000000000 1.00000000000000
0.30555555555556 0.13055555555556 2.07777777777778 0.00000000000000 0.00000000000000 -1.00000000000000
0.33217993079585 0.13010380622837 2.07058823529412 0.00000000000000 -0.00000000000000 1.00000000000000
-0.37806451612903 0.15225806451613 2.41290322580645 0.00000000000000 -0.00000000000000 1.00000000000000
-0.34580645161290 0.15225806451613 2.41290322580645 0.00000000000000 -0.00000000000000 1.00000000000000
-0.25328990228013 0.12299674267101 1.94918566775244 0.00000000000000 -0.00000000000000 1.00000000000000
-0.22358974358974 0.12102564102564 1.91794871794872 0.00000000000000 0.00000000000000 -1.00000000000000
-0.19482649842271 0.11911671924290 1.88769716088328 0.00000000000000 0.00000000000000 1.00000000000000
-0.16800000000000 0.11800000000000 1.87000000000000 0.00000000000000 0.00000000000000 -1.00000000000000
-0.14167182662539 0.11690402476780 1.85263157894737 0.00000000000000 -0.00000000000000 1.00000000000000
-0.11618461538462 0.11618461538462 1.84123076923077 0.00000000000000 -0.00000000000000 1.00000000000000
-0.09128834355828 0.11582822085890 1.83558282208589 0.00000000000000 0.00000000000000 1.00000000000000
-0.06654434250765 0.11547400611621 1.82996941896024 0.00000000000000 -0.00000000000000 -1.00000000000000
-0.04220858895706 0.11582822085890 1.83558282208589 0.00000000000000 -0.00000000000000 -1.00000000000000
-0.01794392523364 0.11763239875389 1.86417445482866 0.00000000000000 0.00000000000000 -1.00000000000000
0.00693498452012 0.11690402476780 1.85263157894737 -0.00000000000000 -0.00000000000000 -1.00000000000000
0.03121951219512 0.11512195121951 1.82439024390244 0.00000000000000 -0.00000000000000 1.00000000000000
0.05527272727273 0.11442424242424 1.81333333333333 0.00000000000000 -0.00000000000000 1.00000000000000
0.07951515151515 0.11442424242424 1.81333333333333 0.00000000000000 -0.00000000000000 -1.00000000000000
0.10407294832827 0.11477203647416 1.81884498480243 0.00000000000000 0.00000000000000 1.00000000000000
0.12878048780488 0.11512195121951 1.82439024390244 0.00000000000000 -0.00000000000000 1.00000000000000
0.15363914373089 0.11547400611621 1.82996941896024 0.00000000000000 0.00000000000000 1.00000000000000
0.17810397553517 0.11547400611621 1.82996941896024 -0.00000000000000 0.00000000000000 1.00000000000000
0.20444444444444 0.11654320987654 1.84691358024691 0.00000000000000 0.00000000000000 -1.00000000000000
0.23055900621118 0.11726708074534 1.85838509316770 0.00000000000000 -0.00000000000000 1.00000000000000
0.28755244755245 0.13202797202797 2.09230769230769 -0.00000000000000 0.00000000000000 -1.00000000000000
0.31333333333333 0.13111111111111 2.07777777777778 nan nan nan
0.33993079584775 0.13065743944637 2.07058823529412 0.00000000000000 0.00000000000000 1.00000000000000
-0.36903225806452 0.15290322580645 2.41290322580645 0.00000000000000 -0.00000000000000 1.00000000000000
-0.33677419354839 0.15290322580645 2.41290322580645 -0.00000000000000 0.00000000000000 1.00000000000000
-0.24599348534202 0.12351791530945 1.94918566775244 0.00000000000000 0.00000000000000 1.00000000000000
-0.21503184713376 0.12076433121019 1.90573248407643 0.95756005081792 0.27358858594798 0.09070851512714
-0.18716981132075 0.11924528301887 1.88176100628931 0.00000000000000 0.00000000000000 1.00000000000000
-0.16049844236760 0.11813084112150 1.86417445482866 0.00000000000000 -0.00000000000000 1.00000000000000
-0.13473684210526 0.11739938080495 1.85263157894737 0.00000000000000 0.00000000000000 1.00000000000000
-0.10895705521472 0.11631901840491 1.83558282208589 0.00000000000000 -0.00000000000000 1.00000000000000
-0.08415902140673 0.11596330275229 1.82996941896024 0.00000000000000 -0.00000000000000 1.00000000000000
-0.05969418960245 0.11596330275229 1.82996941896024 0.00000000000000 -0.00000000000000 1.00000000000000
-0.03544615384615 0.11667692307692 1.84123076923077 -0.00000000000000 0.00000000000000 -1.00000000000000
-0.01103448275862 0.11887147335423 1.87586206896552 0.89053485379051 -0.32383085592382 -0.31950156640612
0.01378461538462 0.11667692307692 1.84123076923077 -0.00000000000000 -0.00000000000000 -1.00000000000000
0.03793313069909 0.11525835866261 1.81884498480243 0.00000000000000 -0.00000000000000 1.00000000000000
0.06206060606061 0.11490909090909 1.81333333333333 0.00000000000000 -0.00000000000000 1.00000000000000
0.08630303030303 0.11490909090909 1.81333333333333 nan nan nan
0.11088145896657 0.11525835866261 1.81884498480243 -0.00000000000000 0.00000000000000 -1.00000000000000
0.13560975609756 0.11560975609756 1.82439024390244 -0.00000000000000 0.00000000000000 -1.00000000000000
0.16048929663609 0.11596330275229 1.82996941896024 0.00000000000000 0.00000000000000 1.00000000000000
0.18495412844037 0.11596330275229 1.82996941896024 -0.00000000000000 0.00000000000000 1.00000000000000
0.21201238390093 0.11739938080495 1.85263157894737 0.00000000000000 0.00000000000000 -1.00000000000000
0.23751552795031 0.11776397515528 1.85838509316770 -0.00000000000000 0.00000000000000 1.00000000000000
0.29435540069686 0.13212543554007 2.08501742160279 0.00000000000000 -0.00000000000000 -1.00000000000000
0.32000000000000 0.13121107266436 2.07058823529412 0.00000000000000 -0.00000000000000 1.00000000000000
-0.39225806451613 0.15354838709677 2.41290322580645 0.00000000000000 -0.00000000000000 1.00000000000000
-0.36000000000000 0.15354838709677 2.41290322580645 -0.00000000000000 0.00000000000000 1.00000000000000
-0.27367003367003 0.12821548821549 2.01481481481481 -0.97784376608257 -0.20586184549107 -0.03797985919488
-0.23715210355987 0.12323624595469 1.93656957928803 0.00000000000000 0.00000000000000 -1.00000000000000
-0.20658227848101 0.12050632911392 1.89367088607595 -0.00000000000000 -0.00000000000000 1.00000000000000
-0.17956112852665 0.11937304075235 1.87586206896552 0.00000000000000 0.00000000000000 -1.00000000000000
-0.15304347826087 0.11826086956522 1.85838509316770 0.00000000000000 -0.00000000000000 1.00000000000000
-0.12740740740741 0.11753086419753 1.84691358024691 0.00000000000000 0.00000000000000 1.00000000000000
-0.10208588957055 0.11680981595092 1.83558282208589 0.00000000000000 0.00000000000000 1.00000000000000
-0.07730886850153 0.11645259938838 1.82996941896024 -0.00000000000000 0.00000000000000 -1.00000000000000
-0.05284403669725 0.11645259938838 1.82996941896024 0.00000000000000 -0.00000000000000 1.00000000000000
-0.02864197530864 0.11753086419753 1.84691358024691 -0.00000000000000 0.00000000000000 -1.00000000000000
-0.00400000000000 0.11900000000000 1.87000000000000 0.96140957237390 0.27468844924968 -0.01542368297926
0.02055045871560 0.11645259938838 1.82996941896024 0.00000000000000 -0.00000000000000 1.00000000000000
0.04474164133739 0.11574468085106 1.81884498480243 0.00000000000000 0.00000000000000 1.00000000000000
0.06884848484848 0.11539393939394 1.81333333333333 0.00000000000000 -0.00000000000000 -1.00000000000000
0.09309090909091 0.11539393939394 1.81333333333333 0.00000000000000 -0.00000000000000 -1.00000000000000
0.11768996960486 0.11574468085106 1.81884498480243 -0.00000000000000 0.00000000000000 -1.00000000000000
0.14243902439024 0.11609756097561 1.82439024390244 0.00000000000000 -0.00000000000000 -1.00000000000000
0.16733944954128 0.11645259938838 1.82996941896024 0.00000000000000 0.00000000000000 1.00000000000000
0.19239263803681 0.11680981595092 1.83558282208589 0.00000000000000 -0.00000000000000 -1.00000000000000
0.21962732919255 0.11826086956522 1.85838509316770 0.00000000000000 -0.00000000000000 1.00000000000000
0.27144827586207 0.13131034482759 2.06344827586207 0.98660807318419 -0.04588874758996 -0.15652071036255
0.30111111111111 0.13222222222222 2.07777777777778 0.00000000000000 -0.00000000000000 1.00000000000000
0.32775086505190 0.13176470588235 2.07058823529412 -0.00000000000000 0.00000000000000 1.00000000000000
-0.38322580645161 0.15419354838710 2.41290322580645 -0.00000000000000 0.00000000000000 1.00000000000000
-0.35096774193548 0.15419354838710 2.41290322580645 -0.00000000000000 0.00000000000000 1.00000000000000
-0.25745928338762 0.12456026058632 1.94918566775244 0.00000000000000 -0.00000000000000 1.00000000000000
-0.22916129032258 0.12335483870968 1.93032258064516 -0.00000000000000 -0.00000000000000 -1.00000000000000
-0.19886435331230 0.12063091482650 1.88769716088328 0.00000000000000 0.00000000000000 1.00000000000000
-0.17200000000000 0.11950000000000 1.87000000000000 0.00000000000000 -0.00000000000000 1.00000000000000
-0.14563467492260 0.11839009287926 1.85263157894737 0.00000000000000 -0.00000000000000 1.00000000000000
-0.12012307692308 0.11766153846154 1.84123076923077 0.00000000000000 -0.00000000000000 1.00000000000000
-0.09521472392638 0.11730061349693 1.83558282208589 0.00000000000000 0.00000000000000 1.00000000000000
-0.07045871559633 0.11694189602446 1.82996941896024 -0.00000000000000 0.00000000000000 1.00000000000000
-0.04613496932515 0.11730061349693 1.83558282208589 -0.00000000000000 0.00000000000000 1.00000000000000
-0.02186335403727 0.11875776397516 1.85838509316770 0.00000000000000 0.00000000000000 -1.00000000000000
0.00297213622291 0.11839009287926 1.85263157894737 0.00000000000000 0.00000000000000 -1.00000000000000
0.02731707317073 0.11658536585366 1.82439024390244 0.00000000000000 -0.00000000000000 1.00000000000000
0.05139393939394 0.11587878787879 1.81333333333333 0.00000000000000 -0.00000000000000 1.00000000000000
0.07563636363636 0.11587878787879 1.81333333333333 0.00000000000000 -0.00000000000000 1.00000000000000
0.09987878787879 0.11587878787879 1.81333333333333 0.00000000000000 -0.00000000000000 1.00000000000000
0.12449848024316 0.11623100303951 1.81884498480243 -0.00000000000000 0.00000000000000 1.00000000000000
0.14926829268293 0.11658536585366 1.82439024390244 0.00000000000000 -0.00000000000000 1.00000000000000
0.17418960244648 0.11694189602446 1.82996941896024 0.00000000000000 0.00000000000000 1.00000000000000
0.19987692307692 0.11766153846154 1.84123076923077 0.00000000000000 0.00000000000000 -1.00000000000000
0.22658385093168 0.11875776397516 1.85838509316770 -0.00000000000000 0.00000000000000 1.00000000000000
0.28307692307692 0.13370629370629 2.09230769230769 0.00000000000000 0.00000000000000 -1.00000000000000
0.30888888888889 0.13277777777778 2.07777777777778 -0.00000000000000 0.00000000000000 1.00000000000000
0.33550173010381 0.13231833910035 2.07058823529412 0.00000000000000 -0.00000000000000 -1.00000000000000
-0.37419354838710 0.15483870967742 2.41290322580645 -0.00000000000000 0.00000000000000 1.00000000000000
-0.34193548387097 0.15483870967742 2.41290322580645 -0.00000000000000 0.00000000000000 1.00000000000000
-0.25016286644951 0.12508143322476 1.94918566775244 -0.00000000000000 0.00000000000000 1.00000000000000
-0.21980830670927 0.12268370607029 1.91182108626198 0.95739964232128 0.27354275494894 0.09252181417391
-0.19119496855346 0.12075471698113 1.88176100628931 0.00000000000000 0.00000000000000 1.00000000000000
-0.16448598130841 0.11962616822430 1.86417445482866 0.00000000000000 -0.00000000000000 1.00000000000000
-0.13869969040248 0.11888544891641 1.85263157894737 0.00000000000000 0.00000000000000 1.00000000000000
-0.11323076923077 0.11815384615385 1.84123076923077 0.00000000000000 0.00000000000000 1.00000000000000
-0.08807339449541 0.11743119266055 1.82996941896024 0.00000000000000 -0.00000000000000 1.00000000000000
-0.06360856269113 0.11743119266055 1.82996941896024 -0.00000000000000 0.00000000000000 -1.00000000000000
-0.03926380368098 0.11779141104294 1.83558282208589 -0.00000000000000 0.00000000000000 -1.00000000000000
-0.01495327102804 0.11962616822430 1.86417445482866 -0.00000000000000 0.00000000000000 -1.00000000000000
0.00984615384615 0.11815384615385 1.84123076923077 0.00000000000000 0.00000000000000 -1.00000000000000
0.03414634146341 0.11707317073171 1.82439024390244 0.00000000000000 0.00000000000000 1.00000000000000
0.05818181818182 0.11636363636364 1.81333333333333 nan nan nan
0.08242424242424 0.11636363636364 1.81333333333333 -0.00000000000000 0.00000000000000 1.00000000000000
0.10666666666667 0.11636363636364 1.81333333333333 0.00000000000000 -0.00000000000000 1.00000000000000
0.13170731707317 0.11707317073171 1.82439024390244 0.00000000000000 0.00000000000000 1.00000000000000
0.15609756097561 0.11707317073171 1.82439024390244 0.00000000000000 -0.00000000000000 1.00000000000000
0.18103975535168 0.11743119266055 1.82996941896024 0.00000000000000 0.00000000000000 1.00000000000000
0.20740740740741 0.11851851851852 1.84691358024691 0.00000000000000 -0.00000000000000 1.00000000000000
0.23354037267081 0.11925465838509 1.85838509316770 -0.00000000000000 0.00000000000000 1.00000000000000
0.28989547038328 0.13379790940767 2.08501742160279 0.00000000000000 -0.00000000000000 1.00000000000000
0.31666666666667 0.13333333333333 2.07777777777778 -0.00000000000000 0.00000000000000 -1.00000000000000
-0.39741935483871 0.15548387096774 2.41290322580645 0.00000000000000 0.00000000000000 -1.00000000000000
-0.36516129032258 0.15548387096774 2.41290322580645 -0.00000000000000 0.00000000000000 1.00000000000000
-0.33290322580645 0.15548387096774 2.41290322580645 0.00000000000000 0.00000000000000 1.00000000000000
-0.24207792207792 0.12519480519481 1.94285714285714 0.95655091684864 0.27330026195676 0.10157416152939
-0.21130158730159 0.12241269841270 1.89968253968254 -0.00000000000000 -0.00000000000000 1.00000000000000
-0.18357366771160 0.12087774294671 1.87586206896552 0.00000000000000 -0.00000000000000 1.00000000000000
-0.15750778816199 0.12012461059190 1.86417445482866 0.00000000000000 0.00000000000000 1.00000000000000
-0.13135802469136 0.11901234567901 1.84691358024691 -0.00000000000000 -0.00000000000000 -1.00000000000000
-0.10601226993865 0.11828220858896 1.83558282208589 0.00000000000000 0.00000000000000 1.00000000000000
-0.08122324159021 0.11792048929664 1.82996941896024 0.00000000000000 0.00000000000000 1.00000000000000
-0.05675840978593 0.11792048929664 1.82996941896024 0.00000000000000 -0.00000000000000 -1.00000000000000
-0.03249230769231 0.11864615384615 1.84123076923077 0.00000000000000 -0.00000000000000 -1.00000000000000
-0.00805031446541 0.12125786163522 1.88176100628931 0.00000000000000 0.00000000000000 1.00000000000000
0.01668711656442 0.11828220858896 1.83558282208589 -0.00000000000000 -0.00000000000000 -1.00000000000000
0.04085106382979 0.11720364741641 1.81884498480243 0.00000000000000 0.00000000000000 1.00000000000000
0.06496969696970 0.11684848484848 1.81333333333333 0.00000000000000 0.00000000000000 1.00000000000000
0.08921212121212 0.11684848484848 1.81333333333333 -0.00000000000000 0.00000000000000 -1.00000000000000
0.11379939209726 0.11720364741641 1.81884498480243 0.00000000000000 0.00000000000000 1.00000000000000
0.13853658536585 0.11756097560976 1.82439024390244 0.00000000000000 0.00000000000000 1.00000000000000
0.16292682926829 0.11756097560976 1.82439024390244 0.00000000000000 -0.00000000000000 1.00000000000000
0.18788990825688 0.11792048929664 1.82996941896024 0.00000000000000 -0.00000000000000 -1.00000000000000
0.21498452012384 0.11938080495356 1.85263157894737 0.00000000000000 -0.00000000000000 -1.00000000000000
0.24049689440994 0.11975155279503 1.85838509316770 0.00000000000000 -0.00000000000000 1.00000000000000
0.29770034843206 0.13435540069686 2.08501742160279 -0.00000000000000 0.00000000000000 -1.00000000000000
0.32332179930796 0.13342560553633 2.07058823529412 -0.00000000000000 0.00000000000000 1.00000000000000
-0.38838709677419 0.15612903225806 2.41290322580645 -0.00000000000000 0.00000000000000 1.00000000000000
-0.35612903225806 0.15612903225806 2.41290322580645 0.00000000000000 -0.00000000000000 1.00000000000000
-0.26162866449511 0.12612377850163 1.94918566775244 0.00000000000000 -0.00000000000000 1.00000000000000
-0.23329032258065 0.12490322580645 1.93032258064516 0.00000000000000 0.00000000000000 -1.00000000000000
-0.20290220820189 0.12214511041009 1.88769716088328 0.00000000000000 0.00000000000000 -1.00000000000000
-0.17600000000000 0.12100000000000 1.87000000000000 0.00000000000000 -0.00000000000000 1.00000000000000
-0.15006211180124 0.12024844720497 1.85838509316770 0.00000000000000 0.00000000000000 1.00000000000000
-0.12406153846154 0.11913846153846 1.84123076923077 0.00000000000000 -0.00000000000000 1.00000000000000
-0.09883792048930 0.11840978593272 1.82996941896024 0.00000000000000 -0.00000000000000 1.00000000000000
-0.07437308868502 0.11840978593272 1.82996941896024 0.00000000000000 0.00000000000000 1.00000000000000
-0.04990825688073 0.11840978593272 1.82996941896024 0.00000000000000 -0.00000000000000 1.00000000000000
-0.02567901234568 0.11950617283951 1.84691358024691 -0.00000000000000 0.00000000000000 -1.00000000000000
-0.00099378881988 0.12024844720497 1.85838509316770 0.00000000000000 0.00000000000000 1.00000000000000
0.02348623853211 0.11840978593272 1.82996941896024 0.00000000000000 0.00000000000000 1.00000000000000
0.04751515151515 0.11733333333333 1.81333333333333 0.00000000000000 -0.00000000000000 1.00000000000000
0.07175757575758 0.11733333333333 1.81333333333333 0.00000000000000 0.00000000000000 1.00000000000000
0.09600000000000 0.11733333333333 1.81333333333333 -0.00000000000000 0.00000000000000 1.00000000000000
0.12060790273556 0.11768996960486 1.81884498480243 0.00000000000000 -0.00000000000000 -1.00000000000000
0.14536585365854 0.11804878048780 1.82439024390244 0.00000000000000 -0.00000000000000 1.00000000000000
0.16975609756098 0.11804878048780 1.82439024390244 0.00000000000000 -0.00000000000000 1.00000000000000
0.19533742331288 0.11877300613497 1.83558282208589 -0.00000000000000 0.00000000000000 -1.00000000000000
0.22260869565217 0.12024844720497 1.85838509316770 nan nan nan
0.27860139860140 0.13538461538462 2.09230769230769 0.00000000000000 0.00000000000000 -1.00000000000000
0.30444444444444 0.13444444444444 2.07777777777778 -0.00000000000000 0.00000000000000 -1.00000000000000
0.33107266435986 0.13397923875433 2.07058823529412 nan nan nan
-0.37935483870968 0.15677419354839 2.41290322580645 0.00000000000000 -0.00000000000000 1.00000000000000
-0.34709677419355 0.15677419354839 2.41290322580645 0.00000000000000 -0.00000000000000 1.00000000000000
-0.25433224755700 0.12664495114007 1.94918566775244 -0.00000000000000 0.00000000000000 -1.00000000000000
-0.22461538461538 0.12461538461538 1.91794871794872 -0.00000000000000 -0.00000000000000 -1.00000000000000
-0.19522012578616 0.12226415094340 1.88176100628931 0.00000000000000 -0.00000000000000 1.00000000000000
-0.16900000000000 0.12150000000000 1.87000000000000 0.00000000000000 0.00000000000000 1.00000000000000
-0.14266253869969 0.12037151702786 1.85263157894737 0.00000000000000 0.00000000000000 1.00000000000000
-0.11716923076923 0.11963076923077 1.84123076923077 0.00000000000000 0.00000000000000 1.00000000000000
-0.09198776758410 0.11889908256881 1.82996941896024 0.00000000000000 -0.00000000000000 1.00000000000000
-0.06752293577982 0.11889908256881 1.82996941896024 0.00000000000000 0.00000000000000 1.00000000000000
-0.04319018404908 0.11926380368098 1.83558282208589 0.00000000000000 -0.00000000000000 1.00000000000000
-0.01888198757764 0.12074534161491 1.85838509316770 -0.00000000000000 0.00000000000000 -1.00000000000000
0.00592592592593 0.12000000000000 1.84691358024691 0.96131331870889 0.27466094820254 -0.02093004551811
0.03024390243902 0.11853658536585 1.82439024390244 0.00000000000000 0.00000000000000 1.00000000000000
0.05430303030303 0.11781818181818 1.81333333333333 0.00000000000000 0.00000000000000 1.00000000000000
0.07854545454545 0.11781818181818 1.81333333333333 0.00000000000000 0.00000000000000 1.00000000000000
0.10278787878788 0.11781818181818 1.81333333333333 -0.00000000000000 0.00000000000000 -1.00000000000000
0.12741641337386 0.11817629179331 1.81884498480243 0.00000000000000 -0.00000000000000 1.00000000000000
0.15219512195122 0.11853658536585 1.82439024390244 -0.00000000000000 0.00000000000000 1.00000000000000
0.17658536585366 0.11853658536585 1.82439024390244 0.00000000000000 -0.00000000000000 1.00000000000000
0.20283076923077 0.11963076923077 1.84123076923077 -0.00000000000000 0.00000000000000 1.00000000000000
0.22956521739130 0.12074534161491 1.85838509316770 0.00000000000000 0.00000000000000 1.00000000000000
0.28643356643357 0.13594405594406 2.09230769230769 -0.00000000000000 0.00000000000000 -1.00000000000000
0.31222222222222 0.13500000000000 2.07777777777778 nan nan nan
0.33882352941176 0.13453287197232 2.07058823529412 -0.00000000000000 0.00000000000000 -1.00000000000000
-0.37032258064516 0.15741935483871 2.41290322580645 0.00000000000000 -0.00000000000000 1.00000000000000
-0.33806451612903 0.15741935483871 2.41290322580645 0.00000000000000 -0.00000000000000 1.00000000000000
-0.24703583061889 0.12716612377850 1.94918566775244 0.00000000000000 0.00000000000000 1.00000000000000
-0.21605095541401 0.12433121019108 1.90573248407643 0.00000000000000 0.00000000000000 -1.00000000000000
-0.18758620689655 0.12238244514107 1.87586206896552 0.00000000000000 -0.00000000000000 1.00000000000000
-0.16149532710280 0.12161993769470 1.86417445482866 0.00000000000000 0.00000000000000 1.00000000000000
-0.13530864197531 0.12049382716049 1.84691358024691 0.00000000000000 0.00000000000000 1.00000000000000
-0.10993865030675 0.11975460122699 1.83558282208589 -0.00000000000000 -0.00000000000000 -1.00000000000000
-0.08513761467890 0.11938837920489 1.82996941896024 0.00000000000000 0.00000000000000 1.00000000000000
-0.06067278287462 0.11938837920489 1.82996941896024 0.00000000000000 0.00000000000000 1.00000000000000
-0.03643076923077 0.12012307692308 1.84123076923077 0.00000000000000 0.00000000000000 -1.00000000000000
-0.01200000000000 0.12200000000000 1.87000000000000 0.00000000000000 0.00000000000000 1.00000000000000
0.01276073619632 0.11975460122699 1.83558282208589 0.00000000000000 0.00000000000000 -1.00000000000000
0.03696048632219 0.11866261398176 1.81884498480243 -0.00000000000000 -0.00000000000000 -1.00000000000000
0.06109090909091 0.11830303030303 1.81333333333333 0.00000000000000 0.00000000000000 1.00000000000000
0.08533333333333 0.11830303030303 1.81333333333333 0.00000000000000 0.00000000000000 1.00000000000000
0.10957575757576 0.11830303030303 1.81333333333333 nan nan nan
0.13422492401216 0.11866261398176 1.81884498480243 0.00000000000000 -0.00000000000000 1.00000000000000
0.15902439024390 0.11902439024390 1.82439024390244 0.00000000000000 -0.00000000000000 1.00000000000000
0.18341463414634 0.11902439024390 1.82439024390244 0.00000000000000 -0.00000000000000 1.00000000000000
0.21037037037037 0.12049382716049 1.84691358024691 -0.00000000000000 0.00000000000000 -1.00000000000000
0.23652173913043 0.12124223602484 1.85838509316770 0.00000000000000 0.00000000000000 1.00000000000000
0.29324041811847 0.13602787456446 2.08501742160279 0.00000000000000 -0.00000000000000 -1.00000000000000
0.31889273356401 0.13508650519031 2.07058823529412 0.00000000000000 0.00000000000000 -1.00000000000000
-0.39354838709677 0.15806451612903 2.41290322580645 0.00000000000000 -0.00000000000000 1.00000000000000
-0.36129032258065 0.15806451612903 2.41290322580645 0.00000000000000 -0.00000000000000 1.00000000000000
-0.28235294117647 0.13564013840830 2.07058823529412 -0.97512167131279 -0.16442332631035 -0.14866975449363
-0.23818770226537 0.12686084142395 1.93656957928803 -0.00000000000000 -0.00000000000000 -1.00000000000000
-0.20759493670886 0.12405063291139 1.89367088607595 0.95787149260633 0.27367756931609 0.08707922660058
-0.18056426332288 0.12288401253918 1.87586206896552 0.00000000000000 0.00000000000000 1.00000000000000
-0.15403726708075 0.12173913043478 1.85838509316770 0.00000000000000 0.00000000000000 1.00000000000000
-0.12800000000000 0.12061538461538 1.84123076923077 0.00000000000000 -0.00000000000000 1.00000000000000
-0.10275229357798 0.11987767584098 1.82996941896024 0.00000000000000 -0.00000000000000 1.00000000000000
-0.07804878048780 0.11951219512195 1.82439024390244 0.00000000000000 -0.00000000000000 1.00000000000000
-0.05382262996942 0.11987767584098 1.82996941896024 -0.00000000000000 0.00000000000000 -1.00000000000000
-0.02953846153846 0.12061538461538 1.84123076923077 -0.00000000000000 0.00000000000000 -1.00000000000000
-0.00500000000000 0.12250000000000 1.87000000000000 0.00000000000000 0.00000000000000 1.00000000000000
0.01957186544343 0.11987767584098 1.82996941896024 0.00000000000000 0.00000000000000 1.00000000000000
0.04363636363636 0.11878787878788 1.81333333333333 0.00000000000000 -0.00000000000000 1.00000000000000
0.06767371601208 0.11842900302115 1.80785498489426 0.00000000000000 -0.00000000000000 1.00000000000000
0.09212121212121 0.11878787878788 1.81333333333333 0.00000000000000 0.00000000000000 1.00000000000000
0.11636363636364 0.11878787878788 1.81333333333333 0.00000000000000 -0.00000000000000 1.00000000000000
0.14103343465046 0.11914893617021 1.81884498480243 0.00000000000000 -0.00000000000000 1.00000000000000
0.16585365853659 0.11951219512195 1.82439024390244 nan nan nan
0.19082568807339 0.11987767584098 1.82996941896024 -0.00000000000000 0.00000000000000 -1.00000000000000
0.21795665634675 0.12136222910217 1.85263157894737 -0.00000000000000 0.00000000000000 1.00000000000000
0.24347826086957 0.12173913043478 1.85838509316770 0.00000000000000 0.00000000000000 1.00000000000000
0.30000000000000 0.13611111111111 2.07777777777778 0.00000000000000 0.00000000000000 -1.00000000000000
0.32664359861592 0.13564013840830 2.07058823529412 0.00000000000000 -0.00000000000000 -1.00000000000000
-0.38451612903226 0.15870967741935 2.41290322580645 -0.00000000000000 0.00000000000000 1.00000000000000
-0.35225806451613 0.15870967741935 2.41290322580645 -0.00000000000000 0.00000000000000 1.00000000000000
-0.25850162866450 0.12820846905537 1.94918566775244 -0.00000000000000 0.00000000000000 1.00000000000000
-0.22945337620579 0.12655948553055 1.92411575562701 0.95706947392281 0.27344842112080 0.09614563469889
-0.19924528301887 0.12377358490566 1.88176100628931 0.00000000000000 -0.00000000000000 1.00000000000000
-0.17300000000000 0.12300000000000 1.87000000000000 0.00000000000000 0.00000000000000 1.00000000000000
-0.14662538699690 0.12185758513932 1.85263157894737 -0.00000000000000 -0.00000000000000 -1.00000000000000
-0.12110769230769 0.12110769230769 1.84123076923077 0.00000000000000 0.00000000000000 1.00000000000000
-0.09590214067278 0.12036697247706 1.82996941896024 -0.00000000000000 0.00000000000000 1.00000000000000
-0.07121951219512 0.12000000000000 1.82439024390244 0.00000000000000 -0.00000000000000 1.00000000000000
-0.04697247706422 0.12036697247706 1.82996941896024 0.00000000000000 -0.00000000000000 -1.00000000000000
-0.02278637770898 0.12185758513932 1.85263157894737 0.00000000000000 0.00000000000000 1.00000000000000
0.00198142414861 0.12185758513932 1.85263157894737 -0.00000000000000 -0.00000000000000 1.00000000000000
0.02634146341463 0.12000000000000 1.82439024390244 -0.00000000000000 -0.00000000000000 1.00000000000000
0.05042424242424 0.11927272727273 1.81333333333333 0.00000000000000 0.00000000000000 1.00000000000000
0.07444108761329 0.11891238670695 1.80785498489426 0.00000000000000 -0.00000000000000 1.00000000000000
0.09890909090909 0.11927272727273 1.81333333333333 0.00000000000000 -0.00000000000000 1.00000000000000
0.12352583586626 0.11963525835866 1.81884498480243 0.00000000000000 0.00000000000000 1.00000000000000
0.14829268292683 0.12000000000000 1.82439024390244 0.00000000000000 0.00000000000000 1.00000000000000
0.17268292682927 0.12000000000000 1.82439024390244 -0.00000000000000 0.00000000000000 -1.00000000000000
0.19828220858896 0.12073619631902 1.83558282208589 0.00000000000000 -0.00000000000000 -1.00000000000000
0.22559006211180 0.12223602484472 1.85838509316770 0.00000000000000 0.00000000000000 1.00000000000000
0.28195804195804 0.13762237762238 2.09230769230769 0.00000000000000 -0.00000000000000 -1.00000000000000
0.30777777777778 0.13666666666667 2.07777777777778 0.00000000000000 -0.00000000000000 1.00000000000000
0.33439446366782 0.13619377162630 2.07058823529412 nan nan nan
-0.37548387096774 0.15935483870968 2.41290322580645 -0.00000000000000 0.00000000000000 1.00000000000000
-0.34322580645161 0.15935483870968 2.41290322580645 -0.00000000000000 0.00000000000000 1.00000000000000
-0.25120521172638 0.12872964169381 1.94918566775244 0.00000000000000 0.00000000000000 1.00000000000000
-0.22083067092652 0.12626198083067 1.91182108626198 0.00000000000000 0.00000000000000 -1.00000000000000
-0.19220125786164 0.12427672955975 1.88176100628931 0.00000000000000 0.00000000000000 1.00000000000000
-0.16548286604361 0.12311526479751 1.86417445482866 0.00000000000000 0.00000000000000 1.00000000000000
-0.13925925925926 0.12197530864198 1.84691358024691 0.00000000000000 -0.00000000000000 1.00000000000000
-0.11386503067485 0.12122699386503 1.83558282208589 nan nan nan
-0.08905198776758 0.12085626911315 1.82996941896024 0.00000000000000 0.00000000000000 1.00000000000000
-0.06439024390244 0.12048780487805 1.82439024390244 0.00000000000000 -0.00000000000000 1.00000000000000
-0.04024539877301 0.12122699386503 1.83558282208589 0.00000000000000 -0.00000000000000 -1.00000000000000
-0.01595015576324 0.12311526479751 1.86417445482866 -0.00000000000000 0.00000000000000 1.00000000000000
0.00886153846154 0.12160000000000 1.84123076923077 0.00000000000000 0.00000000000000 1.00000000000000
0.03306990881459 0.12012158054711 1.81884498480243 0.00000000000000 0.00000000000000 1.00000000000000
0.05703927492447 0.11939577039275 1.80785498489426 0.00000000000000 -0.00000000000000 1.00000000000000
0.08120845921450 0.11939577039275 1.80785498489426 0.00000000000000 -0.00000000000000 1.00000000000000
0.10569696969697 0.11975757575758 1.81333333333333 0.00000000000000 -0.00000000000000 -1.00000000000000
0.13033434650456 0.12012158054711 1.81884498480243 -0.00000000000000 0.00000000000000 1.00000000000000
0.15512195121951 0.12048780487805 1.82439024390244 0.00000000000000 0.00000000000000 1.00000000000000
0.17951219512195 0.12048780487805 1.82439024390244 -0.00000000000000 0.00000000000000 1.00000000000000
0.20578461538462 0.12160000000000 1.84123076923077 -0.00000000000000 0.00000000000000 -1.00000000000000
0.23182662538700 0.12235294117647 1.85263157894737 0.00000000000000 -0.00000000000000 1.00000000000000
0.28878048780488 0.13770034843206 2.08501742160279 0.00000000000000 0.00000000000000 -1.00000000000000
0.31555555555556 0.13722222222222 2.07777777777778 0.00000000000000 0.00000000000000 1.00000000000000
-0.39870967741935 0.16000000000000 2.41290322580645 0.00000000000000 0.00000000000000 -1.00000000000000
-0.36645161290323 0.16000000000000 2.41290322580645 0.00000000000000 -0.00000000000000 -1.00000000000000
-0.33419354838710 0.16000000000000 2.41290322580645 -0.00000000000000 0.00000000000000 -1.00000000000000
-0.24311688311688 0.12883116883117 1.94285714285714 -0.00000000000000 -0.00000000000000 1.00000000000000
-0.21231746031746 0.12596825396825 1.89968253968254 0.95771733580343 0.27363352451527 0.08889431344547
-0.18457680250784 0.12438871473354 1.87586206896552 0.00000000000000 0.00000000000000 1.00000000000000
-0.15801242236025 0.12322981366460 1.85838509316770 0.00000000000000 0.00000000000000 1.00000000000000
-0.13193846153846 0.12209230769231 1.84123076923077 0.00000000000000 -0.00000000000000 1.00000000000000
-0.10666666666667 0.12134556574924 1.82996941896024 0.00000000000000 -0.00000000000000 1.00000000000000
-0.08195121951220 0.12097560975610 1.82439024390244 0.00000000000000 -0.00000000000000 1.00000000000000
-0.05756097560976 0.12097560975610 1.82439024390244 0.00000000000000 -0.00000000000000 1.00000000000000
-0.03347692307692 0.12209230769231 1.84123076923077 nan nan nan
-0.00905660377358 0.12477987421384 1.88176100628931 0.96143518006913 0.27469576573404 -0.01358789215529
0.01565749235474 0.12134556574924 1.82996941896024 0.00000000000000 -0.00000000000000 1.00000000000000
0.03975757575758 0.12024242424242 1.81333333333333 0.00000000000000 -0.00000000000000 1.00000000000000
0.06380664652568 0.11987915407855 1.80785498489426 0.00000000000000 -0.00000000000000 1.00000000000000
0.08797583081571 0.11987915407855 1.80785498489426 0.00000000000000 -0.00000000000000 1.00000000000000
0.11248484848485 0.12024242424242 1.81333333333333 -0.00000000000000 0.00000000000000 -1.00000000000000
0.13714285714286 0.12060790273556 1.81884498480243 0.00000000000000 -0.00000000000000 1.00000000000000
0.16195121951220 0.12097560975610 1.82439024390244 0.00000000000000 0.00000000000000 1.00000000000000
0.18634146341463 0.12097560975610 1.82439024390244 0.00000000000000 -0.00000000000000 1.00000000000000
0.21333333333333 0.12246913580247 1.84691358024691 -0.00000000000000 0.00000000000000 -1.00000000000000
0.23876160990712 0.12284829721362 1.85263157894737 0.00000000000000 -0.00000000000000 1.00000000000000
0.29658536585366 0.13825783972125 2.08501742160279 -0.00000000000000 0.00000000000000 -1.00000000000000
0.32221453287197 0.13730103806228 2.07058823529412 0.00000000000000 -0.00000000000000 1.00000000000000
-0.38967741935484 0.16064516129032 2.41290322580645 -0.00000000000000 0.00000000000000 1.00000000000000
-0.35741935483871 0.16064516129032 2.41290322580645 -0.00000000000000 0.00000000000000 1.00000000000000
-0.26267100977199 0.12977198697068 1.94918566775244 0.00000000000000 -0.00000000000000 1.00000000000000
-0.23432258064516 0.12851612903226 1.93032258064516 0.00000000000000 0.00000000000000 1.00000000000000
-0.20391167192429 0.12567823343849 1.88769716088328 -0.00000000000000 -0.00000000000000 -1.00000000000000
-0.17700000000000 0.12450000000000 1.87000000000000 0.00000000000000 0.00000000000000 1.00000000000000
-0.15058823529412 0.12334365325077 1.85263157894737 0.00000000000000 -0.00000000000000 1.00000000000000
-0.12504615384615 0.12258461538462 1.84123076923077 0.00000000000000 0.00000000000000 1.00000000000000
-0.09981651376147 0.12183486238532 1.82996941896024 0.00000000000000 0.00000000000000 1.00000000000000
-0.07512195121951 0.12146341463415 1.82439024390244 0.00000000000000 -0.00000000000000 -1.00000000000000
-0.05088685015291 0.12183486238532 1.82996941896024 0.00000000000000 -0.00000000000000 -1.00000000000000
-0.02666666666667 0.12296296296296 1.84691358024691 0.00000000000000 0.00000000000000 -1.00000000000000
-0.00198757763975 0.12372670807453 1.85838509316770 -0.00000000000000 -0.00000000000000 -1.00000000000000
0.02243902439024 0.12146341463415 1.82439024390244 0.00000000000000 -0.00000000000000 1.00000000000000
0.04654545454545 0.12072727272727 1.81333333333333 0.00000000000000 0.00000000000000 1.00000000000000
0.07057401812689 0.12036253776435 1.80785498489426 0.00000000000000 -0.00000000000000 1.00000000000000
0.09474320241692 0.12036253776435 1.80785498489426 0.00000000000000 -0.00000000000000 1.00000000000000
0.11927272727273 0.12072727272727 1.81333333333333 -0.00000000000000 0.00000000000000 1.00000000000000
0.14395136778115 0.12109422492401 1.81884498480243 -0.00000000000000 0.00000000000000 -1.00000000000000
0.16878048780488 0.12146341463415 1.82439024390244 0.00000000000000 -0.00000000000000 -1.00000000000000
0.19376146788991 0.12183486238532 1.82996941896024 -0.00000000000000 0.00000000000000 -1.00000000000000
0.22092879256966 0.12334365325077 1.85263157894737 nan nan nan
0.27845614035088 0.13978947368421 2.09964912280702 -0.89954418825459 -0.25701262521560 -0.35322055978831
0.30333333333333 0.13833333333333 2.07777777777778 -0.00000000000000 0.00000000000000 -1.00000000000000
0.32996539792388 0.13785467128028 2.07058823529412 0.00000000000000 -0.00000000000000 1.00000000000000
-0.38064516129032 0.16129032258065 2.41290322580645 -0.00000000000000 0.00000000000000 -1.00000000000000
-0.34838709677419 0.16129032258065 2.41290322580645 -0.00000000000000 0.00000000000000 -1.00000000000000
-0.25537459283388 0.13029315960912 1.94918566775244 0.00000000000000 0.00000000000000 1.00000000000000
-0.22564102564103 0.12820512820513 1.91794871794872 0.00000000000000 0.00000000000000 -1.00000000000000
-0.19622641509434 0.12578616352201 1.88176100628931 0.00000000000000 0.00000000000000 1.00000000000000
-0.16947040498442 0.12461059190031 1.86417445482866 0.00000000000000 0.00000000000000 1.00000000000000
-0.14320987654321 0.12345679012346 1.84691358024691 0.00000000000000 -0.00000000000000 1.00000000000000
-0.11779141104294 0.12269938650307 1.83558282208589 -0.00000000000000 -0.00000000000000 1.00000000000000
-0.09296636085627 0.12232415902141 1.82996941896024 0.00000000000000 0.00000000000000 1.00000000000000
-0.06829268292683 0.12195121951220 1.82439024390244 0.00000000000000 -0.00000000000000 -1.00000000000000
-0.04403669724771 0.12232415902141 1.82996941896024 -0.00000000000000 0.00000000000000 -1.00000000000000
-0.01981424148607 0.12383900928793 1.85263157894737 -0.00000000000000 0.00000000000000 -1.00000000000000
0.00493827160494 0.12345679012346 1.84691358024691 0.96131331870889 0.27466094820254 -0.02093004551811
0.02917933130699 0.12158054711246 1.81884498480243 0.00000000000000 -0.00000000000000 1.00000000000000
0.05317220543807 0.12084592145015 1.80785498489426 0.00000000000000 -0.00000000000000 1.00000000000000
0.07734138972810 0.12084592145015 1.80785498489426 0.00000000000000 -0.00000000000000 1.00000000000000
0.10181818181818 0.12121212121212 1.81333333333333 0.00000000000000 0.00000000000000 1.00000000000000
0.12606060606061 0.12121212121212 1.81333333333333 0.00000000000000 -0.00000000000000 1.00000000000000
0.15075987841945 0.12158054711246 1.81884498480243 0.00000000000000 -0.00000000000000 1.00000000000000
0.17560975609756 0.12195121951220 1.82439024390244 0.00000000000000 -0.00000000000000 1.00000000000000
0.20122699386503 0.12269938650307 1.83558282208589 -0.00000000000000 0.00000000000000 -1.00000000000000
0.22786377708978 0.12383900928793 1.85263157894737 0.00000000000000 -0.00000000000000 1.00000000000000
0.28531468531469 0.13986013986014 2.09230769230769 0.00000000000000 0.00000000000000 1.00000000000000
0.31111111111111 0.13888888888889 2.07777777777778 -0.00000000000000 0.00000000000000 1.00000000000000
0.33771626297578 0.13840830449827 2.07058823529412 0.00000000000000 -0.00000000000000 1.00000000000000
-0.37161290322581 0.16193548387097 2.41290322580645 0.00000000000000 -0.00000000000000 1.00000000000000
-0.33935483870968 0.16193548387097 2.41290322580645 0.00000000000000 -0.00000000000000 1.00000000000000
-0.24727272727273 0.13038961038961 1.94285714285714 0.00000000000000 -0.00000000000000 1.00000000000000
-0.21707006369427 0.12789808917197 1.90573248407643 0.00000000000000 0.00000000000000 1.00000000000000
-0.18858934169279 0.12589341692790 1.87586206896552 -0.00000000000000 -0.00000000000000 -1.00000000000000
-0.16198757763975 0.12472049689441 1.85838509316770 0.00000000000000 -0.00000000000000 1.00000000000000
-0.13629629629630 0.12395061728395 1.84691358024691 0.00000000000000 0.00000000000000 1.00000000000000
-0.11058103975535 0.12281345565749 1.82996941896024 0.00000000000000 -0.00000000000000 1.00000000000000
-0.08585365853659 0.12243902439024 1.82439024390244 0.00000000000000 -0.00000000000000 1.00000000000000
-0.06146341463415 0.12243902439024 1.82439024390244 0.00000000000000 -0.00000000000000 1.00000000000000
-0.03730061349693 0.12319018404908 1.83558282208589 -0.00000000000000 0.00000000000000 -1.00000000000000
-0.01300000000000 0.12550000000000 1.87000000000000 -0.00000000000000 0.00000000000000 1.00000000000000
0.01177914110429 0.12319018404908 1.83558282208589 -0.00000000000000 -0.00000000000000 1.00000000000000
0.03587878787879 0.12169696969697 1.81333333333333 0.00000000000000 -0.00000000000000 1.00000000000000
0.05993957703927 0.12132930513595 1.80785498489426 -0.00000000000000 0.00000000000000 1.00000000000000
0.08410876132931 0.12132930513595 1.80785498489426 -0.00000000000000 0.00000000000000 1.00000000000000
0.10860606060606 0.12169696969697 1.81333333333333 0.00000000000000 0.00000000000000 1.00000000000000
0.13325227963526 0.12206686930091 1.81884498480243 0.00000000000000 0.00000000000000 1.00000000000000
0.15756838905775 0.12206686930091 1.81884498480243 0.00000000000000 -0.00000000000000 1.00000000000000
0.18243902439024 0.12243902439024 1.82439024390244 0.00000000000000 -0.00000000000000 1.00000000000000
0.20938271604938 0.12395061728395 1.84691358024691 0.00000000000000 0.00000000000000 -1.00000000000000
0.23479876160991 0.12433436532508 1.85263157894737 -0.00000000000000 0.00000000000000 1.00000000000000
0.29212543554007 0.13993031358885 2.08501742160279 -0.00000000000000 0.00000000000000 1.00000000000000
0.31778546712803 0.13896193771626 2.07058823529412 0.00000000000000 0.00000000000000 -1.00000000000000
-0.39483870967742 0.16258064516129 2.41290322580645 0.00000000000000 -0.00000000000000 1.00000000000000
-0.36258064516129 0.16258064516129 2.41290322580645 nan nan nan
-0.33165991902834 0.16323886639676 2.42267206477733 -0.91021609004616 -0.26006174001319 0.32229576603238
-0.23922330097087 0.13048543689320 1.93656957928803 0.00000000000000 0.00000000000000 1.00000000000000
-0.20794952681388 0.12719242902208 1.88769716088328 0.00000000000000 0.00000000000000 -1.00000000000000
-0.18100000000000 0.12600000000000 1.87000000000000 0.00000000000000 0.00000000000000 1.00000000000000
-0.15455108359133 0.12482972136223 1.85263157894737 0.00000000000000 -0.00000000000000 1.00000000000000
-0.12898461538462 0.12406153846154 1.84123076923077 0.00000000000000 0.00000000000000 1.00000000000000
-0.10373088685015 0.12330275229358 1.82996941896024 0.00000000000000 0.00000000000000 1.00000000000000
-0.07902439024390 0.12292682926829 1.82439024390244 0.00000000000000 -0.00000000000000 1.00000000000000
-0.05463414634146 0.12292682926829 1.82439024390244 0.00000000000000 -0.00000000000000 1.00000000000000
-0.03052307692308 0.12406153846154 1.84123076923077 nan nan nan
-0.00600000000000 0.12600000000000 1.87000000000000 0.00000000000000 -0.00000000000000 -1.00000000000000
0.01859327217125 0.12330275229358 1.82996941896024 0.00000000000000 0.00000000000000 1.00000000000000
0.04266666666667 0.12218181818182 1.81333333333333 0.00000000000000 0.00000000000000 1.00000000000000
0.06670694864048 0.12181268882175 1.80785498489426 0.00000000000000 0.00000000000000 1.00000000000000
0.09087613293051 0.12181268882175 1.80785498489426 0.00000000000000 -0.00000000000000 -1.00000000000000
0.11539393939394 0.12218181818182 1.81333333333333 0.00000000000000 -0.00000000000000 -1.00000000000000
0.14006079027356 0.12255319148936 1.81884498480243 nan nan nan
0.16437689969605 0.12255319148936 1.81884498480243 0.00000000000000 -0.00000000000000 1.00000000000000
0.18926829268293 0.12292682926829 1.82439024390244 -0.00000000000000 0.00000000000000 -1.00000000000000
0.21696594427245 0.12482972136223 1.85263157894737 0.00000000000000 0.00000000000000 -1.00000000000000
0.24173374613003 0.12482972136223 1.85263157894737 -0.00000000000000 0.00000000000000 -1.00000000000000
0.29888888888889 0.14000000000000 2.07777777777778 0.00000000000000 0.00000000000000 -1.00000000000000
0.32553633217993 0.13951557093426 2.07058823529412 -0.00000000000000 0.00000000000000 1.00000000000000
-0.38580645161290 0.16322580645161 2.41290322580645 0.00000000000000 -0.00000000000000 1.00000000000000
-0.35354838709677 0.16322580645161 2.41290322580645 0.00000000000000 -0.00000000000000 1.00000000000000
-0.25954397394137 0.13185667752443 1.94918566775244 0.00000000000000 0.00000000000000 1.00000000000000
-0.23048231511254 0.13016077170418 1.92411575562701 -0.00000000000000 -0.00000000000000 -1.00000000000000
-0.20025157232704 0.12729559748428 1.88176100628931 -0.00000000000000 -0.00000000000000 -1.00000000000000
-0.17345794392523 0.12610591900312 1.86417445482866 0.00000000000000 -0.00000000000000 1.00000000000000
-0.14761609907121 0.12532507739938 1.85263157894737 0.00000000000000 0.00000000000000 1.00000000000000
-0.12171779141104 0.12417177914110 1.83558282208589 0.00000000000000 0.00000000000000 1.00000000000000
-0.09658536585366 0.12341463414634 1.82439024390244 0.00000000000000 -0.00000000000000 1.00000000000000
-0.07219512195122 0.12341463414634 1.82439024390244 0.00000000000000 0.00000000000000 1.00000000000000
-0.04795107033639 0.12379204892966 1.82996941896024 0.00000000000000 -0.00000000000000 -1.00000000000000
-0.02370370370370 0.12493827160494 1.84691358024691 -0.00000000000000 0.00000000000000 -1.00000000000000
0.00099071207430 0.12532507739938 1.85263157894737 0.96134864076988 0.27467104021996 -0.01909477819711
0.02536585365854 0.12341463414634 1.82439024390244 0.00000000000000 0.00000000000000 1.00000000000000
0.04930513595166 0.12229607250755 1.80785498489426 0.00000000000000 -0.00000000000000 1.00000000000000
0.07347432024169 0.12229607250755 1.80785498489426 0.00000000000000 0.00000000000000 1.00000000000000
0.09764350453172 0.12229607250755 1.80785498489426 -0.00000000000000 0.00000000000000 1.00000000000000
