ply
            format ascii 1.0
            element vertex 30655
            property float x
            property float y
            property float z
            property float nx
            property float ny
            property float nz
end_header
-0.15872340425532 0.10723404255319 1.59148936170213 -0.00000000000000 0.00000000000000 -1.00000000000000
-0.13635883905013 0.10638522427441 1.57889182058047 0.00000000000000 -0.00000000000000 1.00000000000000
-0.12304225352113 0.11357746478873 1.68563380281690 -0.00000000000000 0.00000000000000 -1.00000000000000
-0.09514666666667 0.10752000000000 1.59573333333333 0.00000000000000 0.00000000000000 1.00000000000000
-0.07303430079156 0.10638522427441 1.57889182058047 nan nan nan
-0.05138381201044 0.10527415143603 1.56240208877285 -0.00000000000000 0.00000000000000 -1.00000000000000
-0.03073684210526 0.10610526315789 1.57473684210526 0.00000000000000 0.00000000000000 1.00000000000000
-0.00978723404255 0.10723404255319 1.59148936170213 -0.00000000000000 0.00000000000000 -1.00000000000000
0.01164420485175 0.10867924528302 1.61293800539084 0.00000000000000 0.00000000000000 -1.00000000000000
0.03366120218579 0.11016393442623 1.63497267759563 0.00000000000000 0.00000000000000 -1.00000000000000
0.05941520467836 0.11789473684211 1.74970760233918 -0.00000000000000 0.00000000000000 -1.00000000000000
0.08256559766764 0.11755102040816 1.74460641399417 0.00000000000000 0.00000000000000 1.00000000000000
0.10527536231884 0.11686956521739 1.73449275362319 -0.00000000000000 0.00000000000000 -1.00000000000000
0.12809248554913 0.11653179190751 1.72947976878613 0.00000000000000 -0.00000000000000 -1.00000000000000
0.15165217391304 0.11686956521739 1.73449275362319 0.00000000000000 0.00000000000000 -1.00000000000000
0.17136363636364 0.11454545454545 1.70000000000000 -0.00000000000000 0.00000000000000 -1.00000000000000
0.18977777777778 0.11200000000000 1.66222222222222 -0.00000000000000 -0.00000000000000 -1.00000000000000
0.20739130434783 0.10956521739130 1.62608695652174 0.00000000000000 0.00000000000000 1.00000000000000
0.22666666666667 0.10838709677419 1.60860215053763 -0.00000000000000 0.00000000000000 -1.00000000000000
0.25018970189702 0.10926829268293 1.62168021680217 -0.00000000000000 0.00000000000000 1.00000000000000
0.27409836065574 0.11016393442623 1.63497267759563 0.00000000000000 0.00000000000000 -1.00000000000000
0.29758241758242 0.11076923076923 1.64395604395604 -0.00000000000000 0.00000000000000 -1.00000000000000
-0.33473015873016 0.12850793650794 1.89968253968254 -0.00000000000000 -0.00000000000000 -1.00000000000000
-0.30355140186916 0.12610591900312 1.86417445482866 -0.00000000000000 -0.00000000000000 1.00000000000000
-0.27351681957187 0.12379204892966 1.82996941896024 0.00000000000000 0.00000000000000 -1.00000000000000
-0.21544973544974 0.10708994708995 1.58306878306878 nan nan nan
-0.19531914893617 0.10765957446809 1.59148936170213 -0.00000000000000 0.00000000000000 1.00000000000000
-0.17404255319149 0.10765957446809 1.59148936170213 -0.00000000000000 0.00000000000000 -1.00000000000000
-0.15236074270557 0.10737400530504 1.58726790450928 nan nan nan
-0.13810055865922 0.11307262569832 1.67150837988827 0.00000000000000 0.00000000000000 -1.00000000000000
-0.13239616613419 0.12932907348243 1.91182108626198 0.99621035411351 0.03495474926714 -0.07964355504811
-0.08823218997361 0.10680738786280 1.57889182058047 0.77619143753242 0.22176898215212 0.59020790477303
-0.06677165354331 0.10624671916010 1.57060367454068 0.00000000000000 0.00000000000000 1.00000000000000
-0.04565445026178 0.10596858638743 1.56649214659686 -0.00000000000000 0.00000000000000 -1.00000000000000
-0.02490765171504 0.10680738786280 1.57889182058047 0.00000000000000 -0.00000000000000 -1.00000000000000
-0.00385026737968 0.10823529411765 1.60000000000000 -0.00000000000000 0.00000000000000 -1.00000000000000
0.01772972972973 0.10940540540541 1.61729729729730 -0.00000000000000 0.00000000000000 -1.00000000000000
0.04078431372549 0.11338935574230 1.67619047619048 -0.99837753637660 -0.01271818517677 0.05550263619323
0.06577259475219 0.11801749271137 1.74460641399417 0.00000000000000 -0.00000000000000 1.00000000000000
0.08883720930233 0.11767441860465 1.73953488372093 0.00000000000000 -0.00000000000000 -1.00000000000000
0.11176811594203 0.11733333333333 1.73449275362319 -0.00000000000000 0.00000000000000 -1.00000000000000
0.13456647398844 0.11699421965318 1.72947976878613 -0.00000000000000 0.00000000000000 1.00000000000000
0.15723342939481 0.11665706051873 1.72449567723343 0.00000000000000 0.00000000000000 1.00000000000000
0.17622535211268 0.11402816901408 1.68563380281690 -0.00000000000000 0.00000000000000 1.00000000000000
0.19491712707182 0.11182320441989 1.65303867403315 0.00000000000000 0.00000000000000 1.00000000000000
0.21232432432432 0.10940540540541 1.61729729729730 0.00000000000000 0.00000000000000 -1.00000000000000
0.23331536388140 0.10911051212938 1.61293800539084 -0.00000000000000 0.00000000000000 1.00000000000000
0.25626016260163 0.10970189701897 1.62168021680217 -0.00000000000000 0.00000000000000 -1.00000000000000
0.28021857923497 0.11060109289617 1.63497267759563 -0.00000000000000 0.00000000000000 -1.00000000000000
0.30457300275482 0.11151515151515 1.64848484848485 -0.00000000000000 0.00000000000000 -1.00000000000000
-0.32555205047319 0.12820189274448 1.88769716088328 -0.00000000000000 -0.00000000000000 1.00000000000000
-0.29473684210526 0.12582043343653 1.85263157894737 0.77754981287166 0.22215708939190 0.58827078470392
-0.26504559270517 0.12352583586626 1.81884498480243 -0.00000000000000 0.00000000000000 1.00000000000000
-0.21007957559682 0.10779840848806 1.58726790450928 0.00000000000000 -0.00000000000000 1.00000000000000
-0.18936170212766 0.10808510638298 1.59148936170213 0.00000000000000 -0.00000000000000 -1.00000000000000
-0.16808510638298 0.10808510638298 1.59148936170213 0.00000000000000 -0.00000000000000 -1.00000000000000
-0.14603174603175 0.10751322751323 1.58306878306878 0.00000000000000 0.00000000000000 -1.00000000000000
-0.13221288515406 0.11383753501401 1.67619047619048 nan nan nan
-0.10710382513661 0.11103825136612 1.63497267759563 -0.96058056895122 -0.27445159112892 -0.04428650675034
-0.08146214099217 0.10610966057441 1.56240208877285 0.00000000000000 0.00000000000000 -1.00000000000000
-0.06105263157895 0.10694736842105 1.57473684210526 0.00000000000000 0.00000000000000 -1.00000000000000
-0.03989501312336 0.10666666666667 1.57060367454068 0.00000000000000 -0.00000000000000 1.00000000000000
-0.01920000000000 0.10837333333333 1.59573333333333 0.00000000000000 0.00000000000000 -1.00000000000000
0.00213903743316 0.10866310160428 1.60000000000000 -0.00000000000000 0.00000000000000 -1.00000000000000
0.02410958904110 0.11134246575342 1.63945205479452 0.00000000000000 -0.00000000000000 1.00000000000000
0.04912280701754 0.11883040935673 1.74970760233918 nan nan nan
0.07230320699708 0.11848396501458 1.74460641399417 -0.00000000000000 0.00000000000000 -1.00000000000000
0.09534883720930 0.11813953488372 1.73953488372093 0.00000000000000 -0.00000000000000 -1.00000000000000
0.11826086956522 0.11779710144928 1.73449275362319 0.00000000000000 0.00000000000000 1.00000000000000
0.14063400576369 0.11711815561960 1.72449567723343 -0.00000000000000 0.00000000000000 -1.00000000000000
0.16275071633238 0.11644699140401 1.71461318051576 0.00000000000000 0.00000000000000 -1.00000000000000
0.18151260504202 0.11383753501401 1.67619047619048 0.84858966662855 0.24245419046529 0.47022499212300
0.19945205479452 0.11134246575342 1.63945205479452 -0.00000000000000 0.00000000000000 1.00000000000000
0.21720430107527 0.10924731182796 1.60860215053763 0.00000000000000 -0.00000000000000 1.00000000000000
0.24000000000000 0.10983783783784 1.61729729729730 -0.00000000000000 0.00000000000000 1.00000000000000
0.26304347826087 0.11043478260870 1.62608695652174 -0.00000000000000 0.00000000000000 -1.00000000000000
0.28712328767123 0.11134246575342 1.63945205479452 0.00000000000000 -0.00000000000000 1.00000000000000
-0.34923076923077 0.13076923076923 1.91794871794872 0.00000000000000 0.00000000000000 1.00000000000000
-0.31748427672956 0.12830188679245 1.88176100628931 0.00000000000000 0.00000000000000 1.00000000000000
-0.28691358024691 0.12592592592593 1.84691358024691 0.00000000000000 0.00000000000000 1.00000000000000
-0.22416886543536 0.10765171503958 1.57889182058047 0.00000000000000 0.00000000000000 -1.00000000000000
-0.20413793103448 0.10822281167109 1.58726790450928 0.00000000000000 -0.00000000000000 1.00000000000000
-0.18340425531915 0.10851063829787 1.59148936170213 nan nan nan
-0.16212765957447 0.10851063829787 1.59148936170213 0.00000000000000 -0.00000000000000 1.00000000000000
-0.14010582010582 0.10793650793651 1.58306878306878 -0.00000000000000 0.00000000000000 -1.00000000000000
-0.12629213483146 0.11460674157303 1.68089887640449 -0.00000000000000 0.00000000000000 -1.00000000000000
-0.09935483870968 0.10967741935484 1.60860215053763 -0.96073022592214 -0.27449435026347 -0.04062369595477
-0.07681697612732 0.10822281167109 1.58726790450928 -0.96115253976793 -0.27461501136227 -0.02779192026754
-0.05486910994764 0.10680628272251 1.56649214659686 -0.78162632578944 -0.22332180736841 -0.58239819469725
-0.03410526315789 0.10736842105263 1.57473684210526 0.00000000000000 -0.00000000000000 1.00000000000000
-0.01319148936170 0.10851063829787 1.59148936170213 0.00000000000000 -0.00000000000000 1.00000000000000
0.00817204301075 0.10967741935484 1.60860215053763 -0.00000000000000 0.00000000000000 -1.00000000000000
0.03024657534247 0.11178082191781 1.63945205479452 0.00000000000000 0.00000000000000 1.00000000000000
0.05567251461988 0.11929824561404 1.74970760233918 -0.00000000000000 0.00000000000000 -1.00000000000000
0.07883381924198 0.11895043731778 1.74460641399417 -0.00000000000000 0.00000000000000 -1.00000000000000
0.10156521739130 0.11826086956522 1.73449275362319 0.00000000000000 0.00000000000000 -1.00000000000000
0.12439306358382 0.11791907514451 1.72947976878613 0.00000000000000 -0.00000000000000 1.00000000000000
0.14837209302326 0.11860465116279 1.73953488372093 -0.00000000000000 0.00000000000000 1.00000000000000
0.16820512820513 0.11623931623932 1.70484330484330 0.00000000000000 0.00000000000000 1.00000000000000
0.18674094707521 0.11364902506964 1.66685236768802 nan nan nan
0.20446866485014 0.11117166212534 1.63051771117166 0.84794259499159 0.24226931285474 0.47148588064525
0.22322580645161 0.10967741935484 1.60860215053763 0.00000000000000 -0.00000000000000 1.00000000000000
0.24605405405405 0.11027027027027 1.61729729729730 -0.00000000000000 0.00000000000000 -1.00000000000000
0.26986376021798 0.11117166212534 1.63051771117166 0.00000000000000 -0.00000000000000 1.00000000000000
0.29406593406593 0.11208791208791 1.64395604395604 0.00000000000000 0.00000000000000 -1.00000000000000
-0.33987261146497 0.13044585987261 1.90573248407643 -0.00000000000000 -0.00000000000000 1.00000000000000
-0.30850000000000 0.12800000000000 1.87000000000000 0.00000000000000 0.00000000000000 1.00000000000000
-0.27828220858896 0.12564417177914 1.83558282208589 0.00000000000000 0.00000000000000 -1.00000000000000
-0.21883597883598 0.10835978835979 1.58306878306878 0.00000000000000 0.00000000000000 -1.00000000000000
-0.19819628647215 0.10864721485411 1.58726790450928 -0.00000000000000 0.00000000000000 -1.00000000000000
-0.17744680851064 0.10893617021277 1.59148936170213 -0.00000000000000 0.00000000000000 -1.00000000000000
-0.15575596816976 0.10864721485411 1.58726790450928 0.00000000000000 0.00000000000000 -1.00000000000000
-0.13382585751979 0.10807387862797 1.57889182058047 -0.00000000000000 0.00000000000000 -1.00000000000000
-0.12346820809249 0.11838150289017 1.72947976878613 0.00000000000000 0.00000000000000 -1.00000000000000
-0.09209549071618 0.10864721485411 1.58726790450928 -0.96086700913703 -0.27453343118201 -0.03695924668453
-0.07031578947368 0.10778947368421 1.57473684210526 0.00000000000000 0.00000000000000 1.00000000000000
-0.04900523560209 0.10722513089005 1.56649214659686 0.00000000000000 -0.00000000000000 1.00000000000000
-0.02828496042216 0.10807387862797 1.57889182058047 0.00000000000000 -0.00000000000000 1.00000000000000
-0.00725333333333 0.10922666666667 1.59573333333333 0.96142380286859 0.27469251510531 -0.01443237412251
0.01423180592992 0.11040431266846 1.61293800539084 -0.00000000000000 0.00000000000000 -1.00000000000000
0.03628415300546 0.11191256830601 1.63497267759563 -0.00000000000000 0.00000000000000 -1.00000000000000
0.06222222222222 0.11976608187135 1.74970760233918 -0.00000000000000 0.00000000000000 -1.00000000000000
0.08511627906977 0.11906976744186 1.73953488372093 0.00000000000000 0.00000000000000 -1.00000000000000
0.10805797101449 0.11872463768116 1.73449275362319 0.00000000000000 -0.00000000000000 -1.00000000000000
0.13086705202312 0.11838150289017 1.72947976878613 -0.00000000000000 0.00000000000000 1.00000000000000
0.15398843930636 0.11838150289017 1.72947976878613 0.00000000000000 -0.00000000000000 -1.00000000000000
0.17359773371105 0.11603399433428 1.69518413597734 0.00000000000000 0.00000000000000 1.00000000000000
0.19191135734072 0.11346260387812 1.65761772853186 0.00000000000000 0.00000000000000 1.00000000000000
0.20943089430894 0.11100271002710 1.62168021680217 0.00000000000000 0.00000000000000 -1.00000000000000
0.22986522911051 0.11040431266846 1.61293800539084 0.00000000000000 0.00000000000000 -1.00000000000000
0.25279132791328 0.11100271002710 1.62168021680217 0.00000000000000 -0.00000000000000 -1.00000000000000
0.27672131147541 0.11191256830601 1.63497267759563 0.00000000000000 -0.00000000000000 1.00000000000000
0.30104683195592 0.11283746556474 1.64848484848485 0.00000000000000 0.00000000000000 -1.00000000000000
-0.33063291139241 0.13012658227848 1.89367088607595 0.00000000000000 0.00000000000000 -1.00000000000000
-0.29962732919255 0.12770186335404 1.85838509316770 0.00000000000000 0.00000000000000 -1.00000000000000
-0.26975609756098 0.12536585365854 1.82439024390244 0.00000000000000 0.00000000000000 -1.00000000000000
-0.21291005291005 0.10878306878307 1.58306878306878 0.00000000000000 0.00000000000000 1.00000000000000
-0.19276595744681 0.10936170212766 1.59148936170213 0.00000000000000 -0.00000000000000 1.00000000000000
-0.17148936170213 0.10936170212766 1.59148936170213 0.00000000000000 -0.00000000000000 -1.00000000000000
-0.14981432360743 0.10907161803714 1.58726790450928 0.00000000000000 -0.00000000000000 -1.00000000000000
-0.13541899441341 0.11486033519553 1.67150837988827 -0.00000000000000 0.00000000000000 -1.00000000000000
-0.11182320441989 0.11359116022099 1.65303867403315 0.95011774818101 -0.07371603218646 0.30305479898877
-0.08524934383202 0.10792650918635 1.57060367454068 -0.96099090205741 -0.27456882915926 -0.03329330588870
-0.06408376963351 0.10764397905759 1.56649214659686 0.00000000000000 0.00000000000000 1.00000000000000
-0.04314136125654 0.10764397905759 1.56649214659686 -0.00000000000000 0.00000000000000 -1.00000000000000
-0.02237467018470 0.10849604221636 1.57889182058047 -0.00000000000000 0.00000000000000 -1.00000000000000
-0.00128342245989 0.10994652406417 1.60000000000000 0.00000000000000 -0.00000000000000 -1.00000000000000
0.02037940379404 0.11143631436314 1.62168021680217 -0.86960830394202 0.31622120143346 0.37919065056917
0.04551319648094 0.12058651026393 1.75483870967742 0.31897752756638 0.85060674017703 0.41799702208633
0.06857142857143 0.11988338192420 1.74460641399417 0.00000000000000 -0.00000000000000 1.00000000000000
0.09162790697674 0.11953488372093 1.73953488372093 -0.00000000000000 0.00000000000000 -1.00000000000000
0.11455072463768 0.11918840579710 1.73449275362319 -0.00000000000000 0.00000000000000 -1.00000000000000
0.13734104046243 0.11884393063584 1.72947976878613 -0.00000000000000 0.00000000000000 -1.00000000000000
0.15954022988506 0.11816091954023 1.71954022988506 0.00000000000000 0.00000000000000 -1.00000000000000
0.17842696629213 0.11550561797753 1.68089887640449 0.00000000000000 0.00000000000000 -1.00000000000000
0.19702479338843 0.11327823691460 1.64848484848485 0.00000000000000 0.00000000000000 1.00000000000000
0.21433962264151 0.11083557951482 1.61293800539084 nan nan nan
0.23590296495957 0.11083557951482 1.61293800539084 -0.00000000000000 0.00000000000000 -1.00000000000000
0.25956521739130 0.11173913043478 1.62608695652174 0.00000000000000 -0.00000000000000 1.00000000000000
0.28361643835616 0.11265753424658 1.63945205479452 0.00000000000000 0.00000000000000 -1.00000000000000
-0.35561290322581 0.13316129032258 1.93032258064516 -0.94385835636602 -0.00000000000000 -0.33035042472811
-0.32150943396226 0.12981132075472 1.88176100628931 0.00000000000000 0.00000000000000 -1.00000000000000
-0.29086419753086 0.12740740740741 1.84691358024691 0.00000000000000 -0.00000000000000 1.00000000000000
-0.26054380664653 0.12471299093656 1.80785498489426 -0.92432260512765 0.10270251168086 -0.36753219688142
-0.20753315649867 0.10949602122016 1.58726790450928 -0.00000000000000 0.00000000000000 -1.00000000000000
-0.18680851063830 0.10978723404255 1.59148936170213 nan nan nan
-0.16553191489362 0.10978723404255 1.59148936170213 nan nan nan
-0.14349206349206 0.10920634920635 1.58306878306878 -0.00000000000000 0.00000000000000 1.00000000000000
-0.12988764044944 0.11595505617978 1.68089887640449 0.00000000000000 0.00000000000000 -1.00000000000000
-0.10363143631436 0.11186991869919 1.62168021680217 -0.96065700556222 -0.27447343016063 -0.04245531533367
-0.07957894736842 0.10863157894737 1.57473684210526 0.47163769907133 -0.70745654860704 -0.52636784917747
-0.05837270341207 0.10834645669291 1.57060367454068 0.00000000000000 0.00000000000000 -1.00000000000000
-0.03737532808399 0.10834645669291 1.57060367454068 -0.00000000000000 0.00000000000000 -1.00000000000000
-0.01664000000000 0.11008000000000 1.59573333333333 0.00000000000000 0.00000000000000 1.00000000000000
0.00471849865952 0.11067024128686 1.60428954423592 0.00000000000000 0.00000000000000 1.00000000000000
0.02673972602740 0.11309589041096 1.63945205479452 -0.00000000000000 0.00000000000000 1.00000000000000
0.05192982456140 0.12070175438596 1.74970760233918 0.00000000000000 -0.00000000000000 -1.00000000000000
0.07510204081633 0.12034985422741 1.74460641399417 0.00000000000000 -0.00000000000000 -1.00000000000000
0.09813953488372 0.12000000000000 1.73953488372093 0.00000000000000 0.00000000000000 1.00000000000000
0.12069364161850 0.11930635838150 1.72947976878613 0.00000000000000 0.00000000000000 -1.00000000000000
0.14507288629738 0.12034985422741 1.74460641399417 0.00000000000000 -0.00000000000000 1.00000000000000
0.16502857142857 0.11794285714286 1.70971428571429 -0.00000000000000 -0.00000000000000 -1.00000000000000
0.18368715083799 0.11530726256983 1.67150837988827 0.00000000000000 0.00000000000000 -1.00000000000000
0.20153005464481 0.11278688524590 1.63497267759563 0.00000000000000 0.00000000000000 -1.00000000000000
0.21978494623656 0.11096774193548 1.60860215053763 -0.00000000000000 0.00000000000000 -1.00000000000000
0.24259459459459 0.11156756756757 1.61729729729730 0.00000000000000 -0.00000000000000 1.00000000000000
0.26637602179837 0.11247956403270 1.63051771117166 0.00000000000000 0.00000000000000 -1.00000000000000
0.28975342465753 0.11309589041096 1.63945205479452 -0.00000000000000 0.00000000000000 1.00000000000000
-0.34504792332268 0.13239616613419 1.91182108626198 -0.00000000000000 -0.00000000000000 1.00000000000000
-0.31347962382445 0.12990595611285 1.87586206896552 0.00000000000000 0.00000000000000 -1.00000000000000
-0.28307692307692 0.12750769230769 1.84123076923077 -0.00000000000000 -0.00000000000000 -1.00000000000000
-0.22163588390501 0.10934036939314 1.57889182058047 -0.00000000000000 0.00000000000000 -1.00000000000000
-0.20159151193634 0.10992042440318 1.58726790450928 -0.00000000000000 0.00000000000000 1.00000000000000
-0.18085106382979 0.11021276595745 1.59148936170213 -0.00000000000000 0.00000000000000 -1.00000000000000
-0.15957446808511 0.11021276595745 1.59148936170213 0.00000000000000 0.00000000000000 1.00000000000000
-0.13720316622691 0.10934036939314 1.57889182058047 0.00000000000000 0.00000000000000 -1.00000000000000
-0.12394366197183 0.11673239436620 1.68563380281690 -0.00000000000000 -0.00000000000000 1.00000000000000
-0.09600000000000 0.11050666666667 1.59573333333333 -0.96080022781896 -0.27451435080542 -0.03879166695205
-0.07387862796834 0.10934036939314 1.57889182058047 -0.00000000000000 0.00000000000000 1.00000000000000
-0.05221932114883 0.10819843342037 1.56240208877285 -0.00000000000000 -0.00000000000000 1.00000000000000
-0.03157894736842 0.10905263157895 1.57473684210526 -0.00000000000000 0.00000000000000 -1.00000000000000
-0.01063829787234 0.11021276595745 1.59148936170213 0.00000000000000 0.00000000000000 1.00000000000000
0.01078167115903 0.11169811320755 1.61293800539084 0.00000000000000 -0.00000000000000 1.00000000000000
0.03278688524590 0.11322404371585 1.63497267759563 0.00000000000000 0.00000000000000 -1.00000000000000
0.05847953216374 0.12116959064327 1.74970760233918 0.00000000000000 -0.00000000000000 -1.00000000000000
0.08163265306122 0.12081632653061 1.74460641399417 -0.00000000000000 0.00000000000000 -1.00000000000000
0.10434782608696 0.12011594202899 1.73449275362319 -0.00000000000000 0.00000000000000 1.00000000000000
0.12716763005780 0.11976878612717 1.72947976878613 -0.00000000000000 0.00000000000000 -1.00000000000000
0.15072463768116 0.12011594202899 1.73449275362319 0.00000000000000 0.00000000000000 -1.00000000000000
0.17045454545455 0.11772727272727 1.70000000000000 0.00000000000000 0.00000000000000 -1.00000000000000
0.18888888888889 0.11511111111111 1.66222222222222 0.00000000000000 0.00000000000000 -1.00000000000000
0.20652173913043 0.11260869565217 1.62608695652174 0.84794259499158 0.24226931285474 0.47148588064525
0.22580645161290 0.11139784946237 1.60860215053763 -0.00000000000000 0.00000000000000 1.00000000000000
0.24932249322493 0.11230352303523 1.62168021680217 0.00000000000000 -0.00000000000000 1.00000000000000
0.27247956403270 0.11291553133515 1.63051771117166 -0.00000000000000 0.00000000000000 -1.00000000000000
0.29670329670330 0.11384615384615 1.64395604395604 0.00000000000000 -0.00000000000000 1.00000000000000
-0.33574603174603 0.13206349206349 1.89968253968254 0.00000000000000 0.00000000000000 -1.00000000000000
-0.30454828660436 0.12959501557632 1.86417445482866 nan nan nan
-0.27449541284404 0.12721712538226 1.82996941896024 0.00000000000000 0.00000000000000 -1.00000000000000
-0.21629629629630 0.11005291005291 1.58306878306878 0.00000000000000 -0.00000000000000 1.00000000000000
-0.19617021276596 0.11063829787234 1.59148936170213 0.00000000000000 0.00000000000000 -1.00000000000000
-0.17489361702128 0.11063829787234 1.59148936170213 nan nan nan
-0.15320954907162 0.11034482758621 1.58726790450928 -0.00000000000000 0.00000000000000 1.00000000000000
-0.13670329670330 0.11428571428571 1.64395604395604 0.99497941836459 0.06218621364779 0.07841448758368
-0.14449826989619 0.14394463667820 2.07058823529412 -0.99997197635605 0.00000000000000 0.00748642121336
-0.08907651715040 0.10976253298153 1.57889182058047 0.00000000000000 0.00000000000000 -1.00000000000000
-0.06761154855643 0.10918635170604 1.57060367454068 nan nan nan
-0.04649214659686 0.10890052356021 1.56649214659686 0.00000000000000 -0.00000000000000 1.00000000000000
-0.02575197889182 0.10976253298153 1.57889182058047 0.00000000000000 -0.00000000000000 -1.00000000000000
-0.00470588235294 0.11122994652406 1.60000000000000 0.00000000000000 0.00000000000000 -1.00000000000000
0.01686486486486 0.11243243243243 1.61729729729730 0.00000000000000 0.00000000000000 -1.00000000000000
0.03901369863014 0.11397260273973 1.63945205479452 -0.86785892314310 0.31558506296113 0.38370165175135
0.06483965014577 0.12128279883382 1.74460641399417 0.00000000000000 -0.00000000000000 1.00000000000000
0.08790697674419 0.12093023255814 1.73953488372093 0.00000000000000 -0.00000000000000 -1.00000000000000
0.11084057971014 0.12057971014493 1.73449275362319 0.00000000000000 -0.00000000000000 1.00000000000000
0.13364161849711 0.12023121387283 1.72947976878613 0.00000000000000 0.00000000000000 1.00000000000000
0.15631123919308 0.11988472622478 1.72449567723343 -0.00000000000000 0.00000000000000 1.00000000000000
0.17581920903955 0.11751412429379 1.69039548022599 0.00000000000000 0.00000000000000 1.00000000000000
0.19403314917127 0.11491712707182 1.65303867403315 0.00000000000000 0.00000000000000 -1.00000000000000
0.21145945945946 0.11243243243243 1.61729729729730 0.84794259499159 0.24226931285473 0.47148588064525
0.23245283018868 0.11212938005391 1.61293800539084 -0.00000000000000 0.00000000000000 1.00000000000000
0.25539295392954 0.11273712737127 1.62168021680217 0.00000000000000 0.00000000000000 1.00000000000000
0.27934426229508 0.11366120218579 1.63497267759563 -0.00000000000000 0.00000000000000 -1.00000000000000
0.30369146005510 0.11460055096419 1.64848484848485 -0.00000000000000 0.00000000000000 -1.00000000000000
-0.32656151419558 0.13173501577287 1.88769716088328 0.00000000000000 0.00000000000000 -1.00000000000000
-0.29664596273292 0.12968944099379 1.85838509316770 -0.00000000000000 0.00000000000000 -1.00000000000000
-0.26682926829268 0.12731707317073 1.82439024390244 -0.00000000000000 0.00000000000000 -1.00000000000000
-0.21092838196286 0.11076923076923 1.58726790450928 0.00000000000000 0.00000000000000 -1.00000000000000
-0.19021276595745 0.11106382978723 1.59148936170213 nan nan nan
-0.16893617021277 0.11106382978723 1.59148936170213 nan nan nan
-0.14726790450928 0.11076923076923 1.58726790450928 -0.00000000000000 0.00000000000000 -1.00000000000000
-0.13310924369748 0.11697478991597 1.67619047619048 0.00000000000000 -0.00000000000000 1.00000000000000
-0.10797814207650 0.11409836065574 1.63497267759563 0.00000000000000 0.00000000000000 -1.00000000000000
-0.08229765013055 0.10903394255875 1.56240208877285 0.00000000000000 0.00000000000000 -1.00000000000000
-0.06189473684211 0.10989473684211 1.57473684210526 -0.00000000000000 0.00000000000000 1.00000000000000
-0.04073490813648 0.10960629921260 1.57060367454068 0.00000000000000 0.00000000000000 -1.00000000000000
-0.01994694960212 0.11076923076923 1.58726790450928 -0.96234756912947 0.10692750768105 0.24990731140110
0.00128342245989 0.11165775401070 1.60000000000000 0.00000000000000 0.00000000000000 1.00000000000000
0.02323287671233 0.11441095890411 1.63945205479452 0.00000000000000 0.00000000000000 -1.00000000000000
0.04818713450292 0.12210526315789 1.74970760233918 0.00000000000000 0.00000000000000 -1.00000000000000
0.07137026239067 0.12174927113703 1.74460641399417 -0.00000000000000 0.00000000000000 -1.00000000000000
0.09441860465116 0.12139534883721 1.73953488372093 0.00000000000000 -0.00000000000000 -1.00000000000000
0.11699421965318 0.12069364161850 1.72947976878613 0.00000000000000 0.00000000000000 -1.00000000000000
0.13971181556196 0.12034582132565 1.72449567723343 0.00000000000000 0.00000000000000 -1.00000000000000
0.16183381088825 0.11965616045845 1.71461318051576 -0.00000000000000 -0.00000000000000 1.00000000000000
0.18112359550562 0.11730337078652 1.68089887640449 -0.00000000000000 0.00000000000000 -1.00000000000000
0.19912087912088 0.11472527472527 1.64395604395604 0.00000000000000 0.00000000000000 1.00000000000000
0.21634408602151 0.11225806451613 1.60860215053763 0.00000000000000 0.00000000000000 -1.00000000000000
0.23913513513514 0.11286486486486 1.61729729729730 0.00000000000000 0.00000000000000 -1.00000000000000
0.26217391304348 0.11347826086957 1.62608695652174 -0.00000000000000 0.00000000000000 -1.00000000000000
0.28624657534247 0.11441095890411 1.63945205479452 -0.00000000000000 0.00000000000000 -1.00000000000000
-0.35025641025641 0.13435897435897 1.91794871794872 0.00000000000000 0.00000000000000 -1.00000000000000
-0.31849056603774 0.13182389937107 1.88176100628931 -0.00000000000000 0.00000000000000 -1.00000000000000
-0.28790123456790 0.12938271604938 1.84691358024691 -0.00000000000000 0.00000000000000 -1.00000000000000
-0.22560846560847 0.11089947089947 1.58306878306878 -0.80954943151634 0.29438161146049 -0.50790666934536
-0.20498673740053 0.11119363395225 1.58726790450928 0.00000000000000 -0.00000000000000 -1.00000000000000
-0.18425531914894 0.11148936170213 1.59148936170213 -0.00000000000000 0.00000000000000 1.00000000000000
-0.16297872340426 0.11148936170213 1.59148936170213 -0.00000000000000 0.00000000000000 -1.00000000000000
-0.14095238095238 0.11089947089947 1.58306878306878 -0.00000000000000 0.00000000000000 -1.00000000000000
-0.12719101123596 0.11775280898876 1.68089887640449 0.00000000000000 0.00000000000000 1.00000000000000
-0.10021505376344 0.11268817204301 1.60860215053763 -0.96073022592214 -0.27449435026347 -0.04062369595477
-0.07766578249337 0.11119363395225 1.58726790450928 0.00000000000000 0.00000000000000 -1.00000000000000
-0.05570680628272 0.10973821989529 1.56649214659686 nan nan nan
-0.03494736842105 0.11031578947368 1.57473684210526 0.00000000000000 0.00000000000000 -1.00000000000000
-0.01404255319149 0.11148936170213 1.59148936170213 0.00000000000000 0.00000000000000 -1.00000000000000
0.00731182795699 0.11268817204301 1.60860215053763 -0.00000000000000 -0.00000000000000 1.00000000000000
0.02936986301370 0.11484931506849 1.63945205479452 -0.00000000000000 0.00000000000000 -1.00000000000000
0.05473684210526 0.12257309941520 1.74970760233918 nan nan nan
0.07790087463557 0.12221574344023 1.74460641399417 -0.00000000000000 0.00000000000000 -1.00000000000000
0.10063768115942 0.12150724637681 1.73449275362319 0.00000000000000 -0.00000000000000 1.00000000000000
0.12346820809249 0.12115606936416 1.72947976878613 0.00000000000000 -0.00000000000000 -1.00000000000000
0.14787172011662 0.12221574344023 1.74460641399417 -0.00000000000000 0.00000000000000 -1.00000000000000
0.16729344729345 0.11943019943020 1.70484330484330 0.00000000000000 0.00000000000000 -1.00000000000000
0.18584958217270 0.11676880222841 1.66685236768802 -0.00000000000000 0.00000000000000 1.00000000000000
0.20415300546448 0.11453551912568 1.63497267759563 -0.00000000000000 0.00000000000000 -1.00000000000000
0.22236559139785 0.11268817204301 1.60860215053763 -0.00000000000000 0.00000000000000 1.00000000000000
0.24518918918919 0.11329729729730 1.61729729729730 0.00000000000000 0.00000000000000 1.00000000000000
0.26899182561308 0.11422343324251 1.63051771117166 -0.00000000000000 0.00000000000000 -1.00000000000000
0.29238356164384 0.11484931506849 1.63945205479452 -0.00000000000000 0.00000000000000 -1.00000000000000
-0.34089171974522 0.13401273885350 1.90573248407643 0.00000000000000 0.00000000000000 1.00000000000000
-0.30950000000000 0.13150000000000 1.87000000000000 -0.00000000000000 -0.00000000000000 1.00000000000000
-0.27926380368098 0.12907975460123 1.83558282208589 0.00000000000000 0.00000000000000 -1.00000000000000
-0.21910290237467 0.11102902374670 1.57889182058047 -0.00000000000000 0.00000000000000 -1.00000000000000
-0.19904509283820 0.11161803713528 1.58726790450928 -0.00000000000000 0.00000000000000 -1.00000000000000
-0.17829787234043 0.11191489361702 1.59148936170213 nan nan nan
-0.15660477453581 0.11161803713528 1.58726790450928 0.00000000000000 -0.00000000000000 1.00000000000000
-0.13467018469657 0.11102902374670 1.57889182058047 -0.00000000000000 0.00000000000000 -1.00000000000000
-0.12192634560907 0.11920679886686 1.69518413597734 -0.89725216045837 0.32627351289395 0.29746286379416
-0.09294429708223 0.11161803713528 1.58726790450928 -0.96086700913703 -0.27453343118201 -0.03695924668453
-0.07115789473684 0.11073684210526 1.57473684210526 0.77958785255606 0.22273938644459 0.58534600525955
-0.04984293193717 0.11015706806283 1.56649214659686 0.00000000000000 0.00000000000000 -1.00000000000000
-0.02912928759894 0.11102902374670 1.57889182058047 0.00000000000000 -0.00000000000000 1.00000000000000
-0.00810666666667 0.11221333333333 1.59573333333333 0.96142380286859 0.27469251510531 -0.01443237412251
0.01336927223720 0.11342318059299 1.61293800539084 -0.00000000000000 0.00000000000000 -1.00000000000000
0.03540983606557 0.11497267759563 1.63497267759563 0.00000000000000 -0.00000000000000 -1.00000000000000
0.06128654970760 0.12304093567251 1.74970760233918 0.00000000000000 0.00000000000000 1.00000000000000
0.08418604651163 0.12232558139535 1.73953488372093 0.00000000000000 -0.00000000000000 1.00000000000000
0.10713043478261 0.12197101449275 1.73449275362319 0.00000000000000 -0.00000000000000 1.00000000000000
0.12994219653179 0.12161849710983 1.72947976878613 -0.00000000000000 0.00000000000000 1.00000000000000
0.15350724637681 0.12197101449275 1.73449275362319 -0.00000000000000 0.00000000000000 -1.00000000000000
0.17269121813031 0.11920679886686 1.69518413597734 -0.00000000000000 -0.00000000000000 1.00000000000000
0.19102493074792 0.11656509695291 1.65761772853186 -0.00000000000000 -0.00000000000000 -1.00000000000000
0.20856368563686 0.11403794037940 1.62168021680217 0.00000000000000 0.00000000000000 -1.00000000000000
0.22838709677419 0.11311827956989 1.60860215053763 -0.00000000000000 0.00000000000000 -1.00000000000000
0.25192411924119 0.11403794037940 1.62168021680217 -0.00000000000000 0.00000000000000 1.00000000000000
0.27584699453552 0.11497267759563 1.63497267759563 0.00000000000000 -0.00000000000000 1.00000000000000
0.29934065934066 0.11560439560440 1.64395604395604 -0.00000000000000 0.00000000000000 -1.00000000000000
-0.33164556962025 0.13367088607595 1.89367088607595 0.00000000000000 -0.00000000000000 1.00000000000000
-0.30062111801242 0.13118012422360 1.85838509316770 0.00000000000000 -0.00000000000000 1.00000000000000
-0.27155963302752 0.12917431192661 1.82996941896024 0.00000000000000 0.00000000000000 1.00000000000000
-0.21375661375661 0.11174603174603 1.58306878306878 -0.00000000000000 0.00000000000000 1.00000000000000
-0.19361702127660 0.11234042553191 1.59148936170213 0.00000000000000 -0.00000000000000 -1.00000000000000
-0.17234042553191 0.11234042553191 1.59148936170213 0.00000000000000 -0.00000000000000 -1.00000000000000
-0.15066312997347 0.11204244031830 1.58726790450928 -0.00000000000000 0.00000000000000 -1.00000000000000
-0.13631284916201 0.11798882681564 1.67150837988827 -0.00000000000000 -0.00000000000000 1.00000000000000
-0.11791907514451 0.12208092485549 1.72947976878613 -0.19504099720244 0.29256149580366 -0.93614463657247
-0.08608923884514 0.11086614173228 1.57060367454068 0.00000000000000 0.00000000000000 1.00000000000000
-0.06492146596859 0.11057591623037 1.56649214659686 -0.00000000000000 -0.00000000000000 1.00000000000000
-0.04397905759162 0.11057591623037 1.56649214659686 0.00000000000000 0.00000000000000 1.00000000000000
-0.02321899736148 0.11145118733509 1.57889182058047 -0.00000000000000 0.00000000000000 -1.00000000000000
-0.00213903743316 0.11294117647059 1.60000000000000 0.00000000000000 -0.00000000000000 -1.00000000000000
0.01945945945946 0.11416216216216 1.61729729729730 -0.00000000000000 0.00000000000000 -1.00000000000000
0.04444444444444 0.12350877192982 1.74970760233918 0.00000000000000 0.00000000000000 -1.00000000000000
0.06763848396501 0.12314868804665 1.74460641399417 0.00000000000000 -0.00000000000000 -1.00000000000000
0.09069767441860 0.12279069767442 1.73953488372093 -0.00000000000000 0.00000000000000 -1.00000000000000
0.11362318840580 0.12243478260870 1.73449275362319 0.00000000000000 -0.00000000000000 -1.00000000000000
0.13602305475504 0.12172910662824 1.72449567723343 0.00000000000000 0.00000000000000 -1.00000000000000
0.15862068965517 0.12137931034483 1.71954022988506 -0.00000000000000 0.00000000000000 1.00000000000000
0.17802816901408 0.11898591549296 1.68563380281690 0.00000000000000 0.00000000000000 1.00000000000000
0.19614325068871 0.11636363636364 1.64848484848485 0.00000000000000 0.00000000000000 -1.00000000000000
0.21347708894879 0.11385444743935 1.61293800539084 0.84794259499158 0.24226931285474 0.47148588064525
0.23504043126685 0.11385444743935 1.61293800539084 0.00000000000000 -0.00000000000000 1.00000000000000
0.25869565217391 0.11478260869565 1.62608695652174 0.00000000000000 0.00000000000000 -1.00000000000000
0.28196721311475 0.11540983606557 1.63497267759563 -0.00000000000000 0.00000000000000 -1.00000000000000
-0.36130718954248 0.13856209150327 1.95555555555556 0.97546991636439 0.00000000000000 0.22013278326512
-0.32353312302839 0.13375394321767 1.88769716088328 -0.00000000000000 0.00000000000000 -1.00000000000000
-0.29185185185185 0.13086419753086 1.84691358024691 0.00000000000000 0.00000000000000 -1.00000000000000
-0.26310030395137 0.12887537993921 1.81884498480243 -0.82833189529917 0.30121159829061 -0.47237468632994
-0.20838196286472 0.11246684350133 1.58726790450928 0.00000000000000 -0.00000000000000 -1.00000000000000
-0.18765957446809 0.11276595744681 1.59148936170213 0.00000000000000 -0.00000000000000 1.00000000000000
-0.16638297872340 0.11276595744681 1.59148936170213 -0.00000000000000 0.00000000000000 -1.00000000000000
-0.14433862433862 0.11216931216931 1.58306878306878 0.00000000000000 0.00000000000000 -1.00000000000000
-0.13042016806723 0.11876750700280 1.67619047619048 -0.00000000000000 0.00000000000000 -1.00000000000000
-0.10449864498645 0.11490514905149 1.62168021680217 -0.96065700556222 -0.27447343016063 -0.04245531533367
-0.07979112271540 0.11070496083551 1.56240208877285 -0.00000000000000 0.00000000000000 -1.00000000000000
-0.05921259842520 0.11128608923885 1.57060367454068 -0.00000000000000 -0.00000000000000 -1.00000000000000
-0.03821522309711 0.11128608923885 1.57060367454068 0.00000000000000 0.00000000000000 1.00000000000000
-0.01749333333333 0.11306666666667 1.59573333333333 0.00000000000000 -0.00000000000000 1.00000000000000
0.00386058981233 0.11367292225201 1.60428954423592 0.00000000000000 0.00000000000000 1.00000000000000
0.02586301369863 0.11616438356164 1.63945205479452 nan nan nan
0.05099415204678 0.12397660818713 1.74970760233918 nan nan nan
0.07416909620991 0.12361516034985 1.74460641399417 0.00000000000000 -0.00000000000000 -1.00000000000000
0.09720930232558 0.12325581395349 1.73953488372093 -0.00000000000000 0.00000000000000 -1.00000000000000
0.11976878612717 0.12254335260116 1.72947976878613 -0.00000000000000 0.00000000000000 -1.00000000000000
0.14413994169096 0.12361516034985 1.74460641399417 0.00000000000000 0.00000000000000 -1.00000000000000
0.16411428571429 0.12114285714286 1.70971428571429 -0.00000000000000 0.00000000000000 1.00000000000000
0.18279329608939 0.11843575418994 1.67150837988827 0.00000000000000 0.00000000000000 -1.00000000000000
0.20120547945205 0.11616438356164 1.63945205479452 0.00000000000000 0.00000000000000 1.00000000000000
0.21892473118280 0.11397849462366 1.60860215053763 -0.00000000000000 0.00000000000000 1.00000000000000
0.24172972972973 0.11459459459459 1.61729729729730 nan nan nan
0.26478260869565 0.11521739130435 1.62608695652174 -0.00000000000000 0.00000000000000 -1.00000000000000
0.28887671232877 0.11616438356164 1.63945205479452 nan nan nan
-0.34607028753994 0.13597444089457 1.91182108626198 -0.00000000000000 -0.00000000000000 -1.00000000000000
-0.31448275862069 0.13341692789969 1.87586206896552 -0.00000000000000 -0.00000000000000 -1.00000000000000
-0.28406153846154 0.13095384615385 1.84123076923077 0.77822910160022 0.22235117188579 0.58729840948493
-0.22248021108179 0.11229551451187 1.57889182058047 0.00000000000000 0.00000000000000 -1.00000000000000
-0.20244031830239 0.11289124668435 1.58726790450928 -0.00000000000000 0.00000000000000 -1.00000000000000
-0.18170212765957 0.11319148936170 1.59148936170213 0.00000000000000 -0.00000000000000 1.00000000000000
-0.16042553191489 0.11319148936170 1.59148936170213 0.00000000000000 0.00000000000000 1.00000000000000
-0.13804749340369 0.11229551451187 1.57889182058047 0.00000000000000 0.00000000000000 -1.00000000000000
-0.12484507042254 0.11988732394366 1.68563380281690 -0.00000000000000 0.00000000000000 1.00000000000000
-0.09711229946524 0.11379679144385 1.60000000000000 -0.96080022781896 -0.27451435080542 -0.03879166695205
-0.07492063492063 0.11259259259259 1.58306878306878 -0.78026730322681 -0.22293351520766 -0.58436596693537
-0.05305483028721 0.11112271540470 1.56240208877285 0.00000000000000 -0.00000000000000 1.00000000000000
-0.03242105263158 0.11200000000000 1.57473684210526 0.00000000000000 0.00000000000000 1.00000000000000
-0.01148936170213 0.11319148936170 1.59148936170213 0.00000000000000 -0.00000000000000 1.00000000000000
0.00991913746631 0.11471698113208 1.61293800539084 0.00000000000000 0.00000000000000 -1.00000000000000
0.03191256830601 0.11628415300546 1.63497267759563 0.00000000000000 -0.00000000000000 1.00000000000000
0.05754385964912 0.12444444444444 1.74970760233918 -0.00000000000000 0.00000000000000 -1.00000000000000
0.08069970845481 0.12408163265306 1.74460641399417 0.00000000000000 0.00000000000000 1.00000000000000
0.10342028985507 0.12336231884058 1.73449275362319 -0.00000000000000 0.00000000000000 1.00000000000000
0.12624277456647 0.12300578034682 1.72947976878613 -0.00000000000000 0.00000000000000 -1.00000000000000
0.15023255813953 0.12372093023256 1.73953488372093 0.00000000000000 0.00000000000000 1.00000000000000
0.16954545454545 0.12090909090909 1.70000000000000 -0.00000000000000 -0.00000000000000 -1.00000000000000
0.18800000000000 0.11822222222222 1.66222222222222 -0.00000000000000 0.00000000000000 1.00000000000000
0.20621253405995 0.11596730245232 1.63051771117166 -0.84858966662854 -0.24245419046530 -0.47022499212301
0.22494623655914 0.11440860215054 1.60860215053763 0.00000000000000 0.00000000000000 1.00000000000000
0.24845528455285 0.11533875338753 1.62168021680217 0.00000000000000 0.00000000000000 -1.00000000000000
0.27160762942779 0.11596730245232 1.63051771117166 0.00000000000000 0.00000000000000 1.00000000000000
0.29582417582418 0.11692307692308 1.64395604395604 0.00000000000000 -0.00000000000000 1.00000000000000
-0.33676190476190 0.13561904761905 1.89968253968254 -0.00000000000000 -0.00000000000000 -1.00000000000000
-0.30554517133956 0.13308411214953 1.86417445482866 0.77754981287166 0.22215708939190 0.58827078470393
-0.27631901840491 0.13104294478528 1.83558282208589 -0.00000000000000 0.00000000000000 -1.00000000000000
-0.21714285714286 0.11301587301587 1.58306878306878 0.00000000000000 -0.00000000000000 1.00000000000000
-0.19702127659574 0.11361702127660 1.59148936170213 0.00000000000000 -0.00000000000000 1.00000000000000
-0.17574468085106 0.11361702127660 1.59148936170213 -0.00000000000000 0.00000000000000 1.00000000000000
-0.15405835543767 0.11331564986737 1.58726790450928 -0.00000000000000 0.00000000000000 -1.00000000000000
-0.13498652291105 0.11514824797844 1.61293800539084 0.99805109142859 0.06237819321429 0.00172624144323
-0.16247104247104 0.16494208494208 2.31042471042471 -0.99022766704202 -0.02750632408450 -0.13672077223258
-0.08992084432718 0.11271767810026 1.57889182058047 -0.96093056785729 -0.27455159081637 -0.03512645353092
-0.06845144356955 0.11212598425197 1.57060367454068 -0.00000000000000 -0.00000000000000 -1.00000000000000
-0.04732984293194 0.11183246073298 1.56649214659686 0.00000000000000 -0.00000000000000 1.00000000000000
-0.02659630606860 0.11271767810026 1.57889182058047 -0.00000000000000 0.00000000000000 -1.00000000000000
-0.00556149732620 0.11422459893048 1.60000000000000 0.00000000000000 -0.00000000000000 1.00000000000000
0.01600000000000 0.11545945945946 1.61729729729730 0.00000000000000 0.00000000000000 -1.00000000000000
0.03803278688525 0.11672131147541 1.63497267759563 -0.00000000000000 0.00000000000000 -1.00000000000000
0.06390670553936 0.12454810495627 1.74460641399417 0.00000000000000 0.00000000000000 -1.00000000000000
0.08697674418605 0.12418604651163 1.73953488372093 0.00000000000000 -0.00000000000000 1.00000000000000
0.10991304347826 0.12382608695652 1.73449275362319 nan nan nan
0.13271676300578 0.12346820809249 1.72947976878613 0.00000000000000 -0.00000000000000 1.00000000000000
0.15583815028902 0.12346820809249 1.72947976878613 0.00000000000000 0.00000000000000 1.00000000000000
0.17491525423729 0.12067796610169 1.69039548022599 0.00000000000000 0.00000000000000 -1.00000000000000
0.19314917127072 0.11801104972376 1.65303867403315 -0.00000000000000 0.00000000000000 1.00000000000000
0.21116531165312 0.11577235772358 1.62168021680217 -0.00000000000000 0.00000000000000 -1.00000000000000
0.23159029649596 0.11514824797844 1.61293800539084 0.00000000000000 0.00000000000000 -1.00000000000000
0.25452574525745 0.11577235772358 1.62168021680217 -0.00000000000000 0.00000000000000 -1.00000000000000
0.27846994535519 0.11672131147541 1.63497267759563 -0.00000000000000 0.00000000000000 1.00000000000000
0.30280991735537 0.11768595041322 1.64848484848485 0.00000000000000 -0.00000000000000 -1.00000000000000
-0.32860759493671 0.13569620253165 1.89367088607595 -0.00000000000000 0.00000000000000 -1.00000000000000
-0.29763975155280 0.13316770186335 1.85838509316770 0.00000000000000 0.00000000000000 1.00000000000000
-0.26780487804878 0.13073170731707 1.82439024390244 0.00000000000000 -0.00000000000000 -1.00000000000000
-0.21121693121693 0.11343915343915 1.58306878306878 -0.00000000000000 0.00000000000000 -1.00000000000000
-0.19106382978723 0.11404255319149 1.59148936170213 -0.00000000000000 0.00000000000000 -1.00000000000000
-0.16978723404255 0.11404255319149 1.59148936170213 -0.00000000000000 0.00000000000000 -1.00000000000000
-0.14811671087533 0.11374005305040 1.58726790450928 -0.00000000000000 0.00000000000000 -1.00000000000000
-0.13400560224090 0.12011204481793 1.67619047619048 0.00000000000000 0.00000000000000 -1.00000000000000
-0.10885245901639 0.11715846994536 1.63497267759563 0.00000000000000 0.00000000000000 1.00000000000000
-0.08313315926893 0.11195822454308 1.56240208877285 0.00000000000000 0.00000000000000 -1.00000000000000
-0.06257217847769 0.11254593175853 1.57060367454068 0.00000000000000 0.00000000000000 -1.00000000000000
-0.04157480314961 0.11254593175853 1.57060367454068 0.00000000000000 -0.00000000000000 1.00000000000000
-0.02074074074074 0.11343915343915 1.58306878306878 0.96149979251589 0.27471422643311 -0.00708821466599
0.00042780748663 0.11465240641711 1.60000000000000 -0.00000000000000 0.00000000000000 -1.00000000000000
0.02235616438356 0.11747945205479 1.63945205479452 0.00000000000000 -0.00000000000000 1.00000000000000
0.04725146198830 0.12538011695906 1.74970760233918 0.00000000000000 -0.00000000000000 -1.00000000000000
0.07043731778426 0.12501457725948 1.74460641399417 -0.00000000000000 0.00000000000000 -1.00000000000000
0.09348837209302 0.12465116279070 1.73953488372093 -0.00000000000000 0.00000000000000 1.00000000000000
0.11640579710145 0.12428985507246 1.73449275362319 -0.00000000000000 0.00000000000000 -1.00000000000000
0.13878962536023 0.12357348703170 1.72449567723343 -0.00000000000000 0.00000000000000 -1.00000000000000
0.16091690544413 0.12286532951289 1.71461318051576 0.00000000000000 0.00000000000000 -1.00000000000000
0.18022471910112 0.12044943820225 1.68089887640449 nan nan nan
0.19824175824176 0.11780219780220 1.64395604395604 -0.00000000000000 -0.00000000000000 -1.00000000000000
0.21548387096774 0.11526881720430 1.60860215053763 0.00000000000000 0.00000000000000 1.00000000000000
0.23762803234501 0.11557951482480 1.61293800539084 -0.00000000000000 0.00000000000000 -1.00000000000000
0.26130434782609 0.11652173913043 1.62608695652174 0.00000000000000 -0.00000000000000 -1.00000000000000
0.28536986301370 0.11747945205479 1.63945205479452 0.00000000000000 -0.00000000000000 1.00000000000000
-0.35128205128205 0.13794871794872 1.91794871794872 0.94998293365891 0.27142369533111 0.15447201484286
-0.31949685534591 0.13534591194969 1.88176100628931 0.00000000000000 -0.00000000000000 -1.00000000000000
-0.28888888888889 0.13283950617284 1.84691358024691 0.00000000000000 0.00000000000000 1.00000000000000
-0.23135135135135 0.11632432432432 1.61729729729730 0.95789991696095 0.05986874481006 0.28079081623349
