2.520689980674748238e-05 -9.166145384271097649e-06 9.142249684406239253e-06
2.238648866034466346e-05 -8.140541331033957054e-06 8.200942406418134002e-06
1.274311111111090899e-05 3.640888888888797260e-06 7.168365062388526760e-06
0.000000000000000000e+00 -0.000000000000000000e+00 4.573977915173221831e-20
-0.000000000000000000e+00 0.000000000000000000e+00 0.000000000000000000e+00
0.000000000000000000e+00 -0.000000000000000000e+00 -1.380663704024509553e-19
0.000000000000000000e+00 0.000000000000000000e+00 8.635520323832064900e-06
0.000000000000000000e+00 -0.000000000000000000e+00 1.033057851239675257e-05
0.000000000000000000e+00 -0.000000000000000000e+00 1.015671493751247014e-05
0.000000000000000000e+00 0.000000000000000000e+00 1.004323297946625027e-05
0.000000000000000000e+00 0.000000000000000000e+00 -8.958315836622630744e-06
0.000000000000000000e+00 0.000000000000000000e+00 -9.053870529651393716e-06
-0.000000000000000000e+00 0.000000000000000000e+00 -7.115076756936122848e-20
0.000000000000000000e+00 0.000000000000000000e+00 9.053870529651417433e-06
-6.449804910646827268e-05 7.166449900718592968e-06 2.069647737370697684e-05
-9.120121612416917602e-05 -5.700076007760543008e-06 -2.093711073706219675e-04
-1.224625234799318340e-05 -3.498929242283807767e-06 -3.634582916115484652e-07
-0.000000000000000000e+00 -0.000000000000000000e+00 0.000000000000000000e+00
0.000000000000000000e+00 0.000000000000000000e+00 8.864265927977867086e-06
-0.000000000000000000e+00 0.000000000000000000e+00 8.958315836622732388e-06
0.000000000000000000e+00 0.000000000000000000e+00 -9.053870529651415739e-06
0.000000000000000000e+00 0.000000000000000000e+00 9.249624234015454914e-06
0.000000000000000000e+00 0.000000000000000000e+00 9.503374440377409892e-06
0.000000000000000000e+00 -0.000000000000000000e+00 -9.063252535621013628e-20
0.000000000000000000e+00 0.000000000000000000e+00 -1.075404326822092452e-05
0.000000000000000000e+00 0.000000000000000000e+00 -1.069197099802865715e-05
-0.000000000000000000e+00 0.000000000000000000e+00 -1.024909866177703410e-19
-3.882767784736704893e-05 -5.376140009635435146e-05 -2.906325956189375042e-05
2.435490435490481317e-05 -8.856328856328187025e-06 8.862840862840762655e-06
-1.374493825413446686e-05 -3.927125215466991016e-06 1.980888160154745079e-06
1.934593152479590703e-05 -7.034884190835281859e-06 7.181130780630967554e-06
-0.000000000000000000e+00 0.000000000000000000e+00 -1.372193374551966549e-19
0.000000000000000000e+00 -0.000000000000000000e+00 1.143494478793305458e-19
-0.000000000000000000e+00 0.000000000000000000e+00 0.000000000000000000e+00
1.177489177489189322e-05 3.364254792826319218e-06 6.173947264856340794e-06
0.000000000000000000e+00 0.000000000000000000e+00 1.033057851239675088e-05
0.000000000000000000e+00 0.000000000000000000e+00 1.015671493751237019e-05
0.000000000000000000e+00 0.000000000000000000e+00 -9.931642367765523784e-06
-0.000000000000000000e+00 0.000000000000000000e+00 -8.958315836622678178e-06
0.000000000000000000e+00 -0.000000000000000000e+00 -1.888883472377089756e-19
0.000000000000000000e+00 -0.000000000000000000e+00 -1.414545021914681566e-19
0.000000000000000000e+00 -0.000000000000000000e+00 0.000000000000000000e+00
0.000000000000000000e+00 0.000000000000000000e+00 9.987203895009460626e-06
-1.370738377803017265e-05 -3.916395365151477779e-06 -5.377189893062126928e-07
-0.000000000000000000e+00 -0.000000000000000000e+00 4.658681209898651865e-20
0.000000000000000000e+00 -0.000000000000000000e+00 8.771689372550095599e-06
-0.000000000000000000e+00 0.000000000000000000e+00 8.771689372550095599e-06
0.000000000000000000e+00 0.000000000000000000e+00 8.911104768137170678e-06
0.000000000000000000e+00 0.000000000000000000e+00 2.498747194400186000e-20
-5.573955335078467047e-05 -1.592558667165281768e-05 2.160599646309228073e-05
0.000000000000000000e+00 0.000000000000000000e+00 -1.094353818268868282e-05
0.000000000000000000e+00 0.000000000000000000e+00 -1.081665765278532092e-05
-0.000000000000000000e+00 0.000000000000000000e+00 0.000000000000000000e+00
0.000000000000000000e+00 -0.000000000000000000e+00 -1.024909866177703410e-19
-0.000000000000000000e+00 0.000000000000000000e+00 0.000000000000000000e+00
4.320932495358373445e-05 -4.801036105953842387e-06 7.508358337893867871e-06
-2.340862496021446591e-05 8.512227258259757890e-06 -8.546936206304748594e-06
3.388131789017201356e-19 1.190081290892291976e-19 -6.776263578034402713e-20
-8.571973426213519431e-19 -3.928115292891817822e-19 2.600391148070702041e-19
0.000000000000000000e+00 -0.000000000000000000e+00 -6.860966872759832746e-20
0.000000000000000000e+00 0.000000000000000000e+00 8.546494935534060396e-06
0.000000000000000000e+00 0.000000000000000000e+00 -8.635520323831971727e-06
-0.000000000000000000e+00 0.000000000000000000e+00 -8.680555555555909608e-06
0.000000000000000000e+00 0.000000000000000000e+00 1.027213122647658040e-05
0.000000000000000000e+00 0.000000000000000000e+00 1.009973488195927397e-05
2.361465699530927633e-04 2.422016102082992484e-05 5.150399971802481914e-05
0.000000000000000000e+00 -0.000000000000000000e+00 -7.030373462210692814e-20
0.000000000000000000e+00 -0.000000000000000000e+00 -7.115076756936122848e-20
0.000000000000000000e+00 -0.000000000000000000e+00 -7.115076756936122848e-20
0.000000000000000000e+00 0.000000000000000000e+00 -8.958315836622525712e-06
0.000000000000000000e+00 0.000000000000000000e+00 -1.009973488195949759e-05
6.505213034913026604e-19 1.456896669277396583e-19 5.505714157152952204e-20
0.000000000000000000e+00 0.000000000000000000e+00 9.005903088039823057e-06
0.000000000000000000e+00 0.000000000000000000e+00 2.286988957586610915e-20
0.000000000000000000e+00 -0.000000000000000000e+00 1.185846126156020475e-20
0.000000000000000000e+00 -0.000000000000000000e+00 -7.623296525288703052e-20
-0.000000000000000000e+00 0.000000000000000000e+00 -9.150962280877336926e-06
0.000000000000000000e+00 -0.000000000000000000e+00 -1.575481281892998631e-19
0.000000000000000000e+00 -0.000000000000000000e+00 1.087982048296199816e-05
0.000000000000000000e+00 -0.000000000000000000e+00 0.000000000000000000e+00
-0.000000000000000000e+00 0.000000000000000000e+00 -7.707999820014133086e-20
-0.000000000000000000e+00 0.000000000000000000e+00 2.541098841762901017e-20
2.257434872819474956e-04 -6.521478521478477845e-04 -1.415155473896732104e-04
-1.516188975585197607e-19 5.285485590866834116e-19 6.988021814847977797e-20
-2.263626672168892948e-05 8.231369716977698285e-06 -8.292444719557091575e-06
-3.201784540621255282e-19 -1.622068093991985149e-19 1.052438436963468171e-19
-1.150363759147514901e-05 -3.286753597564392180e-06 -6.602947367727188274e-06
0.000000000000000000e+00 0.000000000000000000e+00 -8.546494935533853720e-06
-0.000000000000000000e+00 0.000000000000000000e+00 1.143494478793305458e-19
-0.000000000000000000e+00 0.000000000000000000e+00 -1.389134033497052556e-19
0.000000000000000000e+00 0.000000000000000000e+00 1.038952605904168672e-05
-0.000000000000000000e+00 -0.000000000000000000e+00 -1.021417855660898122e-05
0.000000000000000000e+00 0.000000000000000000e+00 1.004323297946622486e-05
-0.000000000000000000e+00 0.000000000000000000e+00 -8.911104768137131715e-06
-0.000000000000000000e+00 0.000000000000000000e+00 -9.005903088039687531e-06
-0.000000000000000000e+00 0.000000000000000000e+00 -1.414545021914681566e-19
-0.000000000000000000e+00 0.000000000000000000e+00 -1.888883472377089756e-19
0.000000000000000000e+00 0.000000000000000000e+00 8.958315836622678178e-06
0.000000000000000000e+00 0.000000000000000000e+00 -8.724439356719293492e-20
-1.247484353676558558e-05 -3.564241010504478010e-06 -3.940678229528063138e-07
1.224625234799318340e-05 3.498929242283750169e-06 9.110781397320596298e-06
0.000000000000000000e+00 0.000000000000000000e+00 -8.864265927977868780e-06
0.000000000000000000e+00 -0.000000000000000000e+00 8.864265927977868780e-06
0.000000000000000000e+00 -0.000000000000000000e+00 9.053870529651507218e-06
0.000000000000000000e+00 -0.000000000000000000e+00 9.249624234015463384e-06
0.000000000000000000e+00 0.000000000000000000e+00 -9.503374440377391257e-06
-0.000000000000000000e+00 0.000000000000000000e+00 -6.437450399132682577e-20
0.000000000000000000e+00 -0.000000000000000000e+00 -1.033380195650246414e-19
0.000000000000000000e+00 -0.000000000000000000e+00 0.000000000000000000e+00
0.000000000000000000e+00 0.000000000000000000e+00 -1.063043460206454291e-05
2.026849112943629547e-04 1.182328649217119179e-04 1.884891395065826071e-05
-2.463444243026643586e-05 8.957979065551419518e-06 -8.964565814864787160e-06
-1.405037083773192727e-05 -4.014391667923281584e-06 1.998072216534443474e-06
-1.955146490815077789e-05 7.109623602964100037e-06 -7.257423933213104661e-06
-0.000000000000000000e+00 0.000000000000000000e+00 -6.860966872759832746e-20
0.000000000000000000e+00 -0.000000000000000000e+00 9.147955830346443662e-20
-0.000000000000000000e+00 0.000000000000000000e+00 -1.380663704024509553e-19
1.180555555555569080e-05 3.373015873015975911e-06 6.190025252525245703e-06
0.000000000000000000e+00 0.000000000000000000e+00 1.033057851239675257e-05
0.000000000000000000e+00 0.000000000000000000e+00 1.015671493751247014e-05
-0.000000000000000000e+00 -0.000000000000000000e+00 -9.987203895009374229e-06
0.000000000000000000e+00 -0.000000000000000000e+00 -1.414545021914681566e-19
0.000000000000000000e+00 -0.000000000000000000e+00 0.000000000000000000e+00
0.000000000000000000e+00 -0.000000000000000000e+00 0.000000000000000000e+00
0.000000000000000000e+00 0.000000000000000000e+00 -9.005903088039557088e-06
2.282613223518902728e-05 -8.300411721886872963e-06 -7.145788941589478876e-06
2.620707481717884013e-04 2.867944036596910056e-04 2.124423066718150548e-04
-1.205474161539947921e-05 -3.444211890114128930e-06 -3.347516101755265813e-07
0.000000000000000000e+00 0.000000000000000000e+00 0.000000000000000000e+00
0.000000000000000000e+00 0.000000000000000000e+00 -8.817795413368619285e-06
0.000000000000000000e+00 0.000000000000000000e+00 -8.911104768137241829e-06
-0.000000000000000000e+00 0.000000000000000000e+00 -9.053870529651412351e-06
1.963562607733495169e-05 1.963562607733487715e-05 3.607390020785336782e-05
-9.082153218690278541e-05 -1.184628680698738311e-05 -6.311684717662258216e-06
0.000000000000000000e+00 -0.000000000000000000e+00 2.625802136488331051e-20
-0.000000000000000000e+00 0.000000000000000000e+00 -7.707999820014133086e-20
0.000000000000000000e+00 -0.000000000000000000e+00 0.000000000000000000e+00
-0.000000000000000000e+00 0.000000000000000000e+00 1.279019750353993512e-19
1.014724197708243274e-03 -1.407815553577204670e-03 2.922666739995478068e-04
1.519346867283326459e-05 4.340991049380913743e-06 8.227570869929816763e-06
1.352164906788476791e-05 3.863328305109969021e-06 7.503017418226330028e-06
1.208638135717220947e-05 3.453251816334949602e-06 6.868185464119690358e-06
0.000000000000000000e+00 -0.000000000000000000e+00 0.000000000000000000e+00
0.000000000000000000e+00 -0.000000000000000000e+00 -6.860966872759832746e-20
0.000000000000000000e+00 0.000000000000000000e+00 8.590834653279228014e-06
0.000000000000000000e+00 0.000000000000000000e+00 -8.680555555555309908e-06
-0.000000000000000000e+00 -0.000000000000000000e+00 -1.027213122647642963e-05
0.000000000000000000e+00 0.000000000000000000e+00 1.009973488195919774e-05
0.000000000000000000e+00 -0.000000000000000000e+00 9.876543209876534836e-06
0.000000000000000000e+00 0.000000000000000000e+00 -9.005903088039829833e-06
0.000000000000000000e+00 -0.000000000000000000e+00 4.743384504624081899e-20
0.000000000000000000e+00 -0.000000000000000000e+00 0.000000000000000000e+00
-0.000000000000000000e+00 0.000000000000000000e+00 -7.030373462210692814e-20
0.000000000000000000e+00 0.000000000000000000e+00 -1.004323297946627568e-05
-1.341181653782496882e-05 -3.831947582235634953e-06 -5.005097309953234816e-07
1.237618515054262615e-05 3.536052900155077486e-06 2.964044342777512333e-07
-0.000000000000000000e+00 0.000000000000000000e+00 -8.771689372550095599e-06
0.000000000000000000e+00 0.000000000000000000e+00 -8.817795413368639614e-06
0.000000000000000000e+00 0.000000000000000000e+00 -9.005903088039801034e-06
0.000000000000000000e+00 0.000000000000000000e+00 -9.150962280877336926e-06
0.000000000000000000e+00 -0.000000000000000000e+00 9.555376392248163652e-06
0.000000000000000000e+00 0.000000000000000000e+00 1.094353818268865572e-05
-0.000000000000000000e+00 0.000000000000000000e+00 -5.166900978251232068e-20
-0.000000000000000000e+00 0.000000000000000000e+00 1.287490079826536515e-19
0.000000000000000000e+00 -0.000000000000000000e+00 -1.024909866177703410e-19
-0.000000000000000000e+00 0.000000000000000000e+00 -1.063043460206464455e-05
-2.594736418866425940e-05 9.435405159514442163e-06 -9.410807512373677797e-06
0.000000000000000000e+00 0.000000000000000000e+00 1.009973488195913506e-05
1.308937314173912208e-05 3.739820897639783531e-06 7.313149768686945866e-06
1.171388197294931389e-05 3.346823420842613255e-06 6.701253258550888380e-06
-0.000000000000000000e+00 0.000000000000000000e+00 -8.502497608672475676e-06
0.000000000000000000e+00 0.000000000000000000e+00 -8.590834653279251731e-06
-0.000000000000000000e+00 0.000000000000000000e+00 0.000000000000000000e+00
0.000000000000000000e+00 0.000000000000000000e+00 1.038952605904168841e-05
0.000000000000000000e+00 0.000000000000000000e+00 1.021417855660893040e-05
0.000000000000000000e+00 0.000000000000000000e+00 -1.740652706607587197e-19
-1.237618515054262615e-05 -3.536052900154903420e-06 -1.034200926426362374e-05
-0.000000000000000000e+00 0.000000000000000000e+00 0.000000000000000000e+00
-0.000000000000000000e+00 0.000000000000000000e+00 -7.115076756936122848e-20
-0.000000000000000000e+00 0.000000000000000000e+00 -7.115076756936122848e-20
-0.000000000000000000e+00 0.000000000000000000e+00 4.743384504624081899e-20
0.000000000000000000e+00 0.000000000000000000e+00 1.009973488195944846e-05
-1.277718360071292058e-05 -3.650623885917977005e-06 -4.280210090842580180e-07
1.227856435946543915e-05 3.508161245561529116e-06 9.134820398368911505e-06
1.189818823042806392e-05 3.399482351550879580e-06 8.044229628673062017e-08
0.000000000000000000e+00 0.000000000000000000e+00 8.817795413368561687e-06
0.000000000000000000e+00 0.000000000000000000e+00 9.005903088039716331e-06
0.000000000000000000e+00 0.000000000000000000e+00 2.795208725939191119e-20
0.000000000000000000e+00 0.000000000000000000e+00 9.555376392248143323e-06
0.000000000000000000e+00 -0.000000000000000000e+00 1.355252715606880543e-20
0.000000000000000000e+00 -0.000000000000000000e+00 -1.033380195650246414e-19
-0.000000000000000000e+00 0.000000000000000000e+00 -1.033380195650246414e-19
0.000000000000000000e+00 0.000000000000000000e+00 1.069197099802870289e-05
-6.598987970332287670e-05 -1.885425134380646457e-05 7.493808722611719806e-06
0.000000000000000000e+00 0.000000000000000000e+00 1.069197099802851654e-05
0.000000000000000000e+00 0.000000000000000000e+00 9.876543209876522978e-06
1.267532860520093645e-05 3.621522458628804982e-06 7.130235460992749114e-06
-0.000000000000000000e+00 -0.000000000000000000e+00 4.573977915173221831e-20
-0.000000000000000000e+00 0.000000000000000000e+00 9.147955830346443662e-20
-0.000000000000000000e+00 0.000000000000000000e+00 2.371692252312040949e-20
-0.000000000000000000e+00 0.000000000000000000e+00 1.617832929255713648e-19
-0.000000000000000000e+00 -0.000000000000000000e+00 -1.033057851239654929e-05
0.000000000000000000e+00 0.000000000000000000e+00 -1.749123036080130200e-19
0.000000000000000000e+00 0.000000000000000000e+00 -9.987203895009374229e-06
0.000000000000000000e+00 0.000000000000000000e+00 -8.958315836622678178e-06
0.000000000000000000e+00 -0.000000000000000000e+00 9.053870529651298848e-06
0.000000000000000000e+00 -0.000000000000000000e+00 -1.414545021914681566e-19
0.000000000000000000e+00 -0.000000000000000000e+00 -1.414545021914681566e-19
1.234353030845686151e-05 3.526722945273389366e-06 9.631065454959833425e-06
3.838845267132215671e-04 1.096812933466343056e-04 -4.689315188803991916e-05
-1.227856435946555435e-05 -3.508161245561471517e-06 -3.644172844655351026e-07
-0.000000000000000000e+00 0.000000000000000000e+00 8.771689372550095599e-06
0.000000000000000000e+00 -0.000000000000000000e+00 1.185846126156020475e-20
-0.000000000000000000e+00 0.000000000000000000e+00 -8.864265927977878944e-06
0.000000000000000000e+00 -0.000000000000000000e+00 -1.473837328222482590e-19
0.000000000000000000e+00 -0.000000000000000000e+00 -6.860966872759832746e-20
-0.000000000000000000e+00 0.000000000000000000e+00 -1.448426339804853580e-19
-0.000000000000000000e+00 0.000000000000000000e+00 -9.063252535621013628e-20
-0.000000000000000000e+00 0.000000000000000000e+00 -1.081665765278536666e-05
-0.000000000000000000e+00 0.000000000000000000e+00 -1.075404326822094994e-05
0.000000000000000000e+00 -0.000000000000000000e+00 0.000000000000000000e+00
2.026849112943629547e-04 1.182328649217119179e-04 1.884891395065825732e-05
0.000000000000000000e+00 0.000000000000000000e+00 1.044897959183669280e-05
1.374493825413446686e-05 3.927125215466991016e-06 7.600667345496894458e-06
1.244184130518714542e-05 3.554811801482108040e-06 7.022654276805161841e-06
0.000000000000000000e+00 -0.000000000000000000e+00 -6.860966872759832746e-20
-0.000000000000000000e+00 0.000000000000000000e+00 9.147955830346443662e-20
0.000000000000000000e+00 -0.000000000000000000e+00 -1.380663704024509553e-19
0.000000000000000000e+00 0.000000000000000000e+00 -1.617832929255713648e-19
0.000000000000000000e+00 0.000000000000000000e+00 -1.027213122647632799e-05
0.000000000000000000e+00 0.000000000000000000e+00 1.009973488195937223e-05
-0.000000000000000000e+00 -0.000000000000000000e+00 -9.931642367765523784e-06
-0.000000000000000000e+00 0.000000000000000000e+00 -1.880413142904546753e-19
0.000000000000000000e+00 -0.000000000000000000e+00 -7.115076756936122848e-20
0.000000000000000000e+00 -0.000000000000000000e+00 -7.115076756936122848e-20
-0.000000000000000000e+00 0.000000000000000000e+00 1.177375796683477471e-19
0.000000000000000000e+00 0.000000000000000000e+00 -9.987203895009572435e-06
-1.370738377803017096e-05 -3.916395365151478626e-06 -5.377189893062118457e-07
0.000000000000000000e+00 0.000000000000000000e+00 4.658681209898651865e-20
0.000000000000000000e+00 0.000000000000000000e+00 0.000000000000000000e+00
-0.000000000000000000e+00 0.000000000000000000e+00 -8.817795413368561687e-06
0.000000000000000000e+00 -0.000000000000000000e+00 5.082197683525802034e-21
0.000000000000000000e+00 0.000000000000000000e+00 -9.102222222222213378e-06
-1.133422672592543053e-04 -3.238350493121562519e-05 4.645387806309369940e-06
0.000000000000000000e+00 0.000000000000000000e+00 -1.087982048296206423e-05
-0.000000000000000000e+00 0.000000000000000000e+00 -1.087982048296204390e-05
-0.000000000000000000e+00 0.000000000000000000e+00 2.541098841762901017e-20
-0.000000000000000000e+00 0.000000000000000000e+00 -5.166900978251232068e-20
0.000000000000000000e+00 -0.000000000000000000e+00 2.566509830180530027e-19
-5.753783612719944767e-05 -7.004606137224265560e-05 2.397766579460268533e-05
1.515054926980266445e-05 4.328728362800874652e-06 8.204329144308582789e-06
1.348490545628717439e-05 3.852830130367694050e-06 7.482628783937596077e-06
1.205474161539947921e-05 3.444211890114071756e-06 6.850205921019855148e-06
0.000000000000000000e+00 -0.000000000000000000e+00 -1.372193374551966549e-19
-0.000000000000000000e+00 0.000000000000000000e+00 -8.546494935533979081e-06
0.000000000000000000e+00 -0.000000000000000000e+00 8.635520323831902270e-06
-0.000000000000000000e+00 0.000000000000000000e+00 -8.680555555555309908e-06
0.000000000000000000e+00 -0.000000000000000000e+00 1.021417855660888127e-05
0.000000000000000000e+00 -0.000000000000000000e+00 1.004323297946625027e-05
-0.000000000000000000e+00 0.000000000000000000e+00 -9.876543209876534836e-06
0.000000000000000000e+00 -0.000000000000000000e+00 -7.030373462210692814e-20
-0.000000000000000000e+00 0.000000000000000000e+00 -1.414545021914681566e-19
-0.000000000000000000e+00 0.000000000000000000e+00 -1.414545021914681566e-19
-0.000000000000000000e+00 0.000000000000000000e+00 -9.005903088039687531e-06
-0.000000000000000000e+00 0.000000000000000000e+00 -1.004323297946639934e-05
-1.308937314173912208e-05 -3.739820897639723392e-06 -4.634778037583023711e-07
0.000000000000000000e+00 0.000000000000000000e+00 5.929230630780102373e-21
0.000000000000000000e+00 -0.000000000000000000e+00 8.680555555555528443e-06
0.000000000000000000e+00 -0.000000000000000000e+00 1.185846126156020475e-20
0.000000000000000000e+00 -0.000000000000000000e+00 -7.623296525288703052e-20
0.000000000000000000e+00 0.000000000000000000e+00 9.150962280877336926e-06
-0.000000000000000000e+00 0.000000000000000000e+00 5.929230630780102373e-21
0.000000000000000000e+00 0.000000000000000000e+00 -1.087982048296200155e-05
0.000000000000000000e+00 -0.000000000000000000e+00 2.541098841762901017e-20
0.000000000000000000e+00 -0.000000000000000000e+00 1.287490079826536515e-19
0.000000000000000000e+00 -0.000000000000000000e+00 1.279019750353993512e-19
1.017139861739222752e-04 -2.131150186501230533e-04 5.877110270637661701e-05
0.000000000000000000e+00 0.000000000000000000e+00 1.081665765278554792e-05
-1.456629515160742985e-05 -4.161798614745053528e-06 2.015801655243538919e-06
1.305418665479903113e-05 3.729767615656952193e-06 7.293490763932464034e-06
1.831239946675571831e-05 -6.659054351547879137e-06 6.842000296633385937e-06
0.000000000000000000e+00 0.000000000000000000e+00 8.546494935533943506e-06
0.000000000000000000e+00 -0.000000000000000000e+00 -1.838061495541831736e-19
0.000000000000000000e+00 -0.000000000000000000e+00 -6.945670167485262780e-20
0.000000000000000000e+00 0.000000000000000000e+00 -1.033057851239654929e-05
0.000000000000000000e+00 -0.000000000000000000e+00 1.015671493751247014e-05
0.000000000000000000e+00 -0.000000000000000000e+00 9.987203895009274279e-06
0.000000000000000000e+00 -0.000000000000000000e+00 8.911104768137213030e-06
0.000000000000000000e+00 0.000000000000000000e+00 9.005903088039663815e-06
-0.000000000000000000e+00 0.000000000000000000e+00 1.185846126156020475e-19
0.000000000000000000e+00 -0.000000000000000000e+00 -7.115076756936122848e-20
0.000000000000000000e+00 0.000000000000000000e+00 8.958315836622701895e-06
-0.000000000000000000e+00 -0.000000000000000000e+00 -8.724439356719293492e-20
-0.000000000000000000e+00 -0.000000000000000000e+00 4.701032857261366882e-20
-0.000000000000000000e+00 -0.000000000000000000e+00 0.000000000000000000e+00
-7.016322491123173428e-06 1.052448373668464494e-05 -1.026840672597884521e-05
0.000000000000000000e+00 0.000000000000000000e+00 -8.864265927977848451e-06
0.000000000000000000e+00 -0.000000000000000000e+00 9.053870529651395410e-06
0.000000000000000000e+00 0.000000000000000000e+00 -9.249624234015463384e-06
0.000000000000000000e+00 0.000000000000000000e+00 -9.503374440377464102e-06
-0.000000000000000000e+00 0.000000000000000000e+00 0.000000000000000000e+00
-0.000000000000000000e+00 0.000000000000000000e+00 -1.812650507124202726e-19
0.000000000000000000e+00 -0.000000000000000000e+00 -7.707999820014133086e-20
0.000000000000000000e+00 -0.000000000000000000e+00 1.063043460206463778e-05
-1.584100753467040714e-05 8.976570936313248898e-05 3.341859610923923160e-06
-1.585717038394855515e-05 -4.530620109699586824e-06 2.043018934494319148e-06
-2.879912020664621153e-19 -2.439454888092384977e-19 1.679242817931650422e-19
1.981270575841380014e-05 -7.204620275786633127e-06 7.354395470022639632e-06
1.141507263489890252e-05 3.261449324256844962e-06 6.552112165188380442e-06
-0.000000000000000000e+00 0.000000000000000000e+00 0.000000000000000000e+00
0.000000000000000000e+00 -0.000000000000000000e+00 9.232659125071873696e-20
0.000000000000000000e+00 -0.000000000000000000e+00 2.286988957586610915e-20
0.000000000000000000e+00 -0.000000000000000000e+00 1.027213122647637711e-05
0.000000000000000000e+00 -0.000000000000000000e+00 1.009973488195947218e-05
0.000000000000000000e+00 0.000000000000000000e+00 -9.931642367765486514e-06
0.000000000000000000e+00 -0.000000000000000000e+00 -2.286988957586610915e-20
-0.000000000000000000e+00 0.000000000000000000e+00 0.000000000000000000e+00
0.000000000000000000e+00 -0.000000000000000000e+00 0.000000000000000000e+00
-0.000000000000000000e+00 0.000000000000000000e+00 -9.053870529651439456e-06
2.355308570908485602e-04 1.472067856817791643e-05 9.351960502136594724e-06
-3.397418628003197002e-04 -7.327765668242001312e-05 -1.811208506905406888e-04
-1.208638135717220947e-05 -3.453251816334892427e-06 -3.356302233256077864e-07
-0.000000000000000000e+00 0.000000000000000000e+00 8.725944003981130358e-06
-0.000000000000000000e+00 0.000000000000000000e+00 -8.864265927977858615e-06
0.000000000000000000e+00 0.000000000000000000e+00 -8.958315836622678178e-06
0.000000000000000000e+00 -0.000000000000000000e+00 5.929230630780102373e-21
-0.000000000000000000e+00 0.000000000000000000e+00 -9.249624234015437973e-06
-0.000000000000000000e+00 0.000000000000000000e+00 -9.503374440377445467e-06
-0.000000000000000000e+00 0.000000000000000000e+00 -1.087982048296198969e-05
0.000000000000000000e+00 0.000000000000000000e+00 -1.075404326822099398e-05
0.000000000000000000e+00 0.000000000000000000e+00 -1.069197099802865715e-05
-0.000000000000000000e+00 0.000000000000000000e+00 1.279019750353993512e-19
-2.257434872819474956e-04 6.521478521478477845e-04 1.415155473896731833e-04
4.404571325722361763e-19 -5.124549330888517051e-20 7.686823996332775577e-20
2.148148193474123596e-05 -7.811447976269767971e-06 7.921622810694290930e-06
-9.910285482875313967e-19 -1.488660404799432846e-19 4.806911975668154424e-20
-0.000000000000000000e+00 0.000000000000000000e+00 -6.860966872759832746e-20
0.000000000000000000e+00 -0.000000000000000000e+00 4.573977915173221831e-20
-0.000000000000000000e+00 0.000000000000000000e+00 -8.590834653279182275e-06
0.000000000000000000e+00 0.000000000000000000e+00 -8.680555555555564018e-06
0.000000000000000000e+00 -0.000000000000000000e+00 1.021417855660877963e-05
0.000000000000000000e+00 -0.000000000000000000e+00 1.004323297946627398e-05
0.000000000000000000e+00 0.000000000000000000e+00 9.876543209876534836e-06
-0.000000000000000000e+00 0.000000000000000000e+00 -8.958315836622549429e-06
-0.000000000000000000e+00 0.000000000000000000e+00 -7.115076756936122848e-20
-0.000000000000000000e+00 0.000000000000000000e+00 -7.115076756936122848e-20
0.000000000000000000e+00 -0.000000000000000000e+00 0.000000000000000000e+00
-0.000000000000000000e+00 0.000000000000000000e+00 -9.987203895009497896e-06
-1.348490545628717439e-05 -3.852830130367694050e-06 -5.032373044612228990e-07
1.237618515054262615e-05 3.536052900155077486e-06 2.964044342777510215e-07
5.112572280014990160e-06 1.363352608004255552e-05 7.465175727584536430e-06
1.894316539562773707e-05 -6.888423780228257860e-06 -7.518788229100803999e-06
-0.000000000000000000e+00 0.000000000000000000e+00 -8.911104768137301121e-06
-0.000000000000000000e+00 0.000000000000000000e+00 -9.102222222222142227e-06
0.000000000000000000e+00 0.000000000000000000e+00 -9.555376392248197533e-06
-0.000000000000000000e+00 0.000000000000000000e+00 1.094353818268871501e-05
0.000000000000000000e+00 -0.000000000000000000e+00 1.081665765278526332e-05
0.000000000000000000e+00 -0.000000000000000000e+00 0.000000000000000000e+00
0.000000000000000000e+00 -0.000000000000000000e+00 -2.541098841762901017e-20
-0.000000000000000000e+00 0.000000000000000000e+00 2.566509830180530027e-19
-3.331388306946789587e-05 -9.518252305562255479e-06 4.101246949308400207e-06
-1.489639770195470802e-05 -4.256113629129747655e-06 2.033033956802122193e-06
-2.541098841762901017e-19 1.461131834013668085e-20 -3.176373552203626272e-20
-1.850340136054441816e-05 6.728509585652413125e-06 -6.913363692584530409e-06
-0.000000000000000000e+00 0.000000000000000000e+00 -1.372193374551966549e-19
0.000000000000000000e+00 0.000000000000000000e+00 8.590834653279388951e-06
0.000000000000000000e+00 -0.000000000000000000e+00 0.000000000000000000e+00
0.000000000000000000e+00 -0.000000000000000000e+00 1.033057851239672716e-05
0.000000000000000000e+00 0.000000000000000000e+00 1.021417855660893040e-05
0.000000000000000000e+00 0.000000000000000000e+00 1.004323297946615032e-05
-0.000000000000000000e+00 -0.000000000000000000e+00 -1.643243917673342658e-19
0.000000000000000000e+00 -0.000000000000000000e+00 0.000000000000000000e+00
0.000000000000000000e+00 -0.000000000000000000e+00 -9.486769009248163798e-20
0.000000000000000000e+00 -0.000000000000000000e+00 -1.414545021914681566e-19
0.000000000000000000e+00 0.000000000000000000e+00 -8.958315836622808621e-06
0.000000000000000000e+00 0.000000000000000000e+00 -8.724439356719293492e-20
-0.000000000000000000e+00 -0.000000000000000000e+00 0.000000000000000000e+00
1.244184130518702853e-05 3.554811801481991573e-06 9.232530597245067850e-06
-0.000000000000000000e+00 0.000000000000000000e+00 -8.680555555555540301e-06
-0.000000000000000000e+00 0.000000000000000000e+00 -8.817795413368619285e-06
0.000000000000000000e+00 0.000000000000000000e+00 9.005903088039787481e-06
0.000000000000000000e+00 0.000000000000000000e+00 -9.200094875978365782e-06
-0.000000000000000000e+00 0.000000000000000000e+00 -9.555376392248178898e-06
0.000000000000000000e+00 -0.000000000000000000e+00 -9.063252535621013628e-20
-0.000000000000000000e+00 0.000000000000000000e+00 0.000000000000000000e+00
-0.000000000000000000e+00 0.000000000000000000e+00 0.000000000000000000e+00
0.000000000000000000e+00 0.000000000000000000e+00 1.069197099802863851e-05
3.882767784736704893e-05 5.376140009635435146e-05 -3.442502486562042346e-05
-0.000000000000000000e+00 -0.000000000000000000e+00 -1.799945012915388221e-19
1.432509148114000796e-05 4.092883280325680502e-06 7.839403577169007232e-06
-2.002488888888874068e-05 7.281777777777713104e-06 -7.433156981580547862e-06
1.144449292519513514e-05 3.269855121484324508e-06 6.568999052212103477e-06
0.000000000000000000e+00 0.000000000000000000e+00 8.502497608672567156e-06
-0.000000000000000000e+00 0.000000000000000000e+00 -1.838061495541831736e-19
-0.000000000000000000e+00 0.000000000000000000e+00 -6.945670167485262780e-20
0.000000000000000000e+00 -0.000000000000000000e+00 1.027213122647640422e-05
0.000000000000000000e+00 0.000000000000000000e+00 1.015671493751237019e-05
0.000000000000000000e+00 0.000000000000000000e+00 9.987203895009348818e-06
-0.000000000000000000e+00 0.000000000000000000e+00 -8.911104768137165596e-06
0.000000000000000000e+00 0.000000000000000000e+00 -9.053870529651346282e-06
-0.000000000000000000e+00 0.000000000000000000e+00 -1.888883472377089756e-19
-0.000000000000000000e+00 0.000000000000000000e+00 -1.414545021914681566e-19
-1.234353030845686151e-05 -3.526722945273389366e-06 -9.631065454959928293e-06
3.264992557737584342e-05 -2.176661705158342466e-05 -1.576333750914839756e-05
0.000000000000000000e+00 0.000000000000000000e+00 1.287490079826536515e-19
-1.208638135717209597e-05 -3.453251816334892427e-06 -8.991842998229303198e-06
-0.000000000000000000e+00 0.000000000000000000e+00 -8.911104768137131715e-06
-0.000000000000000000e+00 0.000000000000000000e+00 -8.864265927977801017e-06
-0.000000000000000000e+00 0.000000000000000000e+00 -1.439956010332310576e-19
0.000000000000000000e+00 0.000000000000000000e+00 9.249624234015463384e-06
0.000000000000000000e+00 -0.000000000000000000e+00 -1.389134033497052556e-19
-0.000000000000000000e+00 0.000000000000000000e+00 1.355252715606880543e-20
-0.000000000000000000e+00 0.000000000000000000e+00 -1.081665765278519217e-05
0.000000000000000000e+00 0.000000000000000000e+00 1.075404326822094994e-05
0.000000000000000000e+00 -0.000000000000000000e+00 2.625802136488331051e-20
1.584100753467040714e-05 -8.976570936313248898e-05 -3.341859610923924007e-06
0.000000000000000000e+00 0.000000000000000000e+00 1.143494478793305458e-19
-2.171786554597629091e-05 7.897405653082209678e-06 -8.008792858483133631e-06
1.237618515054274134e-05 3.536052900155135507e-06 6.985595415186034344e-06
0.000000000000000000e+00 0.000000000000000000e+00 -8.502497608672543439e-06
0.000000000000000000e+00 -0.000000000000000000e+00 9.147955830346443662e-20
0.000000000000000000e+00 -0.000000000000000000e+00 0.000000000000000000e+00
-0.000000000000000000e+00 0.000000000000000000e+00 -8.635520323831971727e-06
0.000000000000000000e+00 0.000000000000000000e+00 1.027213122647647876e-05
0.000000000000000000e+00 0.000000000000000000e+00 1.009973488195937223e-05
0.000000000000000000e+00 0.000000000000000000e+00 -9.876543209876595823e-06
-0.000000000000000000e+00 0.000000000000000000e+00 9.402065714522733764e-20
-0.000000000000000000e+00 0.000000000000000000e+00 -1.414545021914681566e-19
-0.000000000000000000e+00 0.000000000000000000e+00 -9.402065714522733764e-20
0.000000000000000000e+00 0.000000000000000000e+00 -9.005903088039711248e-06
0.000000000000000000e+00 0.000000000000000000e+00 9.931642367765584770e-06
1.255553851751697132e-04 2.092589752919496462e-05 2.663855565146983431e-05
-0.000000000000000000e+00 0.000000000000000000e+00 8.680555555555580959e-06
0.000000000000000000e+00 0.000000000000000000e+00 -8.771689372550095599e-06
0.000000000000000000e+00 0.000000000000000000e+00 -8.817795413368561687e-06
0.000000000000000000e+00 0.000000000000000000e+00 -8.911104768137255382e-06
-0.000000000000000000e+00 0.000000000000000000e+00 -9.053870529651456396e-06
5.573955335078467047e-05 1.592558667165281768e-05 1.703697119606467839e-05
0.000000000000000000e+00 0.000000000000000000e+00 -1.087982048296206253e-05
0.000000000000000000e+00 -0.000000000000000000e+00 1.081665765278531414e-05
0.000000000000000000e+00 -0.000000000000000000e+00 2.541098841762901017e-20
-0.000000000000000000e+00 0.000000000000000000e+00 -7.707999820014133086e-20
-0.000000000000000000e+00 0.000000000000000000e+00 -2.049819732355406821e-19
-1.584100753467040714e-05 8.976570936313247543e-05 3.341859610923923160e-06
1.506519406264901617e-05 4.304341160756975386e-06 8.158107571664495987e-06
1.341181653782496882e-05 3.831947582235634953e-06 7.442072530366152392e-06
1.199179257302195188e-05 3.426226449434778232e-06 6.814434610727131524e-06
0.000000000000000000e+00 -0.000000000000000000e+00 -6.860966872759832746e-20
-0.000000000000000000e+00 0.000000000000000000e+00 -2.286988957586610915e-20
0.000000000000000000e+00 0.000000000000000000e+00 8.635520323831902270e-06
0.000000000000000000e+00 0.000000000000000000e+00 8.680555555555470845e-06
0.000000000000000000e+00 0.000000000000000000e+00 1.021417855660870509e-05
0.000000000000000000e+00 0.000000000000000000e+00 1.004323297946627398e-05
0.000000000000000000e+00 0.000000000000000000e+00 9.821901305238674303e-06
0.000000000000000000e+00 0.000000000000000000e+00 -9.005903088039640098e-06
0.000000000000000000e+00 -0.000000000000000000e+00 -7.115076756936122848e-20
0.000000000000000000e+00 -0.000000000000000000e+00 -7.115076756936122848e-20
0.000000000000000000e+00 0.000000000000000000e+00 9.005903088039663815e-06
0.000000000000000000e+00 0.000000000000000000e+00 2.498747194400186000e-20
-1.316012651007294164e-05 -3.760036145735100227e-06 -4.659830891840643123e-07
-0.000000000000000000e+00 -0.000000000000000000e+00 4.701032857261366882e-20
0.000000000000000000e+00 0.000000000000000000e+00 -8.680555555555508114e-06
0.000000000000000000e+00 0.000000000000000000e+00 -8.817795413368651473e-06
0.000000000000000000e+00 0.000000000000000000e+00 9.005903088039645180e-06
-0.000000000000000000e+00 -0.000000000000000000e+00 2.371692252312040949e-20
0.000000000000000000e+00 -0.000000000000000000e+00 -1.329841727189251532e-19
0.000000000000000000e+00 0.000000000000000000e+00 -1.087982048296207609e-05
-0.000000000000000000e+00 0.000000000000000000e+00 -7.707999820014133086e-20
0.000000000000000000e+00 -0.000000000000000000e+00 -5.166900978251232068e-20
-0.000000000000000000e+00 0.000000000000000000e+00 -1.069197099802861310e-05
-0.000000000000000000e+00 0.000000000000000000e+00 -1.063043460206465810e-05
1.641623752753103367e-05 4.690353579294741500e-06 -2.052343217250071856e-06
1.456629515160742985e-05 4.161798614745053528e-06 7.943582730309313867e-06
1.298419101589990669e-05 3.709768861685773177e-06 7.254383574849556550e-06
1.177489177489189322e-05 3.364254792826206986e-06 6.713667285095890484e-06
0.000000000000000000e+00 -0.000000000000000000e+00 0.000000000000000000e+00
0.000000000000000000e+00 0.000000000000000000e+00 8.546494935533979081e-06
0.000000000000000000e+00 -0.000000000000000000e+00 -6.945670167485262780e-20
0.000000000000000000e+00 0.000000000000000000e+00 1.033057851239672716e-05
-0.000000000000000000e+00 -0.000000000000000000e+00 -1.015671493751249556e-05
0.000000000000000000e+00 0.000000000000000000e+00 9.987203895009274279e-06
0.000000000000000000e+00 0.000000000000000000e+00 -8.911104768137294345e-06
-0.000000000000000000e+00 0.000000000000000000e+00 -9.005903088039687531e-06
-0.000000000000000000e+00 0.000000000000000000e+00 -2.371692252312040949e-20
-0.000000000000000000e+00 0.000000000000000000e+00 -7.115076756936122848e-20
0.000000000000000000e+00 -0.000000000000000000e+00 4.658681209898651865e-20
0.000000000000000000e+00 0.000000000000000000e+00 -6.225692162319107492e-20
-1.254119908749371101e-05 -3.583199739283875321e-06 -3.961639283941461653e-07
1.218196755876391430e-05 3.480562159646816199e-06 9.062955773187591392e-06
-3.075552619623243291e-05 3.417280688470254182e-06 7.242076667597395227e-06
0.000000000000000000e+00 0.000000000000000000e+00 -8.864265927977848451e-06
0.000000000000000000e+00 0.000000000000000000e+00 -9.053870529651412351e-06
-0.000000000000000000e+00 0.000000000000000000e+00 -9.200094875978365782e-06
0.000000000000000000e+00 -0.000000000000000000e+00 9.503374440377426833e-06
0.000000000000000000e+00 -0.000000000000000000e+00 -6.437450399132682577e-20
0.000000000000000000e+00 -0.000000000000000000e+00 -1.033380195650246414e-19
0.000000000000000000e+00 0.000000000000000000e+00 1.075404326822087201e-05
0.000000000000000000e+00 0.000000000000000000e+00 -1.063043460206459204e-05
0.000000000000000000e+00 0.000000000000000000e+00 6.606856988583542645e-20
-0.000000000000000000e+00 -0.000000000000000000e+00 2.541098841762901017e-20
1.428540978728637558e-05 4.081545653510502652e-06 7.817687777786276699e-06
1.274311111111114616e-05 3.640888888888915844e-06 7.144027569815879152e-06
0.000000000000000000e+00 -0.000000000000000000e+00 8.458839156495094532e-06
0.000000000000000000e+00 -0.000000000000000000e+00 8.546494935534012963e-06
0.000000000000000000e+00 -0.000000000000000000e+00 -1.380663704024509553e-19
0.000000000000000000e+00 -0.000000000000000000e+00 -6.945670167485262780e-20
0.000000000000000000e+00 0.000000000000000000e+00 1.027213122647622634e-05
0.000000000000000000e+00 0.000000000000000000e+00 1.009973488195947218e-05
-0.000000000000000000e+00 -0.000000000000000000e+00 4.955142741437656984e-20
0.000000000000000000e+00 0.000000000000000000e+00 -8.958315836622806927e-06
0.000000000000000000e+00 -0.000000000000000000e+00 -1.414545021914681566e-19
0.000000000000000000e+00 -0.000000000000000000e+00 -1.414545021914681566e-19
-0.000000000000000000e+00 0.000000000000000000e+00 -9.053870529651464867e-06
6.449804910646827268e-05 -7.166449900718592968e-06 -2.684544468156909714e-06
1.010240908207719456e-03 2.160263577299522634e-04 6.435754095036056843e-04
0.000000000000000000e+00 0.000000000000000000e+00 0.000000000000000000e+00
0.000000000000000000e+00 0.000000000000000000e+00 -8.771689372550043083e-06
0.000000000000000000e+00 0.000000000000000000e+00 -8.864265927977836592e-06
0.000000000000000000e+00 0.000000000000000000e+00 -8.958315836622678178e-06
0.000000000000000000e+00 -0.000000000000000000e+00 -1.397604362969595559e-19
-2.051372188611269326e-05 7.459535231313701944e-06 8.590931316865404115e-06
0.000000000000000000e+00 0.000000000000000000e+00 9.503374440377398034e-06
0.000000000000000000e+00 0.000000000000000000e+00 1.087982048296198461e-05
0.000000000000000000e+00 0.000000000000000000e+00 -1.075404326822099398e-05
0.000000000000000000e+00 0.000000000000000000e+00 -1.069197099802870289e-05
-0.000000000000000000e+00 0.000000000000000000e+00 5.166900978251232068e-20
2.531559887636690087e-05 2.531559887636675518e-05 2.911293870782138594e-05
1.554273098432687258e-05 4.440780281236461792e-06 8.357334761893102016e-06
0.000000000000000000e+00 0.000000000000000000e+00 9.607806342653181909e-06
1.934593152479565970e-05 -7.034884190835139558e-06 7.204643094102878358e-06
-0.000000000000000000e+00 0.000000000000000000e+00 4.573977915173221831e-20
-0.000000000000000000e+00 0.000000000000000000e+00 9.147955830346443662e-20
-0.000000000000000000e+00 0.000000000000000000e+00 0.000000000000000000e+00
0.000000000000000000e+00 0.000000000000000000e+00 8.680555555555631781e-06
0.000000000000000000e+00 0.000000000000000000e+00 1.021417855660877963e-05
0.000000000000000000e+00 0.000000000000000000e+00 -1.740652706607587197e-19
0.000000000000000000e+00 -0.000000000000000000e+00 9.821901305238599765e-06
0.000000000000000000e+00 0.000000000000000000e+00 8.958315836622690037e-06
0.000000000000000000e+00 -0.000000000000000000e+00 -1.414545021914681566e-19
0.000000000000000000e+00 -0.000000000000000000e+00 -9.402065714522733764e-20
0.000000000000000000e+00 -0.000000000000000000e+00 -7.030373462210692814e-20
-0.000000000000000000e+00 -0.000000000000000000e+00 -6.225692162319107492e-20
-3.930232875259953573e-19 -1.626303258728256651e-19 2.625802136488331051e-20
-5.099223527326361509e-06 -1.359792940620351832e-05 -7.491132032167866146e-06
-0.000000000000000000e+00 0.000000000000000000e+00 -8.771689372550095599e-06
-0.000000000000000000e+00 0.000000000000000000e+00 -1.397604362969595559e-19
-0.000000000000000000e+00 0.000000000000000000e+00 -8.911104768137184231e-06
-0.000000000000000000e+00 -0.000000000000000000e+00 4.743384504624081899e-20
0.000000000000000000e+00 0.000000000000000000e+00 -9.555376392248222944e-06
-0.000000000000000000e+00 0.000000000000000000e+00 -1.087982048296206253e-05
0.000000000000000000e+00 -0.000000000000000000e+00 -5.166900978251232068e-20
-0.000000000000000000e+00 0.000000000000000000e+00 0.000000000000000000e+00
0.000000000000000000e+00 -0.000000000000000000e+00 -7.707999820014133086e-20
-0.000000000000000000e+00 0.000000000000000000e+00 -1.063043460206454291e-05
1.665694153473401909e-05 4.759126152781269194e-06 -2.050623474654144200e-06
1.502275689627542367e-05 4.292216256078635846e-06 8.135126986955572279e-06
2.096178893633835185e-05 -7.622468704123224923e-06 7.755454287797949498e-06
1.874609836005825041e-05 -6.816763040020513734e-06 7.004041757230109150e-06
0.000000000000000000e+00 -0.000000000000000000e+00 0.000000000000000000e+00
0.000000000000000000e+00 -0.000000000000000000e+00 -2.286988957586610915e-20
0.000000000000000000e+00 0.000000000000000000e+00 8.590834653279204297e-06
0.000000000000000000e+00 0.000000000000000000e+00 1.033057851239672716e-05
0.000000000000000000e+00 0.000000000000000000e+00 1.015671493751237189e-05
0.000000000000000000e+00 0.000000000000000000e+00 -9.987203895009248868e-06
0.000000000000000000e+00 0.000000000000000000e+00 -5.886878983417387357e-20
0.000000000000000000e+00 -0.000000000000000000e+00 -7.030373462210692814e-20
-0.000000000000000000e+00 0.000000000000000000e+00 -1.414545021914681566e-19
-0.000000000000000000e+00 0.000000000000000000e+00 -1.414545021914681566e-19
0.000000000000000000e+00 0.000000000000000000e+00 -8.958315836622784904e-06
-0.000000000000000000e+00 -0.000000000000000000e+00 -8.724439356719293492e-20
-1.284569396854538062e-05 -3.670198276727251605e-06 -4.303160278996994893e-07
0.000000000000000000e+00 0.000000000000000000e+00 2.329340604949325932e-20
0.000000000000000000e+00 0.000000000000000000e+00 8.680555555555519973e-06
0.000000000000000000e+00 -0.000000000000000000e+00 1.185846126156020475e-20
0.000000000000000000e+00 0.000000000000000000e+00 8.958315836622632438e-06
0.000000000000000000e+00 0.000000000000000000e+00 -9.200094875978365782e-06
0.000000000000000000e+00 0.000000000000000000e+00 9.555376392248133159e-06
-0.000000000000000000e+00 0.000000000000000000e+00 -1.033380195650246414e-19
0.000000000000000000e+00 -0.000000000000000000e+00 -2.541098841762901017e-20
-0.000000000000000000e+00 0.000000000000000000e+00 -5.166900978251232068e-20
-0.000000000000000000e+00 0.000000000000000000e+00 2.126086920412923828e-05
-7.190799255789965486e-05 -4.194632899210814781e-05 2.322109037748758143e-05
-0.000000000000000000e+00 -0.000000000000000000e+00 1.151964808265848461e-19
1.452572051330215601e-05 4.150205860943436481e-06 7.921455758915686780e-06
-2.034902705364303533e-05 7.399646201324837605e-06 -7.553475744680905088e-06
-1.812385575504473005e-05 6.590493001834447059e-06 -6.793582391797272965e-06
-0.000000000000000000e+00 0.000000000000000000e+00 -8.502497608672567156e-06
0.000000000000000000e+00 0.000000000000000000e+00 -8.590834653279297471e-06
-0.000000000000000000e+00 0.000000000000000000e+00 -6.945670167485262780e-20
0.000000000000000000e+00 0.000000000000000000e+00 1.027213122647640422e-05
0.000000000000000000e+00 0.000000000000000000e+00 1.009973488195932310e-05
0.000000000000000000e+00 -0.000000000000000000e+00 9.931642367765610181e-06
0.000000000000000000e+00 0.000000000000000000e+00 8.911104768137246911e-06
0.000000000000000000e+00 0.000000000000000000e+00 -9.053870529651593616e-06
0.000000000000000000e+00 -0.000000000000000000e+00 0.000000000000000000e+00
-0.000000000000000000e+00 0.000000000000000000e+00 0.000000000000000000e+00
0.000000000000000000e+00 -0.000000000000000000e+00 0.000000000000000000e+00
-2.367387638416270097e-05 8.608682321513686498e-06 7.468722449928275022e-06
-1.234353030845663112e-05 -3.526722945273389366e-06 -3.663454182455582363e-07
-0.000000000000000000e+00 -0.000000000000000000e+00 2.329340604949325932e-20
1.944829095085266507e-05 -7.072105800310067727e-06 -7.482911946063335929e-06
-0.000000000000000000e+00 0.000000000000000000e+00 -5.844527336054672340e-20
-0.000000000000000000e+00 0.000000000000000000e+00 0.000000000000000000e+00
0.000000000000000000e+00 -0.000000000000000000e+00 9.249624234015434585e-06
-0.000000000000000000e+00 0.000000000000000000e+00 6.776263578034402713e-21
-0.000000000000000000e+00 0.000000000000000000e+00 -1.550070293475369620e-19
0.000000000000000000e+00 0.000000000000000000e+00 1.081665765278518709e-05
0.000000000000000000e+00 -0.000000000000000000e+00 1.069197099802865715e-05
-0.000000000000000000e+00 0.000000000000000000e+00 2.625802136488331051e-20
3.719259895871246749e-05 -2.479506597247502350e-05 1.075005333539260784e-05
-0.000000000000000000e+00 -0.000000000000000000e+00 1.143494478793305458e-19
3.320369153236857329e-19 -2.752857078576476102e-20 4.891615270393584458e-20
1.960332555777465934e-05 -7.128482021009072910e-06 7.300499535019046733e-06
-0.000000000000000000e+00 0.000000000000000000e+00 -2.286988957586610915e-20
-0.000000000000000000e+00 0.000000000000000000e+00 0.000000000000000000e+00
-0.000000000000000000e+00 0.000000000000000000e+00 0.000000000000000000e+00
-0.000000000000000000e+00 0.000000000000000000e+00 -1.389134033497052556e-19
0.000000000000000000e+00 0.000000000000000000e+00 -1.021417855660877963e-05
0.000000000000000000e+00 -0.000000000000000000e+00 1.004323297946642476e-05
-0.000000000000000000e+00 -0.000000000000000000e+00 2.498747194400186000e-20
0.000000000000000000e+00 -0.000000000000000000e+00 -2.371692252312040949e-20
0.000000000000000000e+00 -0.000000000000000000e+00 0.000000000000000000e+00
0.000000000000000000e+00 -0.000000000000000000e+00 0.000000000000000000e+00
0.000000000000000000e+00 0.000000000000000000e+00 -9.005903088039758682e-06
-0.000000000000000000e+00 -0.000000000000000000e+00 4.955142741437656984e-20
5.659320433411830885e-05 -3.047326387221702289e-05 -3.358926568222205162e-05
0.000000000000000000e+00 0.000000000000000000e+00 -8.725944003981187956e-06
1.196048240964587630e-05 3.417280688470225807e-06 1.493918161937758989e-07
-0.000000000000000000e+00 0.000000000000000000e+00 -8.864265927977848451e-06
