ply
            format ascii 1.0
            element vertex 30644
            property float x
            property float y
            property float z
            property float nx
            property float ny
            property float nz
end_header
0.25782608695652 0.11782608695652 1.62608695652174 0.00000000000000 -0.00000000000000 1.00000000000000
0.28109289617486 0.11846994535519 1.63497267759563 0.00000000000000 0.00000000000000 1.00000000000000
-0.38769230769231 0.15216783216783 2.09230769230769 -0.99216587099524 0.03417460222317 -0.12016231104276
-0.32352201257862 0.13685534591195 1.88176100628931 -0.31532392955995 -0.84086381215986 -0.43990779584688
-0.29104294478528 0.13349693251534 1.83558282208589 0.08580769443708 0.94388463880788 0.31893389314701
-0.25552941176471 0.12800000000000 1.76000000000000 -0.31217339511946 -0.83246238698522 -0.45777084401965
-0.20923076923077 0.11543766578249 1.58726790450928 0.00000000000000 0.00000000000000 -1.00000000000000
-0.18851063829787 0.11574468085106 1.59148936170213 nan nan nan
-0.16723404255319 0.11574468085106 1.59148936170213 nan nan nan
-0.14518518518519 0.11513227513228 1.58306878306878 0.00000000000000 0.00000000000000 -1.00000000000000
-0.13131652661064 0.12190476190476 1.67619047619048 -0.00000000000000 0.00000000000000 -1.00000000000000
-0.10565217391304 0.11826086956522 1.62608695652174 -0.96065700556222 -0.27447343016064 -0.04245531533367
-0.08041666666667 0.11333333333333 1.55833333333333 0.00000000000000 0.00000000000000 1.00000000000000
-0.06005249343832 0.11422572178478 1.57060367454068 0.00000000000000 0.00000000000000 1.00000000000000
-0.03905511811024 0.11422572178478 1.57060367454068 -0.00000000000000 0.00000000000000 -1.00000000000000
-0.01834666666667 0.11605333333333 1.59573333333333 0.00000000000000 0.00000000000000 -1.00000000000000
0.00300268096515 0.11667560321716 1.60428954423592 0.96129598380646 0.27465599537327 -0.02177419856368
0.02498630136986 0.11923287671233 1.63945205479452 -0.00000000000000 0.00000000000000 -1.00000000000000
0.05005847953216 0.12725146198830 1.74970760233918 -0.00000000000000 0.00000000000000 -1.00000000000000
0.07323615160350 0.12688046647230 1.74460641399417 0.00000000000000 -0.00000000000000 1.00000000000000
0.09627906976744 0.12651162790698 1.73953488372093 0.00000000000000 -0.00000000000000 1.00000000000000
0.11884393063584 0.12578034682081 1.72947976878613 0.00000000000000 0.00000000000000 -1.00000000000000
0.14320699708455 0.12688046647230 1.74460641399417 0.00000000000000 0.00000000000000 -1.00000000000000
0.16320000000000 0.12434285714286 1.70971428571429 -0.00000000000000 0.00000000000000 1.00000000000000
0.18240896358543 0.12190476190476 1.67619047619048 -0.00000000000000 0.00000000000000 -1.00000000000000
0.20032876712329 0.11923287671233 1.63945205479452 0.00000000000000 0.00000000000000 1.00000000000000
0.21806451612903 0.11698924731183 1.60860215053763 0.00000000000000 0.00000000000000 1.00000000000000
0.24086486486486 0.11762162162162 1.61729729729730 0.00000000000000 0.00000000000000 -1.00000000000000
0.26391304347826 0.11826086956522 1.62608695652174 0.00000000000000 0.00000000000000 1.00000000000000
0.28800000000000 0.11923287671233 1.63945205479452 -0.00000000000000 0.00000000000000 -1.00000000000000
-0.34709265175719 0.13955271565495 1.91182108626198 0.00000000000000 0.00000000000000 -1.00000000000000
-0.31548589341693 0.13692789968652 1.87586206896552 0.00000000000000 0.00000000000000 -1.00000000000000
-0.27571428571429 0.13000000000000 1.78095238095238 -0.09045219123522 -0.99497410358747 -0.04295269829779
-0.22332453825858 0.11525065963061 1.57889182058047 0.00000000000000 0.00000000000000 -1.00000000000000
-0.20328912466843 0.11586206896552 1.58726790450928 nan nan nan
-0.18255319148936 0.11617021276596 1.59148936170213 0.00000000000000 -0.00000000000000 -1.00000000000000
-0.16127659574468 0.11617021276596 1.59148936170213 -0.00000000000000 0.00000000000000 -1.00000000000000
-0.13925925925926 0.11555555555556 1.58306878306878 -0.00000000000000 0.00000000000000 -1.00000000000000
-0.12539325842697 0.12269662921348 1.68089887640449 -0.00000000000000 0.00000000000000 -1.00000000000000
-0.09796791443850 0.11679144385027 1.60000000000000 nan nan nan
-0.07576719576720 0.11555555555556 1.58306878306878 -0.78026730322681 -0.22293351520766 -0.58436596693537
-0.05389033942559 0.11404699738903 1.56240208877285 0.00000000000000 0.00000000000000 -1.00000000000000
-0.03326315789474 0.11494736842105 1.57473684210526 -0.00000000000000 0.00000000000000 -1.00000000000000
-0.01234042553191 0.11617021276596 1.59148936170213 0.00000000000000 -0.00000000000000 -1.00000000000000
0.00903225806452 0.11741935483871 1.60860215053763 -0.00000000000000 0.00000000000000 -1.00000000000000
0.03103825136612 0.11934426229508 1.63497267759563 0.00000000000000 0.00000000000000 -1.00000000000000
0.05660818713450 0.12771929824561 1.74970760233918 0.00000000000000 -0.00000000000000 -1.00000000000000
0.07953488372093 0.12697674418605 1.73953488372093 0.00000000000000 0.00000000000000 -1.00000000000000
0.10249275362319 0.12660869565217 1.73449275362319 0.00000000000000 -0.00000000000000 1.00000000000000
0.12531791907514 0.12624277456647 1.72947976878613 -0.00000000000000 0.00000000000000 -1.00000000000000
0.14930232558140 0.12697674418605 1.73953488372093 0.00000000000000 0.00000000000000 1.00000000000000
0.16863636363636 0.12409090909091 1.70000000000000 0.00000000000000 0.00000000000000 -1.00000000000000
0.18711111111111 0.12133333333333 1.66222222222222 -0.00000000000000 0.00000000000000 1.00000000000000
0.20534059945504 0.11901907356948 1.63051771117166 -0.84858966662854 -0.24245419046529 -0.47022499212301
0.22408602150538 0.11741935483871 1.60860215053763 -0.00000000000000 0.00000000000000 1.00000000000000
0.24758807588076 0.11837398373984 1.62168021680217 0.00000000000000 0.00000000000000 -1.00000000000000
0.27147540983607 0.11934426229508 1.63497267759563 0.00000000000000 0.00000000000000 -1.00000000000000
0.29494505494505 0.12000000000000 1.64395604395604 0.00000000000000 0.00000000000000 -1.00000000000000
-0.33777777777778 0.13917460317460 1.89968253968254 0.00000000000000 0.00000000000000 -1.00000000000000
-0.30091743119266 0.13406727828746 1.82996941896024 0.06948428710732 -0.97278001950225 -0.22106778938234
-0.26666666666667 0.12932153392330 1.76519174041298 -0.31217339511946 -0.83246238698522 -0.45777084401965
-0.21798941798942 0.11597883597884 1.58306878306878 0.00000000000000 0.00000000000000 -1.00000000000000
-0.19787234042553 0.11659574468085 1.59148936170213 0.00000000000000 0.00000000000000 -1.00000000000000
-0.17659574468085 0.11659574468085 1.59148936170213 nan nan nan
-0.15490716180371 0.11628647214854 1.58726790450928 0.00000000000000 -0.00000000000000 -1.00000000000000
-0.13368700265252 0.11628647214854 1.58726790450928 0.57957235087346 0.16559210024956 -0.79791926060094
-0.15531135531136 0.16058608058608 2.19194139194139 -0.99233806190317 0.11025978465591 0.05574899807067
-0.09076517150396 0.11567282321900 1.57889182058047 0.77619143753243 0.22176898215212 0.59020790477302
-0.06929133858268 0.11506561679790 1.57060367454068 0.77958785255607 0.22273938644460 0.58534600525954
-0.04816753926702 0.11476439790576 1.56649214659686 0.00000000000000 0.00000000000000 -1.00000000000000
-0.02744063324538 0.11567282321900 1.57889182058047 -0.00000000000000 0.00000000000000 -1.00000000000000
-0.00641711229947 0.11721925133690 1.60000000000000 0.00000000000000 0.00000000000000 -1.00000000000000
0.01513513513514 0.11848648648649 1.61729729729730 0.00000000000000 0.00000000000000 -1.00000000000000
0.03715846994536 0.11978142076503 1.63497267759563 -0.00000000000000 0.00000000000000 -1.00000000000000
0.06297376093294 0.12781341107872 1.74460641399417 0.00000000000000 -0.00000000000000 -1.00000000000000
0.08604651162791 0.12744186046512 1.73953488372093 -0.00000000000000 0.00000000000000 1.00000000000000
0.10898550724638 0.12707246376812 1.73449275362319 0.00000000000000 -0.00000000000000 -1.00000000000000
0.13179190751445 0.12670520231214 1.72947976878613 -0.00000000000000 0.00000000000000 -1.00000000000000
0.15491329479769 0.12670520231214 1.72947976878613 nan nan nan
0.17401129943503 0.12384180790960 1.69039548022599 -0.00000000000000 -0.00000000000000 1.00000000000000
0.19226519337017 0.12110497237569 1.65303867403315 -0.00000000000000 -0.00000000000000 1.00000000000000
0.21029810298103 0.11880758807588 1.62168021680217 -0.84858966662854 -0.24245419046531 -0.47022499212299
0.23072776280323 0.11816711590296 1.61293800539084 0.00000000000000 -0.00000000000000 1.00000000000000
0.25365853658537 0.11880758807588 1.62168021680217 0.00000000000000 0.00000000000000 1.00000000000000
0.27759562841530 0.11978142076503 1.63497267759563 0.00000000000000 0.00000000000000 1.00000000000000
0.30192837465565 0.12077134986226 1.64848484848485 0.00000000000000 -0.00000000000000 1.00000000000000
-0.31756097560976 0.13414634146341 1.82439024390244 0.06948428710731 -0.97278001950225 -0.22106778938232
-0.28619047619048 0.13095238095238 1.78095238095238 -0.35109634625459 -0.93625692334559 0.01242292775963
-0.25929411764706 0.12941176470588 1.76000000000000 nan nan nan
-0.21206349206349 0.11640211640212 1.58306878306878 0.00000000000000 0.00000000000000 1.00000000000000
-0.19191489361702 0.11702127659574 1.59148936170213 0.00000000000000 -0.00000000000000 -1.00000000000000
-0.17063829787234 0.11702127659574 1.59148936170213 0.00000000000000 -0.00000000000000 -1.00000000000000
-0.14896551724138 0.11671087533156 1.58726790450928 -0.00000000000000 0.00000000000000 -1.00000000000000
-0.13452513966480 0.12290502793296 1.67150837988827 -0.00000000000000 0.00000000000000 -1.00000000000000
-0.11002739726027 0.12054794520548 1.63945205479452 -0.92056948876314 -0.38711127219783 0.05192956090459
-0.08396866840731 0.11488250652742 1.56240208877285 0.77483336942080 0.22138096269166 0.59213488242943
-0.06341207349081 0.11548556430446 1.57060367454068 0.00000000000000 0.00000000000000 1.00000000000000
-0.04241469816273 0.11548556430446 1.57060367454068 0.00000000000000 -0.00000000000000 1.00000000000000
-0.02158730158730 0.11640211640212 1.58306878306878 -0.00000000000000 -0.00000000000000 1.00000000000000
-0.00042780748663 0.11764705882353 1.60000000000000 -0.00000000000000 0.00000000000000 -1.00000000000000
0.02147945205479 0.12054794520548 1.63945205479452 0.00000000000000 0.00000000000000 -1.00000000000000
0.04631578947368 0.12865497076023 1.74970760233918 0.00000000000000 -0.00000000000000 -1.00000000000000
0.06950437317784 0.12827988338192 1.74460641399417 nan nan nan
0.09255813953488 0.12790697674419 1.73953488372093 0.00000000000000 -0.00000000000000 1.00000000000000
0.11514450867052 0.12716763005780 1.72947976878613 0.00000000000000 -0.00000000000000 1.00000000000000
0.13786743515850 0.12680115273775 1.72449567723343 -0.00000000000000 -0.00000000000000 1.00000000000000
0.16000000000000 0.12607449856734 1.71461318051576 0.00000000000000 0.00000000000000 -1.00000000000000
0.17932584269663 0.12359550561798 1.68089887640449 0.00000000000000 0.00000000000000 1.00000000000000
0.19736263736264 0.12087912087912 1.64395604395604 -0.00000000000000 -0.00000000000000 1.00000000000000
0.21462365591398 0.11827956989247 1.60860215053763 0.00000000000000 0.00000000000000 1.00000000000000
0.23740540540541 0.11891891891892 1.61729729729730 0.31916690056463 0.85111173483903 0.41682286933812
0.26043478260870 0.11956521739130 1.62608695652174 -0.00000000000000 0.00000000000000 -1.00000000000000
0.28449315068493 0.12054794520548 1.63945205479452 0.00000000000000 0.00000000000000 -1.00000000000000
-0.34784810126582 0.13974683544304 1.89367088607595 0.51316947977585 0.14661985136453 -0.84567115607216
-0.30606606606607 0.13261261261261 1.79699699699700 -0.09045336166250 -0.99498697828755 -0.04265093670904
-0.27786982248521 0.13065088757396 1.77041420118343 -0.31217339511946 -0.83246238698522 -0.45777084401965
-0.23539726027397 0.12098630136986 1.63945205479452 -0.96672672905784 0.04496403390967 -0.25182864606653
-0.20668435013263 0.11713527851459 1.58726790450928 nan nan nan
-0.18595744680851 0.11744680851064 1.59148936170213 0.00000000000000 -0.00000000000000 -1.00000000000000
-0.16468085106383 0.11744680851064 1.59148936170213 -0.00000000000000 0.00000000000000 1.00000000000000
-0.14264550264550 0.11682539682540 1.58306878306878 0.00000000000000 -0.00000000000000 1.00000000000000
-0.12898876404494 0.12404494382022 1.68089887640449 0.00000000000000 -0.00000000000000 1.00000000000000
-0.10221024258760 0.11902964959569 1.61293800539084 -0.96073022592214 -0.27449435026347 -0.04062369595477
-0.07936339522546 0.11713527851459 1.58726790450928 0.96115253976793 0.27461501136226 0.02779192026754
-0.05738219895288 0.11560209424084 1.56649214659686 -0.00000000000000 -0.00000000000000 1.00000000000000
-0.03653543307087 0.11590551181102 1.57060367454068 -0.00000000000000 0.00000000000000 -1.00000000000000
-0.01578666666667 0.11776000000000 1.59573333333333 -0.00000000000000 0.00000000000000 -1.00000000000000
0.00559139784946 0.11870967741935 1.60860215053763 0.00000000000000 0.00000000000000 -1.00000000000000
0.02761643835616 0.12098630136986 1.63945205479452 0.00000000000000 0.00000000000000 1.00000000000000
0.05286549707602 0.12912280701754 1.74970760233918 0.00000000000000 -0.00000000000000 1.00000000000000
0.07603498542274 0.12874635568513 1.74460641399417 -0.00000000000000 0.00000000000000 -1.00000000000000
0.09906976744186 0.12837209302326 1.73953488372093 -0.00000000000000 0.00000000000000 -1.00000000000000
0.12161849710983 0.12763005780347 1.72947976878613 0.00000000000000 -0.00000000000000 1.00000000000000
0.14600583090379 0.12874635568513 1.74460641399417 0.00000000000000 0.00000000000000 1.00000000000000
0.16547008547009 0.12581196581197 1.70484330484330 -0.00000000000000 0.00000000000000 1.00000000000000
0.18458100558659 0.12335195530726 1.67150837988827 0.00000000000000 0.00000000000000 1.00000000000000
0.20240437158470 0.12065573770492 1.63497267759563 -0.00000000000000 -0.00000000000000 1.00000000000000
0.22005361930295 0.11839142091153 1.60428954423592 0.00000000000000 0.00000000000000 1.00000000000000
0.24345945945946 0.11935135135135 1.61729729729730 -0.00000000000000 0.00000000000000 1.00000000000000
0.26724795640327 0.12032697547684 1.63051771117166 0.00000000000000 -0.00000000000000 1.00000000000000
0.29063013698630 0.12098630136986 1.63945205479452 0.00000000000000 0.00000000000000 1.00000000000000
-0.32729483282675 0.13471124620061 1.81884498480243 0.05165192467022 0.99860387695752 0.01106235071146
-0.29755223880597 0.13229850746269 1.78626865671642 0.35110274092294 0.93627397579451 -0.01085852505350
-0.27044247787611 0.13073746312684 1.76519174041298 0.00000000000000 0.00000000000000 1.00000000000000
-0.22079155672823 0.11693931398417 1.57889182058047 -0.00000000000000 0.00000000000000 1.00000000000000
-0.20074270557029 0.11755968169761 1.58726790450928 0.00000000000000 -0.00000000000000 -1.00000000000000
-0.18000000000000 0.11787234042553 1.59148936170213 nan nan nan
-0.15830238726790 0.11755968169761 1.58726790450928 0.00000000000000 0.00000000000000 -1.00000000000000
-0.13635883905013 0.11693931398417 1.57889182058047 -0.00000000000000 -0.00000000000000 1.00000000000000
-0.12304225352113 0.12484507042254 1.68563380281690 0.00000000000000 0.00000000000000 1.00000000000000
-0.09489361702128 0.11787234042553 1.59148936170213 0.00000000000000 0.00000000000000 -1.00000000000000
-0.07303430079156 0.11693931398417 1.57889182058047 0.00000000000000 0.00000000000000 1.00000000000000
-0.05138381201044 0.11571801566580 1.56240208877285 0.00000000000000 0.00000000000000 1.00000000000000
-0.03081794195251 0.11693931398417 1.57889182058047 0.00000000000000 0.00000000000000 -1.00000000000000
-0.00978723404255 0.11787234042553 1.59148936170213 -0.00000000000000 0.00000000000000 -1.00000000000000
0.01164420485175 0.11946091644205 1.61293800539084 0.00000000000000 -0.00000000000000 1.00000000000000
0.03366120218579 0.12109289617486 1.63497267759563 0.00000000000000 -0.00000000000000 -1.00000000000000
0.05941520467836 0.12959064327485 1.74970760233918 -0.00000000000000 0.00000000000000 -1.00000000000000
0.08232558139535 0.12883720930233 1.73953488372093 -0.00000000000000 0.00000000000000 -1.00000000000000
0.10527536231884 0.12846376811594 1.73449275362319 0.00000000000000 -0.00000000000000 -1.00000000000000
0.12809248554913 0.12809248554913 1.72947976878613 nan nan nan
0.15165217391304 0.12846376811594 1.73449275362319 0.00000000000000 0.00000000000000 -1.00000000000000
0.17087818696884 0.12555240793201 1.69518413597734 0.00000000000000 0.00000000000000 1.00000000000000
0.18925207756233 0.12277008310249 1.65761772853186 -0.00000000000000 0.00000000000000 1.00000000000000
0.20739130434783 0.12043478260870 1.62608695652174 -0.00000000000000 -0.00000000000000 1.00000000000000
0.22666666666667 0.11913978494624 1.60860215053763 -0.00000000000000 0.00000000000000 -1.00000000000000
0.25018970189702 0.12010840108401 1.62168021680217 -0.00000000000000 0.00000000000000 1.00000000000000
0.27409836065574 0.12109289617486 1.63497267759563 -0.00000000000000 0.00000000000000 1.00000000000000
0.29758241758242 0.12175824175824 1.64395604395604 -0.00000000000000 0.00000000000000 -1.00000000000000
-0.31663663663664 0.13357357357357 1.79699699699700 -0.35111295248877 -0.93630120663672 0.00772949191308
-0.29000000000000 0.13238095238095 1.78095238095238 0.35109634625459 0.93625692334559 -0.01242292775963
-0.26305882352941 0.13082352941176 1.76000000000000 0.31217339511946 0.83246238698522 0.45777084401965
-0.21544973544974 0.11767195767196 1.58306878306878 nan nan nan
-0.19531914893617 0.11829787234043 1.59148936170213 -0.00000000000000 0.00000000000000 1.00000000000000
-0.17404255319149 0.11829787234043 1.59148936170213 nan nan nan
-0.15236074270557 0.11798408488064 1.58726790450928 -0.00000000000000 0.00000000000000 -1.00000000000000
-0.13810055865922 0.12424581005587 1.67150837988827 0.00000000000000 0.00000000000000 -1.00000000000000
-0.12260355029586 0.13159763313609 1.77041420118343 0.99871990085199 0.04219943243037 0.02788848408834
-0.08800000000000 0.11705263157895 1.57473684210526 0.77619143753243 0.22176898215213 0.59020790477302
-0.06659685863874 0.11643979057592 1.56649214659686 0.00000000000000 0.00000000000000 -1.00000000000000
-0.04565445026178 0.11643979057592 1.56649214659686 0.00000000000000 0.00000000000000 1.00000000000000
-0.02490765171504 0.11736147757256 1.57889182058047 -0.00000000000000 0.00000000000000 -1.00000000000000
-0.00385026737968 0.11893048128342 1.60000000000000 -0.00000000000000 0.00000000000000 -1.00000000000000
0.01772972972973 0.12021621621622 1.61729729729730 -0.00000000000000 0.00000000000000 -1.00000000000000
0.04124645892351 0.12600566572238 1.69518413597734 0.99740851912473 0.01858525190916 -0.06950420410947
0.06577259475219 0.12967930029155 1.74460641399417 -0.00000000000000 0.00000000000000 -1.00000000000000
0.08883720930233 0.12930232558140 1.73953488372093 0.00000000000000 -0.00000000000000 1.00000000000000
0.11176811594203 0.12892753623188 1.73449275362319 -0.00000000000000 0.00000000000000 -1.00000000000000
0.13417867435159 0.12818443804035 1.72449567723343 0.00000000000000 -0.00000000000000 1.00000000000000
0.15723342939481 0.12818443804035 1.72449567723343 -0.84988154902558 -0.24282329972159 -0.46769455602796
0.17622535211268 0.12529577464789 1.68563380281690 -0.00000000000000 -0.00000000000000 -1.00000000000000
0.19438016528926 0.12253443526171 1.64848484848485 -0.00000000000000 0.00000000000000 1.00000000000000
0.21232432432432 0.12021621621622 1.61729729729730 -0.84858966662854 -0.24245419046529 -0.47022499212301
0.23331536388140 0.11989218328841 1.61293800539084 -0.00000000000000 0.00000000000000 1.00000000000000
0.25695652173913 0.12086956521739 1.62608695652174 0.00000000000000 0.00000000000000 -1.00000000000000
0.28098630136986 0.12186301369863 1.63945205479452 0.00000000000000 0.00000000000000 -1.00000000000000
0.30457300275482 0.12253443526171 1.64848484848485 -0.00000000000000 0.00000000000000 -1.00000000000000
-0.30805970149254 0.13325373134328 1.78626865671642 -0.31217339511946 -0.83246238698523 -0.45777084401964
-0.28165680473373 0.13207100591716 1.77041420118343 0.00000000000000 0.00000000000000 -1.00000000000000
-0.25497076023392 0.13052631578947 1.74970760233918 -0.77008319179776 -0.22002376908508 -0.59879998225465
-0.21007957559682 0.11840848806366 1.58726790450928 0.00000000000000 -0.00000000000000 1.00000000000000
-0.18936170212766 0.11872340425532 1.59148936170213 -0.00000000000000 0.00000000000000 -1.00000000000000
-0.16808510638298 0.11872340425532 1.59148936170213 -0.00000000000000 0.00000000000000 -1.00000000000000
-0.14641909814324 0.11840848806366 1.58726790450928 -0.00000000000000 0.00000000000000 -1.00000000000000
-0.13221288515406 0.12504201680672 1.67619047619048 -0.00000000000000 -0.00000000000000 1.00000000000000
-0.10652173913043 0.12130434782609 1.62608695652174 -0.96065700556222 -0.27447343016064 -0.04245531533367
-0.08125000000000 0.11625000000000 1.55833333333333 -0.00000000000000 -0.00000000000000 1.00000000000000
-0.06105263157895 0.11747368421053 1.57473684210526 -0.79472636565433 -0.22706467590124 0.56289576005840
-0.03989501312336 0.11716535433071 1.57060367454068 0.00000000000000 -0.00000000000000 -1.00000000000000
-0.01920000000000 0.11904000000000 1.59573333333333 0.00000000000000 -0.00000000000000 1.00000000000000
0.00213903743316 0.11935828877005 1.60000000000000 -0.00000000000000 0.00000000000000 -1.00000000000000
0.02410958904110 0.12230136986301 1.63945205479452 0.00000000000000 -0.00000000000000 -1.00000000000000
0.04912280701754 0.13052631578947 1.74970760233918 -0.00000000000000 0.00000000000000 -1.00000000000000
0.07230320699708 0.13014577259475 1.74460641399417 nan nan nan
0.09534883720930 0.12976744186047 1.73953488372093 -0.00000000000000 0.00000000000000 -1.00000000000000
0.11791907514451 0.12901734104046 1.72947976878613 0.00000000000000 -0.00000000000000 -1.00000000000000
0.14104046242775 0.12901734104046 1.72947976878613 -0.77502347878384 -0.22143527965253 0.59186571471829
0.16275071633238 0.12790830945559 1.71461318051576 0.00000000000000 0.00000000000000 1.00000000000000
0.18151260504202 0.12504201680672 1.67619047619048 -0.00000000000000 -0.00000000000000 -1.00000000000000
0.19945205479452 0.12230136986301 1.63945205479452 -0.00000000000000 0.00000000000000 1.00000000000000
0.21662198391421 0.11967828418231 1.60428954423592 0.00000000000000 0.00000000000000 -1.00000000000000
0.23935309973046 0.12032345013477 1.61293800539084 0.31916690056464 0.85111173483903 0.41682286933812
0.26376021798365 0.12163487738420 1.63051771117166 0.00000000000000 -0.00000000000000 1.00000000000000
0.28712328767123 0.12230136986301 1.63945205479452 0.00000000000000 -0.00000000000000 1.00000000000000
-0.32819277108434 0.13493975903614 1.80240963855422 -0.08962593094774 -0.98588524042509 -0.14141246484561
-0.30047619047619 0.13333333333333 1.78095238095238 0.35110274092294 0.93627397579451 -0.01085852505350
-0.27421828908555 0.13215339233038 1.76519174041298 nan nan nan
-0.22416886543536 0.11820580474934 1.57889182058047 0.00000000000000 -0.00000000000000 1.00000000000000
-0.20413793103448 0.11883289124668 1.58726790450928 0.00000000000000 -0.00000000000000 1.00000000000000
-0.18340425531915 0.11914893617021 1.59148936170213 nan nan nan
-0.16212765957447 0.11914893617021 1.59148936170213 0.00000000000000 -0.00000000000000 1.00000000000000
-0.14010582010582 0.11851851851852 1.58306878306878 0.00000000000000 0.00000000000000 1.00000000000000
-0.12629213483146 0.12584269662921 1.68089887640449 0.00000000000000 0.00000000000000 1.00000000000000
-0.09882352941176 0.11978609625668 1.60000000000000 -0.96080022781896 -0.27451435080542 -0.03879166695205
-0.07661375661376 0.11851851851852 1.58306878306878 -0.00000000000000 -0.00000000000000 -1.00000000000000
-0.05472584856397 0.11697127937337 1.56240208877285 0.00000000000000 -0.00000000000000 1.00000000000000
-0.03410526315789 0.11789473684211 1.57473684210526 0.00000000000000 0.00000000000000 -1.00000000000000
-0.01319148936170 0.11914893617021 1.59148936170213 0.00000000000000 0.00000000000000 -1.00000000000000
0.00817204301075 0.12043010752688 1.60860215053763 -0.00000000000000 0.00000000000000 -1.00000000000000
0.03016393442623 0.12240437158470 1.63497267759563 0.00000000000000 -0.00000000000000 1.00000000000000
0.05567251461988 0.13099415204678 1.74970760233918 nan nan nan
0.07883381924198 0.13061224489796 1.74460641399417 -0.00000000000000 0.00000000000000 -1.00000000000000
0.10156521739130 0.12985507246377 1.73449275362319 0.00000000000000 0.00000000000000 -1.00000000000000
0.12439306358382 0.12947976878613 1.72947976878613 0.00000000000000 -0.00000000000000 1.00000000000000
0.14837209302326 0.13023255813953 1.73953488372093 -0.00000000000000 0.00000000000000 1.00000000000000
0.16772727272727 0.12727272727273 1.70000000000000 0.84923598786344 0.24263885367526 0.46896121759135
0.18674094707521 0.12479108635097 1.66685236768802 0.00000000000000 0.00000000000000 1.00000000000000
0.20446866485014 0.12207084468665 1.63051771117166 0.00000000000000 0.00000000000000 1.00000000000000
0.22322580645161 0.12043010752688 1.60860215053763 0.00000000000000 0.00000000000000 -1.00000000000000
0.24605405405405 0.12108108108108 1.61729729729730 -0.00000000000000 0.00000000000000 -1.00000000000000
0.26986376021798 0.12207084468665 1.63051771117166 0.00000000000000 -0.00000000000000 1.00000000000000
0.29406593406593 0.12307692307692 1.64395604395604 0.00000000000000 -0.00000000000000 1.00000000000000
-0.32048048048048 0.13501501501502 1.79699699699700 0.35111295248877 0.93630120663672 -0.00772949191308
-0.29293768545994 0.13341246290801 1.77566765578635 -0.31217339511945 -0.83246238698522 -0.45777084401965
-0.26604105571848 0.13184750733138 1.75483870967742 0.00000000000000 -0.00000000000000 1.00000000000000
-0.21825857519789 0.11862796833773 1.57889182058047 -0.00000000000000 0.00000000000000 -1.00000000000000
-0.19819628647215 0.11925729442971 1.58726790450928 -0.00000000000000 0.00000000000000 -1.00000000000000
-0.17744680851064 0.11957446808511 1.59148936170213 nan nan nan
-0.15575596816976 0.11925729442971 1.58726790450928 0.00000000000000 -0.00000000000000 1.00000000000000
-0.13347368421053 0.11831578947368 1.57473684210526 -0.82714891540802 0.30078142378474 -0.47471592225810
-0.13104294478528 0.13791411042945 1.83558282208589 0.99308832100397 0.11683392011811 0.01119918726266
-0.09185185185185 0.11894179894180 1.58306878306878 -0.96093056785729 -0.27455159081637 -0.03512645353091
-0.07031578947368 0.11831578947368 1.57473684210526 0.00000000000000 0.00000000000000 1.00000000000000
-0.04900523560209 0.11769633507853 1.56649214659686 0.00000000000000 0.00000000000000 -1.00000000000000
-0.02828496042216 0.11862796833773 1.57889182058047 -0.00000000000000 0.00000000000000 1.00000000000000
-0.00727272727273 0.12021390374332 1.60000000000000 0.00000000000000 -0.00000000000000 1.00000000000000
0.01423180592992 0.12118598382749 1.61293800539084 -0.00000000000000 0.00000000000000 -1.00000000000000
0.03628415300546 0.12284153005464 1.63497267759563 -0.00000000000000 0.00000000000000 -1.00000000000000
0.06204081632653 0.13107871720117 1.74460641399417 0.00000000000000 0.00000000000000 -1.00000000000000
0.08511627906977 0.13069767441860 1.73953488372093 0.00000000000000 -0.00000000000000 1.00000000000000
0.10805797101449 0.13031884057971 1.73449275362319 -0.00000000000000 0.00000000000000 -1.00000000000000
0.13086705202312 0.12994219653179 1.72947976878613 0.00000000000000 0.00000000000000 1.00000000000000
0.15398843930636 0.12994219653179 1.72947976878613 0.84988154902560 0.24282329972160 0.46769455602793
0.17310734463277 0.12700564971751 1.69039548022599 0.84923598786344 0.24263885367527 0.46896121759135
0.19138121546961 0.12419889502762 1.65303867403315 0.00000000000000 0.00000000000000 -1.00000000000000
0.20943089430894 0.12184281842818 1.62168021680217 -0.00000000000000 -0.00000000000000 1.00000000000000
0.22986522911051 0.12118598382749 1.61293800539084 0.00000000000000 -0.00000000000000 1.00000000000000
0.25279132791328 0.12184281842818 1.62168021680217 -0.00000000000000 0.00000000000000 -1.00000000000000
0.27672131147541 0.12284153005464 1.63497267759563 0.00000000000000 -0.00000000000000 1.00000000000000
0.30104683195592 0.12385674931129 1.64848484848485 0.00000000000000 0.00000000000000 -1.00000000000000
-0.31188059701493 0.13468656716418 1.78626865671642 0.00000000000000 0.00000000000000 -1.00000000000000
-0.28544378698225 0.13349112426036 1.77041420118343 0.00000000000000 0.00000000000000 1.00000000000000
-0.25947214076246 0.13231671554252 1.75483870967742 0.31217339511946 0.83246238698522 0.45777084401965
-0.21291005291005 0.11936507936508 1.58306878306878 -0.00000000000000 0.00000000000000 -1.00000000000000
-0.19276595744681 0.12000000000000 1.59148936170213 0.00000000000000 -0.00000000000000 1.00000000000000
-0.17148936170213 0.12000000000000 1.59148936170213 -0.00000000000000 0.00000000000000 -1.00000000000000
-0.14981432360743 0.11968169761273 1.58726790450928 0.00000000000000 -0.00000000000000 -1.00000000000000
-0.13541899441341 0.12603351955307 1.67150837988827 -0.00000000000000 0.00000000000000 -1.00000000000000
-0.11120879120879 0.12395604395604 1.64395604395604 0.65464582217448 0.67510350411743 -0.34010896230159
-0.08502617801047 0.11811518324607 1.56649214659686 -0.96104800991194 -0.27458514568913 -0.03145982217320
-0.06408376963351 0.11811518324607 1.56649214659686 -0.00000000000000 0.00000000000000 -1.00000000000000
-0.04325459317585 0.11842519685039 1.57060367454068 0.00000000000000 0.00000000000000 -1.00000000000000
-0.02243386243386 0.11936507936508 1.58306878306878 0.96149979251589 0.27471422643311 -0.00708821466599
-0.00128342245989 0.12064171122995 1.60000000000000 0.00000000000000 -0.00000000000000 -1.00000000000000
0.02054644808743 0.12327868852459 1.63497267759563 -0.94618854111535 -0.32361497334564 0.00077051184130
0.04538011695906 0.13192982456140 1.74970760233918 0.00000000000000 0.00000000000000 -1.00000000000000
0.06857142857143 0.13154518950437 1.74460641399417 -0.00000000000000 0.00000000000000 -1.00000000000000
0.09162790697674 0.13116279069767 1.73953488372093 -0.00000000000000 0.00000000000000 1.00000000000000
0.11421965317919 0.13040462427746 1.72947976878613 0.00000000000000 0.00000000000000 -1.00000000000000
0.13694524495677 0.13002881844380 1.72449567723343 0.00000000000000 0.00000000000000 1.00000000000000
0.15954022988506 0.12965517241379 1.71954022988506 0.00000000000000 -0.00000000000000 -1.00000000000000
0.17842696629213 0.12674157303371 1.68089887640449 0.84923598786343 0.24263885367527 0.46896121759137
0.19648351648352 0.12395604395604 1.64395604395604 0.00000000000000 0.00000000000000 -1.00000000000000
0.21433962264151 0.12161725067385 1.61293800539084 -0.84858966662854 -0.24245419046530 -0.47022499212301
0.23590296495957 0.12161725067385 1.61293800539084 0.00000000000000 0.00000000000000 1.00000000000000
0.25956521739130 0.12260869565217 1.62608695652174 0.00000000000000 0.00000000000000 1.00000000000000
0.28361643835616 0.12361643835616 1.63945205479452 -0.00000000000000 0.00000000000000 1.00000000000000
-0.33105105105105 0.13597597597598 1.79699699699700 0.50542339920481 -0.75813509880726 -0.41204169630362
-0.30428571428571 0.13476190476190 1.78095238095238 0.31217339511945 0.83246238698522 0.45777084401965
-0.27799410029499 0.13356932153392 1.76519174041298 0.00000000000000 0.00000000000000 -1.00000000000000
-0.25142857142857 0.13201166180758 1.74460641399417 -0.77008319179776 -0.22002376908508 -0.59879998225465
-0.20753315649867 0.12010610079576 1.58726790450928 0.00000000000000 -0.00000000000000 -1.00000000000000
-0.18680851063830 0.12042553191489 1.59148936170213 nan nan nan
-0.16553191489362 0.12042553191489 1.59148936170213 nan nan nan
-0.14349206349206 0.11978835978836 1.58306878306878 0.00000000000000 -0.00000000000000 1.00000000000000
-0.12988764044944 0.12719101123596 1.68089887640449 0.00000000000000 0.00000000000000 -1.00000000000000
-0.10335135135135 0.12237837837838 1.61729729729730 -0.93938884622404 -0.34216150028028 0.02177391365420
-0.08000000000000 0.11978835978836 1.58306878306878 0.00000000000000 0.00000000000000 -1.00000000000000
-0.05821989528796 0.11853403141361 1.56649214659686 0.78162632578944 0.22332180736841 0.58239819469725
-0.03737532808399 0.11884514435696 1.57060367454068 -0.00000000000000 0.00000000000000 -1.00000000000000
-0.01664000000000 0.12074666666667 1.59573333333333 0.00000000000000 0.00000000000000 1.00000000000000
0.00473118279570 0.12172043010753 1.60860215053763 0.00000000000000 -0.00000000000000 1.00000000000000
0.02673972602740 0.12405479452055 1.63945205479452 0.00000000000000 0.00000000000000 1.00000000000000
0.05192982456140 0.13239766081871 1.74970760233918 0.00000000000000 -0.00000000000000 1.00000000000000
0.07510204081633 0.13201166180758 1.74460641399417 -0.00000000000000 0.00000000000000 -1.00000000000000
0.09785507246377 0.13124637681159 1.73449275362319 0.00000000000000 -0.00000000000000 1.00000000000000
0.12069364161850 0.13086705202312 1.72947976878613 -0.00000000000000 0.00000000000000 -1.00000000000000
0.14507288629738 0.13201166180758 1.74460641399417 0.00000000000000 0.00000000000000 -1.00000000000000
0.16502857142857 0.12937142857143 1.70971428571429 0.89114317314997 -0.32405206296363 0.31757535395117
0.18368715083799 0.12648044692737 1.67150837988827 0.84923598786343 0.24263885367527 0.46896121759136
0.20153005464481 0.12371584699454 1.63497267759563 0.84858966662855 0.24245419046530 0.47022499212299
0.21919571045576 0.12139410187668 1.60428954423592 0.00000000000000 0.00000000000000 1.00000000000000
0.24259459459459 0.12237837837838 1.61729729729730 0.00000000000000 0.00000000000000 -1.00000000000000
0.26637602179837 0.12337874659401 1.63051771117166 0.00000000000000 -0.00000000000000 1.00000000000000
0.28975342465753 0.12405479452055 1.63945205479452 0.00000000000000 0.00000000000000 1.00000000000000
-0.32335329341317 0.13604790419162 1.79161676646707 -0.50471840152601 0.75707760228900 0.41484073965000
-0.29673590504451 0.13483679525223 1.77566765578635 0.31217339511945 0.83246238698522 0.45777084401965
-0.26979472140762 0.13325513196481 1.75483870967742 0.00000000000000 -0.00000000000000 1.00000000000000
-0.22163588390501 0.11989445910290 1.57889182058047 -0.00000000000000 0.00000000000000 -1.00000000000000
-0.20159151193634 0.12053050397878 1.58726790450928 -0.00000000000000 0.00000000000000 1.00000000000000
-0.18085106382979 0.12085106382979 1.59148936170213 nan nan nan
-0.15957446808511 0.12085106382979 1.59148936170213 -0.00000000000000 0.00000000000000 -1.00000000000000
-0.13720316622691 0.11989445910290 1.57889182058047 0.00000000000000 -0.00000000000000 1.00000000000000
-0.12394366197183 0.12800000000000 1.68563380281690 0.00000000000000 0.00000000000000 1.00000000000000
-0.09574468085106 0.12085106382979 1.59148936170213 -0.96086700913703 -0.27453343118201 -0.03695924668453
-0.07387862796834 0.11989445910290 1.57889182058047 0.00000000000000 0.00000000000000 1.00000000000000
-0.05221932114883 0.11864229765013 1.56240208877285 -0.00000000000000 0.00000000000000 -1.00000000000000
-0.03157894736842 0.11957894736842 1.57473684210526 -0.00000000000000 0.00000000000000 -1.00000000000000
-0.01063829787234 0.12085106382979 1.59148936170213 -0.00000000000000 0.00000000000000 -1.00000000000000
0.01078167115903 0.12247978436658 1.61293800539084 0.00000000000000 0.00000000000000 -1.00000000000000
0.03278688524590 0.12415300546448 1.63497267759563 0.00000000000000 -0.00000000000000 -1.00000000000000
0.05847953216374 0.13286549707602 1.74970760233918 0.00000000000000 0.00000000000000 1.00000000000000
0.08139534883721 0.13209302325581 1.73953488372093 0.00000000000000 -0.00000000000000 1.00000000000000
0.10434782608696 0.13171014492754 1.73449275362319 -0.00000000000000 0.00000000000000 1.00000000000000
0.12716763005780 0.13132947976879 1.72947976878613 -0.00000000000000 0.00000000000000 -1.00000000000000
0.15072463768116 0.13171014492754 1.73449275362319 -0.84988154902558 -0.24282329972159 -0.46769455602796
0.16997167138810 0.12872521246459 1.69518413597734 -0.84923598786344 -0.24263885367527 -0.46896121759135
0.18888888888889 0.12622222222222 1.66222222222222 0.00000000000000 0.00000000000000 1.00000000000000
0.20652173913043 0.12347826086957 1.62608695652174 0.84858966662854 0.24245419046530 0.47022499212301
0.22580645161290 0.12215053763441 1.60860215053763 0.00000000000000 0.00000000000000 1.00000000000000
0.24932249322493 0.12314363143631 1.62168021680217 0.00000000000000 -0.00000000000000 1.00000000000000
0.27247956403270 0.12381471389646 1.63051771117166 -0.00000000000000 0.00000000000000 -1.00000000000000
0.29670329670330 0.12483516483516 1.64395604395604 0.00000000000000 0.00000000000000 1.00000000000000
-0.31570149253731 0.13611940298507 1.78626865671642 0.31217339511947 0.83246238698522 0.45777084401964
-0.28923076923077 0.13491124260355 1.77041420118343 -0.00000000000000 -0.00000000000000 1.00000000000000
-0.26322580645161 0.13372434017595 1.75483870967742 0.00000000000000 0.00000000000000 1.00000000000000
-0.21629629629630 0.12063492063492 1.58306878306878 0.00000000000000 0.00000000000000 -1.00000000000000
-0.19617021276596 0.12127659574468 1.59148936170213 0.00000000000000 0.00000000000000 -1.00000000000000
-0.17489361702128 0.12127659574468 1.59148936170213 -0.00000000000000 0.00000000000000 -1.00000000000000
-0.15320954907162 0.12095490716180 1.58726790450928 -0.00000000000000 0.00000000000000 1.00000000000000
-0.13860724233983 0.12701949860724 1.66685236768802 -0.89869755802555 0.32679911200930 0.29248083627623
-0.14756183745583 0.16113074204947 2.11448763250883 0.96093946394511 0.17210856070659 0.21673483791119
-0.08884210526316 0.12000000000000 1.57473684210526 0.00000000000000 0.00000000000000 -1.00000000000000
-0.06743455497382 0.11937172774869 1.56649214659686 0.00000000000000 0.00000000000000 1.00000000000000
-0.04649214659686 0.11937172774869 1.56649214659686 -0.00000000000000 0.00000000000000 -1.00000000000000
-0.02575197889182 0.12031662269129 1.57889182058047 0.00000000000000 -0.00000000000000 -1.00000000000000
-0.00470588235294 0.12192513368984 1.60000000000000 0.00000000000000 0.00000000000000 1.00000000000000
0.01686486486486 0.12324324324324 1.61729729729730 0.00000000000000 0.00000000000000 1.00000000000000
0.03922865013774 0.12561983471074 1.64848484848485 -0.99322550802799 -0.03485001782554 0.11085380670096
0.06483965014577 0.13294460641399 1.74460641399417 -0.00000000000000 0.00000000000000 1.00000000000000
0.08790697674419 0.13255813953488 1.73953488372093 nan nan nan
0.11084057971014 0.13217391304348 1.73449275362319 0.00000000000000 -0.00000000000000 -1.00000000000000
0.13325648414986 0.13141210374640 1.72449567723343 0.00000000000000 0.00000000000000 -1.00000000000000
0.15631123919308 0.13141210374640 1.72449567723343 -0.84988154902560 -0.24282329972159 -0.46769455602793
0.17532394366197 0.12845070422535 1.68563380281690 -0.84923598786343 -0.24263885367527 -0.46896121759136
0.19403314917127 0.12596685082873 1.65303867403315 0.00000000000000 0.00000000000000 1.00000000000000
0.21145945945946 0.12324324324324 1.61729729729730 0.84858966662854 0.24245419046529 0.47022499212301
0.23245283018868 0.12291105121294 1.61293800539084 0.00000000000000 0.00000000000000 1.00000000000000
0.25539295392954 0.12357723577236 1.62168021680217 -0.00000000000000 0.00000000000000 -1.00000000000000
0.27934426229508 0.12459016393443 1.63497267759563 -0.00000000000000 0.00000000000000 -1.00000000000000
0.30369146005510 0.12561983471074 1.64848484848485 0.00000000000000 0.00000000000000 1.00000000000000
-0.30718100890208 0.13578635014837 1.77566765578635 0.00000000000000 -0.00000000000000 1.00000000000000
-0.28176991150442 0.13498525073746 1.76519174041298 -0.00000000000000 -0.00000000000000 -1.00000000000000
-0.25590643274854 0.13380116959064 1.74970760233918 0.85710783565480 0.24488795304423 -0.45320640828759
-0.21092838196286 0.12137931034483 1.58726790450928 0.00000000000000 0.00000000000000 -1.00000000000000
-0.19021276595745 0.12170212765957 1.59148936170213 nan nan nan
-0.16893617021277 0.12170212765957 1.59148936170213 nan nan nan
-0.14726790450928 0.12137931034483 1.58726790450928 0.00000000000000 0.00000000000000 1.00000000000000
-0.13310924369748 0.12817927170868 1.67619047619048 0.00000000000000 0.00000000000000 -1.00000000000000
-0.10768392370572 0.12468664850136 1.63051771117166 -0.96658579760264 -0.24842158349601 -0.06323458488989
-0.08208333333333 0.11916666666667 1.55833333333333 0.00000000000000 0.00000000000000 -1.00000000000000
-0.06189473684211 0.12042105263158 1.57473684210526 0.00000000000000 0.00000000000000 1.00000000000000
-0.04073490813648 0.12010498687664 1.57060367454068 -0.00000000000000 0.00000000000000 -1.00000000000000
-0.02005333333333 0.12202666666667 1.59573333333333 0.00000000000000 0.00000000000000 -1.00000000000000
0.00128342245989 0.12235294117647 1.60000000000000 0.00000000000000 0.00000000000000 1.00000000000000
0.02323287671233 0.12536986301370 1.63945205479452 0.00000000000000 -0.00000000000000 1.00000000000000
0.04818713450292 0.13380116959064 1.74970760233918 0.00000000000000 -0.00000000000000 -1.00000000000000
0.07137026239067 0.13341107871720 1.74460641399417 0.00000000000000 -0.00000000000000 -1.00000000000000
0.09441860465116 0.13302325581395 1.73953488372093 0.00000000000000 0.00000000000000 1.00000000000000
0.11699421965318 0.13225433526012 1.72947976878613 0.00000000000000 -0.00000000000000 -1.00000000000000
0.14011560693642 0.13225433526012 1.72947976878613 0.95685508014353 0.27338716575530 -0.09842668948917
0.16229885057471 0.13149425287356 1.71954022988506 0.46371452802350 -0.69557179203526 0.54877018744170
0.18061624649860 0.12817927170868 1.67619047619048 0.00000000000000 0.00000000000000 -1.00000000000000
0.19912087912088 0.12571428571429 1.64395604395604 -0.00000000000000 0.00000000000000 -1.00000000000000
0.21634408602151 0.12301075268817 1.60860215053763 0.89387192773948 -0.32504433735981 0.30877039292917
0.23913513513514 0.12367567567568 1.61729729729730 0.00000000000000 0.00000000000000 1.00000000000000
0.26288828337875 0.12468664850136 1.63051771117166 0.00000000000000 0.00000000000000 1.00000000000000
0.28624657534247 0.12536986301370 1.63945205479452 0.00000000000000 0.00000000000000 1.00000000000000
-0.32620895522388 0.13707462686567 1.78626865671642 0.00000000000000 -0.00000000000000 1.00000000000000
-0.29964497041420 0.13585798816568 1.77041420118343 0.00000000000000 -0.00000000000000 1.00000000000000
-0.27435294117647 0.13505882352941 1.76000000000000 0.31217339511946 0.83246238698522 0.45777084401965
-0.22501319261214 0.12116094986807 1.57889182058047 0.00000000000000 0.00000000000000 -1.00000000000000
-0.20498673740053 0.12180371352785 1.58726790450928 -0.00000000000000 0.00000000000000 -1.00000000000000
-0.18425531914894 0.12212765957447 1.59148936170213 -0.00000000000000 0.00000000000000 1.00000000000000
-0.16297872340426 0.12212765957447 1.59148936170213 0.00000000000000 -0.00000000000000 -1.00000000000000
-0.14095238095238 0.12148148148148 1.58306878306878 -0.00000000000000 0.00000000000000 -1.00000000000000
-0.12719101123596 0.12898876404494 1.68089887640449 0.00000000000000 0.00000000000000 1.00000000000000
-0.09994638069705 0.12310991957105 1.60428954423592 -0.95890316065767 -0.28181505103298 -0.03293942154931
-0.07746031746032 0.12148148148148 1.58306878306878 0.00000000000000 0.00000000000000 1.00000000000000
-0.05556135770235 0.11989556135770 1.56240208877285 0.00000000000000 0.00000000000000 -1.00000000000000
-0.03494736842105 0.12084210526316 1.57473684210526 0.00000000000000 0.00000000000000 -1.00000000000000
-0.01404255319149 0.12212765957447 1.59148936170213 0.00000000000000 -0.00000000000000 1.00000000000000
0.00731182795699 0.12344086021505 1.60860215053763 0.00000000000000 0.00000000000000 1.00000000000000
0.02928961748634 0.12546448087432 1.63497267759563 0.00000000000000 -0.00000000000000 1.00000000000000
0.05473684210526 0.13426900584795 1.74970760233918 -0.00000000000000 0.00000000000000 -1.00000000000000
0.07767441860465 0.13348837209302 1.73953488372093 0.00000000000000 0.00000000000000 -1.00000000000000
0.10063768115942 0.13310144927536 1.73449275362319 nan nan nan
0.12346820809249 0.13271676300578 1.72947976878613 0.00000000000000 -0.00000000000000 -1.00000000000000
0.14787172011662 0.13387755102041 1.74460641399417 -0.00000000000000 0.00000000000000 -1.00000000000000
0.16729344729345 0.13082621082621 1.70484330484330 0.00000000000000 0.00000000000000 1.00000000000000
0.18584958217270 0.12791086350975 1.66685236768802 0.84923598786343 0.24263885367527 0.46896121759136
0.20359673024523 0.12512261580381 1.63051771117166 0.00000000000000 0.00000000000000 -1.00000000000000
0.22296495956873 0.12377358490566 1.61293800539084 -0.45976590866878 0.68964886300316 -0.55946381025445
0.24518918918919 0.12410810810811 1.61729729729730 0.00000000000000 0.00000000000000 1.00000000000000
0.26899182561308 0.12512261580381 1.63051771117166 0.00000000000000 0.00000000000000 1.00000000000000
0.29318681318681 0.12615384615385 1.64395604395604 0.00000000000000 0.00000000000000 1.00000000000000
-0.31857142857143 0.13714285714286 1.78095238095238 0.00000000000000 -0.00000000000000 1.00000000000000
-0.29301775147929 0.13633136094675 1.77041420118343 nan nan nan
-0.26697947214076 0.13513196480938 1.75483870967742 0.00000000000000 0.00000000000000 1.00000000000000
-0.21968253968254 0.12190476190476 1.58306878306878 0.00000000000000 -0.00000000000000 1.00000000000000
-0.19904509283820 0.12222811671088 1.58726790450928 -0.00000000000000 0.00000000000000 -1.00000000000000
-0.17829787234043 0.12255319148936 1.59148936170213 -0.00000000000000 0.00000000000000 -1.00000000000000
-0.15660477453581 0.12222811671088 1.58726790450928 0.00000000000000 0.00000000000000 -1.00000000000000
-0.13467018469657 0.12158311345646 1.57889182058047 -0.00000000000000 0.00000000000000 -1.00000000000000
-0.12158192090395 0.13016949152542 1.69039548022599 -0.82374578913519 -0.23535593975291 0.51580079149325
-0.09269841269841 0.12190476190476 1.58306878306878 -0.00000000000000 -0.00000000000000 -1.00000000000000
-0.07115789473684 0.12126315789474 1.57473684210526 0.00000000000000 0.00000000000000 -1.00000000000000
-0.04984293193717 0.12062827225131 1.56649214659686 0.00000000000000 -0.00000000000000 1.00000000000000
-0.02912928759894 0.12158311345646 1.57889182058047 0.00000000000000 -0.00000000000000 1.00000000000000
-0.00812834224599 0.12320855614973 1.60000000000000 0.00000000000000 0.00000000000000 -1.00000000000000
0.01336927223720 0.12420485175202 1.61293800539084 -0.00000000000000 0.00000000000000 -1.00000000000000
0.03540983606557 0.12590163934426 1.63497267759563 -0.00000000000000 0.00000000000000 -1.00000000000000
0.06110787172012 0.13434402332362 1.74460641399417 0.00000000000000 -0.00000000000000 1.00000000000000
0.08418604651163 0.13395348837209 1.73953488372093 -0.00000000000000 0.00000000000000 1.00000000000000
0.10713043478261 0.13356521739130 1.73449275362319 0.00000000000000 -0.00000000000000 1.00000000000000
0.12994219653179 0.13317919075145 1.72947976878613 0.00000000000000 -0.00000000000000 -1.00000000000000
0.15668639053254 0.13633136094675 1.77041420118343 -0.64734389886558 -0.74542630778461 0.15901413856675
0.17318181818182 0.13090909090909 1.70000000000000 -0.55468432817835 0.83202649226752 -0.00756387720243
0.19102493074792 0.12764542936288 1.65761772853186 -0.89236336000733 0.32449576727539 -0.31367201140169
0.20856368563686 0.12487804878049 1.62168021680217 0.00000000000000 0.00000000000000 -1.00000000000000
