0.000000000000000000e+00 0.000000000000000000e+00 1.087982048296201510e-05
0.000000000000000000e+00 -0.000000000000000000e+00 1.075404326822096857e-05
-0.000000000000000000e+00 0.000000000000000000e+00 -1.069197099802856736e-05
-0.000000000000000000e+00 0.000000000000000000e+00 -1.044897959183679614e-05
0.000000000000000000e+00 0.000000000000000000e+00 9.987203895009435215e-06
-0.000000000000000000e+00 0.000000000000000000e+00 9.607806342653212403e-06
-0.000000000000000000e+00 0.000000000000000000e+00 -9.299554638516106345e-06
0.000000000000000000e+00 0.000000000000000000e+00 5.929230630780102373e-21
0.000000000000000000e+00 -0.000000000000000000e+00 0.000000000000000000e+00
-0.000000000000000000e+00 0.000000000000000000e+00 0.000000000000000000e+00
-0.000000000000000000e+00 0.000000000000000000e+00 1.323394092286033437e-05
0.000000000000000000e+00 0.000000000000000000e+00 -1.273771258545715835e-05
0.000000000000000000e+00 0.000000000000000000e+00 1.234520273137608076e-05
-1.887747778725907275e-05 -5.393565082074054061e-06 -2.528774430860145051e-06
-0.000000000000000000e+00 0.000000000000000000e+00 0.000000000000000000e+00
-0.000000000000000000e+00 0.000000000000000000e+00 4.743384504624081899e-20
0.000000000000000000e+00 0.000000000000000000e+00 -9.005903088039758682e-06
-0.000000000000000000e+00 0.000000000000000000e+00 -8.958315836622649379e-06
0.000000000000000000e+00 0.000000000000000000e+00 -1.009973488195934174e-05
5.607358110823468245e-19 1.753358200816401702e-19 1.948175778684890780e-20
-0.000000000000000000e+00 -0.000000000000000000e+00 5.929230630780102373e-21
0.000000000000000000e+00 0.000000000000000000e+00 -8.817795413368590486e-06
0.000000000000000000e+00 0.000000000000000000e+00 -8.864265927977834898e-06
-1.257455334038586628e-05 -3.592729525824536369e-06 9.026492777917173468e-06
0.000000000000000000e+00 0.000000000000000000e+00 -9.249624234015497266e-06
0.000000000000000000e+00 -0.000000000000000000e+00 9.660669001328356760e-06
0.000000000000000000e+00 -0.000000000000000000e+00 -3.896351557369781560e-20
-0.000000000000000000e+00 0.000000000000000000e+00 -1.094353818268873534e-05
-0.000000000000000000e+00 0.000000000000000000e+00 2.541098841762901017e-20
-0.000000000000000000e+00 0.000000000000000000e+00 2.625802136488331051e-20
0.000000000000000000e+00 0.000000000000000000e+00 -1.069197099802856736e-05
-0.000000000000000000e+00 0.000000000000000000e+00 -1.033057851239669498e-05
0.000000000000000000e+00 0.000000000000000000e+00 9.931642367765610181e-06
-0.000000000000000000e+00 0.000000000000000000e+00 -9.555376392248150099e-06
-0.000000000000000000e+00 0.000000000000000000e+00 -1.778769189234030712e-20
0.000000000000000000e+00 -0.000000000000000000e+00 2.964615315390051187e-20
0.000000000000000000e+00 -0.000000000000000000e+00 9.503374440377416668e-06
-0.000000000000000000e+00 0.000000000000000000e+00 0.000000000000000000e+00
0.000000000000000000e+00 0.000000000000000000e+00 -1.306535740897628505e-05
0.000000000000000000e+00 0.000000000000000000e+00 7.199780051661552882e-21
0.000000000000000000e+00 0.000000000000000000e+00 1.219326322206969006e-05
-0.000000000000000000e+00 -0.000000000000000000e+00 -7.623296525288703052e-20
0.000000000000000000e+00 -0.000000000000000000e+00 -1.778769189234030712e-20
-0.000000000000000000e+00 0.000000000000000000e+00 0.000000000000000000e+00
0.000000000000000000e+00 -0.000000000000000000e+00 -1.778769189234030712e-20
0.000000000000000000e+00 0.000000000000000000e+00 8.911104768137201172e-06
0.000000000000000000e+00 0.000000000000000000e+00 -3.769296615281636509e-20
-1.305418665479900233e-05 -3.729767615656892053e-06 -6.517120686715423199e-07
0.000000000000000000e+00 0.000000000000000000e+00 -8.958315836622732388e-06
0.000000000000000000e+00 0.000000000000000000e+00 -8.771689372550104069e-06
0.000000000000000000e+00 0.000000000000000000e+00 -8.911104768137229971e-06
0.000000000000000000e+00 0.000000000000000000e+00 -9.102222222222221848e-06
1.330317031288698733e-05 3.800905803681991842e-06 9.150121765628410286e-06
0.000000000000000000e+00 0.000000000000000000e+00 -9.607806342653397056e-06
0.000000000000000000e+00 -0.000000000000000000e+00 1.094353818268869807e-05
-0.000000000000000000e+00 0.000000000000000000e+00 -1.948175778684890780e-20
-0.000000000000000000e+00 0.000000000000000000e+00 5.929230630780102373e-21
-0.000000000000000000e+00 0.000000000000000000e+00 5.166900978251232068e-20
-0.000000000000000000e+00 0.000000000000000000e+00 1.056942792971347614e-05
0.000000000000000000e+00 0.000000000000000000e+00 -1.015671493751238883e-05
-0.000000000000000000e+00 0.000000000000000000e+00 -9.821901305238667527e-06
-0.000000000000000000e+00 0.000000000000000000e+00 -9.451795841209823957e-06
0.000000000000000000e+00 0.000000000000000000e+00 -9.249624234015392234e-06
0.000000000000000000e+00 -0.000000000000000000e+00 9.400636011780142456e-06
0.000000000000000000e+00 -0.000000000000000000e+00 9.555376392248070478e-06
0.000000000000000000e+00 -0.000000000000000000e+00 9.713969142969841456e-06
0.000000000000000000e+00 0.000000000000000000e+00 1.298227108604854232e-05
0.000000000000000000e+00 -0.000000000000000000e+00 1.250000000000002262e-05
0.000000000000000000e+00 0.000000000000000000e+00 -1.838061495541831736e-19
0.000000000000000000e+00 -0.000000000000000000e+00 8.958315836622725612e-06
5.389094288736837588e-06 1.437091810329823357e-05 -8.812273878382784989e-06
0.000000000000000000e+00 -0.000000000000000000e+00 -1.778769189234030712e-20
-0.000000000000000000e+00 0.000000000000000000e+00 -9.005903088039711248e-06
7.312360617290529843e-05 7.499857043374964650e-06 1.500923930625683762e-05
-0.000000000000000000e+00 0.000000000000000000e+00 -1.021417855660897445e-05
0.000000000000000000e+00 0.000000000000000000e+00 -7.665648172651418069e-20
0.000000000000000000e+00 0.000000000000000000e+00 1.185846126156020475e-20
0.000000000000000000e+00 0.000000000000000000e+00 8.771689372550078658e-06
0.000000000000000000e+00 -0.000000000000000000e+00 8.958315836622706977e-06
-0.000000000000000000e+00 0.000000000000000000e+00 -9.102222222222232012e-06
0.000000000000000000e+00 -0.000000000000000000e+00 9.400636011780169561e-06
0.000000000000000000e+00 0.000000000000000000e+00 9.607806342653386891e-06
-0.000000000000000000e+00 0.000000000000000000e+00 4.573977915173221831e-20
-0.000000000000000000e+00 0.000000000000000000e+00 4.573977915173221831e-20
0.000000000000000000e+00 0.000000000000000000e+00 -1.075404326822092452e-05
0.000000000000000000e+00 -0.000000000000000000e+00 5.166900978251232068e-20
0.000000000000000000e+00 0.000000000000000000e+00 -1.044897959183679614e-05
0.000000000000000000e+00 0.000000000000000000e+00 -1.004323297946642984e-05
-0.000000000000000000e+00 0.000000000000000000e+00 -9.713969142969938018e-06
-1.319569441955965744e-05 -3.770198405588603151e-06 -7.463279116517249378e-06
0.000000000000000000e+00 0.000000000000000000e+00 9.249624234015566722e-06
0.000000000000000000e+00 0.000000000000000000e+00 -9.451795841209823957e-06
0.000000000000000000e+00 0.000000000000000000e+00 -9.607806342653429243e-06
-3.042196237925767787e-05 -8.691989251216237383e-06 -5.353475197908412547e-06
0.000000000000000000e+00 0.000000000000000000e+00 -1.281845858035556861e-05
0.000000000000000000e+00 0.000000000000000000e+00 1.242223969099667236e-05
0.000000000000000000e+00 0.000000000000000000e+00 -1.189767995240911156e-05
-0.000000000000000000e+00 0.000000000000000000e+00 -8.958315836622708671e-06
0.000000000000000000e+00 -0.000000000000000000e+00 2.964615315390051187e-20
0.000000000000000000e+00 -0.000000000000000000e+00 -1.778769189234030712e-20
-0.000000000000000000e+00 0.000000000000000000e+00 2.964615315390051187e-20
0.000000000000000000e+00 0.000000000000000000e+00 -1.004323297946634344e-05
2.320870275476782929e-19 6.945670167485262780e-20 1.058791184067875424e-20
-0.000000000000000000e+00 -0.000000000000000000e+00 4.701032857261366882e-20
0.000000000000000000e+00 0.000000000000000000e+00 -8.771689372550148115e-06
0.000000000000000000e+00 -0.000000000000000000e+00 0.000000000000000000e+00
-0.000000000000000000e+00 0.000000000000000000e+00 -8.958315836622723918e-06
0.000000000000000000e+00 -0.000000000000000000e+00 -1.694065894508600678e-20
-0.000000000000000000e+00 0.000000000000000000e+00 -9.451795841209825652e-06
0.000000000000000000e+00 -0.000000000000000000e+00 -1.948175778684890780e-20
-0.000000000000000000e+00 0.000000000000000000e+00 3.218725199566341288e-20
0.000000000000000000e+00 -0.000000000000000000e+00 1.081665765278530737e-05
-0.000000000000000000e+00 0.000000000000000000e+00 0.000000000000000000e+00
0.000000000000000000e+00 0.000000000000000000e+00 -1.075404326822082627e-05
0.000000000000000000e+00 0.000000000000000000e+00 1.038952605904177142e-05
0.000000000000000000e+00 0.000000000000000000e+00 -9.931642367765610181e-06
0.000000000000000000e+00 0.000000000000000000e+00 -9.555376392248294095e-06
-1.298419101589984740e-05 -3.709768861685533890e-06 -7.343656087563907250e-06
0.000000000000000000e+00 -0.000000000000000000e+00 9.349890430971519956e-06
-0.000000000000000000e+00 0.000000000000000000e+00 -9.451795841209805323e-06
-0.000000000000000000e+00 0.000000000000000000e+00 -9.607806342653429243e-06
0.000000000000000000e+00 0.000000000000000000e+00 -1.314924391847438133e-05
0.000000000000000000e+00 0.000000000000000000e+00 1.273771258545715835e-05
-0.000000000000000000e+00 -0.000000000000000000e+00 7.199780051661552882e-21
2.755150116643702556e-04 1.721968822902265309e-05 3.828848323865176794e-05
-0.000000000000000000e+00 0.000000000000000000e+00 -1.778769189234030712e-20
0.000000000000000000e+00 -0.000000000000000000e+00 4.743384504624081899e-20
-0.000000000000000000e+00 0.000000000000000000e+00 -1.778769189234030712e-20
0.000000000000000000e+00 0.000000000000000000e+00 -8.911104768137253688e-06
0.000000000000000000e+00 0.000000000000000000e+00 1.009973488195937901e-05
-1.337547015154358840e-05 -3.821562900440998877e-06 -6.932969058688151311e-07
0.000000000000000000e+00 0.000000000000000000e+00 5.505714157152952204e-21
0.000000000000000000e+00 0.000000000000000000e+00 8.817795413368590486e-06
0.000000000000000000e+00 -0.000000000000000000e+00 -3.472835083742631390e-20
0.000000000000000000e+00 0.000000000000000000e+00 1.101142831430590441e-20
0.000000000000000000e+00 0.000000000000000000e+00 9.249624234015482019e-06
-0.000000000000000000e+00 0.000000000000000000e+00 -9.660669001328338126e-06
-0.000000000000000000e+00 0.000000000000000000e+00 -1.100781727023328479e-05
0.000000000000000000e+00 0.000000000000000000e+00 -1.087982048296206592e-05
0.000000000000000000e+00 -0.000000000000000000e+00 4.489274620447791797e-20
0.000000000000000000e+00 -0.000000000000000000e+00 2.625802136488331051e-20
-0.000000000000000000e+00 0.000000000000000000e+00 -1.069197099802856736e-05
0.000000000000000000e+00 0.000000000000000000e+00 1.027213122647636017e-05
0.000000000000000000e+00 0.000000000000000000e+00 9.876543209876567024e-06
0.000000000000000000e+00 0.000000000000000000e+00 9.503374440377531865e-06
-0.000000000000000000e+00 0.000000000000000000e+00 -9.200094875978426768e-06
-0.000000000000000000e+00 0.000000000000000000e+00 -9.349890430971453888e-06
-0.000000000000000000e+00 0.000000000000000000e+00 -9.503374440377355682e-06
0.000000000000000000e+00 0.000000000000000000e+00 9.660669001328395724e-06
0.000000000000000000e+00 0.000000000000000000e+00 1.306535740897639855e-05
0.000000000000000000e+00 0.000000000000000000e+00 -1.948175778684890780e-19
0.000000000000000000e+00 0.000000000000000000e+00 -1.914294460794718766e-19
0.000000000000000000e+00 0.000000000000000000e+00 -8.958315836622725612e-06
-0.000000000000000000e+00 0.000000000000000000e+00 0.000000000000000000e+00
-0.000000000000000000e+00 0.000000000000000000e+00 6.522153693858112611e-20
-0.000000000000000000e+00 0.000000000000000000e+00 0.000000000000000000e+00
0.000000000000000000e+00 0.000000000000000000e+00 5.929230630780102373e-21
0.000000000000000000e+00 0.000000000000000000e+00 -1.021417855660889144e-05
-1.284569396854540942e-05 -3.670198276727251605e-06 -6.167699510489946265e-07
0.000000000000000000e+00 0.000000000000000000e+00 8.958315836622730694e-06
0.000000000000000000e+00 -0.000000000000000000e+00 -5.929230630780102373e-21
0.000000000000000000e+00 0.000000000000000000e+00 8.911104768137213030e-06
-0.000000000000000000e+00 0.000000000000000000e+00 8.470329472543003391e-22
-0.000000000000000000e+00 -0.000000000000000000e+00 -4.658681209898651865e-21
0.000000000000000000e+00 -0.000000000000000000e+00 3.049318610115481221e-20
0.000000000000000000e+00 -0.000000000000000000e+00 1.355252715606880543e-20
-0.000000000000000000e+00 0.000000000000000000e+00 4.573977915173221831e-20
0.000000000000000000e+00 -0.000000000000000000e+00 5.929230630780102373e-21
-0.000000000000000000e+00 0.000000000000000000e+00 -1.075404326822102617e-05
0.000000000000000000e+00 0.000000000000000000e+00 -1.050894491835049628e-05
-0.000000000000000000e+00 0.000000000000000000e+00 -1.015671493751243965e-05
0.000000000000000000e+00 0.000000000000000000e+00 9.767711608314930512e-06
0.000000000000000000e+00 0.000000000000000000e+00 -7.835054762102278136e-20
-0.000000000000000000e+00 0.000000000000000000e+00 -1.863472483959460746e-20
-0.000000000000000000e+00 0.000000000000000000e+00 -9.400636011780237324e-06
-0.000000000000000000e+00 0.000000000000000000e+00 -9.555376392248070478e-06
-0.000000000000000000e+00 0.000000000000000000e+00 -9.713969142969841456e-06
-0.000000000000000000e+00 -0.000000000000000000e+00 -2.113347203399479346e-19
-0.000000000000000000e+00 0.000000000000000000e+00 -1.250000000000000229e-05
0.000000000000000000e+00 -0.000000000000000000e+00 1.197055990423553660e-05
0.000000000000000000e+00 -0.000000000000000000e+00 4.658681209898651865e-20
0.000000000000000000e+00 0.000000000000000000e+00 9.005903088039758682e-06
-0.000000000000000000e+00 0.000000000000000000e+00 -1.778769189234030712e-20
0.000000000000000000e+00 0.000000000000000000e+00 -8.958315836622708671e-06
0.000000000000000000e+00 -0.000000000000000000e+00 9.987203895009535165e-06
1.562862081410125101e-04 -5.683134841491475626e-05 -4.896385359089809732e-05
0.000000000000000000e+00 0.000000000000000000e+00 5.929230630780102373e-21
1.224625234799312580e-05 3.498929242283807767e-06 9.265145922715453111e-06
0.000000000000000000e+00 0.000000000000000000e+00 -8.817795413368620979e-06
0.000000000000000000e+00 -0.000000000000000000e+00 5.082197683525802034e-21
0.000000000000000000e+00 0.000000000000000000e+00 -9.200094875978413216e-06
-0.000000000000000000e+00 0.000000000000000000e+00 -9.400636011780162785e-06
-2.663891779396447627e-05 9.686879197805259170e-06 -1.059405284460515884e-05
0.000000000000000000e+00 -0.000000000000000000e+00 6.522153693858112611e-20
-0.000000000000000000e+00 0.000000000000000000e+00 -1.087982048296205915e-05
-0.000000000000000000e+00 0.000000000000000000e+00 3.218725199566341288e-20
-0.000000000000000000e+00 0.000000000000000000e+00 3.218725199566341288e-20
0.000000000000000000e+00 0.000000000000000000e+00 1.044897959183679614e-05
-0.000000000000000000e+00 0.000000000000000000e+00 -1.004323297946642984e-05
0.000000000000000000e+00 0.000000000000000000e+00 9.660669001328475345e-06
0.000000000000000000e+00 0.000000000000000000e+00 -8.978549240895583594e-20
-0.000000000000000000e+00 -0.000000000000000000e+00 5.929230630780102373e-21
0.000000000000000000e+00 -0.000000000000000000e+00 -1.863472483959460746e-20
-0.000000000000000000e+00 0.000000000000000000e+00 0.000000000000000000e+00
1.612145457736711756e-04 0.000000000000000000e+00 4.284686056123768346e-05
-0.000000000000000000e+00 0.000000000000000000e+00 -1.281845858035565840e-05
-2.013691012507327560e-05 -5.753402892878056115e-06 -2.966694513078875930e-06
-0.000000000000000000e+00 0.000000000000000000e+00 -1.189767995240898281e-05
0.000000000000000000e+00 -0.000000000000000000e+00 9.005903088039716331e-06
-0.000000000000000000e+00 0.000000000000000000e+00 1.185846126156020475e-20
-0.000000000000000000e+00 0.000000000000000000e+00 -9.053870529651463173e-06
0.000000000000000000e+00 -0.000000000000000000e+00 2.964615315390051187e-20
-0.000000000000000000e+00 0.000000000000000000e+00 -1.004323297946636207e-05
-1.374493825413443637e-05 -3.927125215466928336e-06 -7.386985532302828035e-07
-1.205474161539947921e-05 -3.444211890114128930e-06 -4.867021347393748967e-07
-0.000000000000000000e+00 0.000000000000000000e+00 -8.771689372550124398e-06
-0.000000000000000000e+00 0.000000000000000000e+00 -8.817795413368607427e-06
1.257455334038586628e-05 3.592729525824536369e-06 3.362180037546712416e-09
-0.000000000000000000e+00 0.000000000000000000e+00 -9.200094875978396275e-06
0.000000000000000000e+00 0.000000000000000000e+00 -9.660669001328351678e-06
0.000000000000000000e+00 -0.000000000000000000e+00 -1.948175778684890780e-20
0.000000000000000000e+00 0.000000000000000000e+00 1.094353818268873534e-05
0.000000000000000000e+00 -0.000000000000000000e+00 2.541098841762901017e-20
0.000000000000000000e+00 -0.000000000000000000e+00 7.030373462210692814e-20
-0.000000000000000000e+00 0.000000000000000000e+00 -1.075404326822077545e-05
-0.000000000000000000e+00 -0.000000000000000000e+00 -8.216219588366713289e-20
-0.000000000000000000e+00 0.000000000000000000e+00 -9.931642367765610181e-06
0.000000000000000000e+00 0.000000000000000000e+00 9.555376392248228026e-06
0.000000000000000000e+00 -0.000000000000000000e+00 9.200094875978401357e-06
0.000000000000000000e+00 -0.000000000000000000e+00 6.606856988583542645e-20
0.000000000000000000e+00 -0.000000000000000000e+00 9.503374440377597933e-06
-0.000000000000000000e+00 -0.000000000000000000e+00 -1.643243917673342658e-19
-0.000000000000000000e+00 0.000000000000000000e+00 -1.314924391847449483e-05
-0.000000000000000000e+00 -0.000000000000000000e+00 7.199780051661552882e-21
-0.000000000000000000e+00 -0.000000000000000000e+00 -1.850766989750646241e-19
0.000000000000000000e+00 -0.000000000000000000e+00 8.911104768137148655e-06
0.000000000000000000e+00 -0.000000000000000000e+00 -1.778769189234030712e-20
0.000000000000000000e+00 -0.000000000000000000e+00 -1.778769189234030712e-20
0.000000000000000000e+00 -0.000000000000000000e+00 -1.778769189234030712e-20
-0.000000000000000000e+00 0.000000000000000000e+00 -8.911104768137236747e-06
0.000000000000000000e+00 0.000000000000000000e+00 -1.015671493751237697e-05
-1.308937314173912208e-05 -3.739820897639723392e-06 -6.534687049752815157e-07
-1.960332555777471693e-05 7.128482021009014465e-06 -1.010710107938676326e-05
0.000000000000000000e+00 -0.000000000000000000e+00 8.771689372550098987e-06
-0.000000000000000000e+00 0.000000000000000000e+00 -8.864265927977834898e-06
0.000000000000000000e+00 -0.000000000000000000e+00 9.102222222222213378e-06
0.000000000000000000e+00 -0.000000000000000000e+00 9.349890430971508098e-06
0.000000000000000000e+00 -0.000000000000000000e+00 9.607806342653386891e-06
0.000000000000000000e+00 0.000000000000000000e+00 -1.094353818268867605e-05
0.000000000000000000e+00 -0.000000000000000000e+00 6.776263578034402713e-21
0.000000000000000000e+00 -0.000000000000000000e+00 -1.948175778684890780e-20
-0.000000000000000000e+00 0.000000000000000000e+00 1.270549420881450509e-20
0.000000000000000000e+00 0.000000000000000000e+00 1.063043460206472078e-05
0.000000000000000000e+00 0.000000000000000000e+00 1.021417855660883045e-05
0.000000000000000000e+00 0.000000000000000000e+00 -1.842296660278103237e-19
-0.000000000000000000e+00 -0.000000000000000000e+00 -7.835054762102278136e-20
0.000000000000000000e+00 -0.000000000000000000e+00 9.249624234015446444e-06
0.000000000000000000e+00 0.000000000000000000e+00 -9.400636011779973049e-06
0.000000000000000000e+00 0.000000000000000000e+00 -9.555376392248070478e-06
0.000000000000000000e+00 -0.000000000000000000e+00 9.713969142969841456e-06
0.000000000000000000e+00 0.000000000000000000e+00 1.397604362969595559e-20
0.000000000000000000e+00 0.000000000000000000e+00 -1.250000000000001415e-05
-0.000000000000000000e+00 -0.000000000000000000e+00 -3.815883427380623028e-19
0.000000000000000000e+00 -0.000000000000000000e+00 4.658681209898651865e-20
0.000000000000000000e+00 -0.000000000000000000e+00 0.000000000000000000e+00
0.000000000000000000e+00 -0.000000000000000000e+00 6.522153693858112611e-20
0.000000000000000000e+00 -0.000000000000000000e+00 0.000000000000000000e+00
-7.726112219678271274e-05 1.158916832951744486e-04 -1.012451229642871736e-04
-0.000000000000000000e+00 0.000000000000000000e+00 -1.021417855660889821e-05
-1.264161762486804931e-05 -3.611890749962266164e-06 -5.828278255621242932e-07
-0.000000000000000000e+00 -0.000000000000000000e+00 -2.922263668027336170e-20
-0.000000000000000000e+00 0.000000000000000000e+00 -8.771689372550078658e-06
0.000000000000000000e+00 0.000000000000000000e+00 -8.958315836622717142e-06
-0.000000000000000000e+00 0.000000000000000000e+00 -9.102222222222203213e-06
0.000000000000000000e+00 0.000000000000000000e+00 -9.400636011780179725e-06
-0.000000000000000000e+00 0.000000000000000000e+00 -9.607806342653393668e-06
0.000000000000000000e+00 -0.000000000000000000e+00 -1.948175778684890780e-20
0.000000000000000000e+00 -0.000000000000000000e+00 2.625802136488331051e-20
-0.000000000000000000e+00 0.000000000000000000e+00 -1.081665765278523791e-05
0.000000000000000000e+00 -0.000000000000000000e+00 1.069197099802874693e-05
-0.000000000000000000e+00 0.000000000000000000e+00 -1.050894491835054710e-05
0.000000000000000000e+00 0.000000000000000000e+00 1.009973488195940950e-05
0.000000000000000000e+00 0.000000000000000000e+00 0.000000000000000000e+00
0.000000000000000000e+00 0.000000000000000000e+00 -8.385626177817573357e-20
0.000000000000000000e+00 0.000000000000000000e+00 9.249624234015493878e-06
0.000000000000000000e+00 -0.000000000000000000e+00 9.451795841209823957e-06
0.000000000000000000e+00 0.000000000000000000e+00 -9.607806342653442796e-06
-0.000000000000000000e+00 0.000000000000000000e+00 1.632653061224446299e-05
0.000000000000000000e+00 -0.000000000000000000e+00 1.281845858035552626e-05
0.000000000000000000e+00 -0.000000000000000000e+00 1.242223969099690106e-05
-0.000000000000000000e+00 0.000000000000000000e+00 -1.197055990423557726e-05
-0.000000000000000000e+00 0.000000000000000000e+00 -8.958315836622708671e-06
0.000000000000000000e+00 0.000000000000000000e+00 -9.053870529651451314e-06
0.000000000000000000e+00 -0.000000000000000000e+00 0.000000000000000000e+00
-0.000000000000000000e+00 0.000000000000000000e+00 2.964615315390051187e-20
-0.000000000000000000e+00 0.000000000000000000e+00 -9.987203895009535165e-06
-1.050320854595332420e-19 7.707999820014133086e-20 -8.216219588366713289e-20
1.218196755876388550e-05 3.480562159646758601e-06 9.356104725136472436e-06
0.000000000000000000e+00 0.000000000000000000e+00 -8.771689372550136256e-06
0.000000000000000000e+00 -0.000000000000000000e+00 2.879912020664621153e-20
-0.000000000000000000e+00 0.000000000000000000e+00 -8.958315836622708671e-06
-0.000000000000000000e+00 0.000000000000000000e+00 0.000000000000000000e+00
-0.000000000000000000e+00 -0.000000000000000000e+00 1.651714247145885661e-20
0.000000000000000000e+00 0.000000000000000000e+00 -1.100781727023331189e-05
0.000000000000000000e+00 -0.000000000000000000e+00 -3.896351557369781560e-20
0.000000000000000000e+00 -0.000000000000000000e+00 1.081665765278526332e-05
0.000000000000000000e+00 -0.000000000000000000e+00 3.218725199566341288e-20
-0.000000000000000000e+00 0.000000000000000000e+00 -1.069197099802864529e-05
0.000000000000000000e+00 0.000000000000000000e+00 -8.893845946170153560e-20
0.000000000000000000e+00 0.000000000000000000e+00 9.987203895009672385e-06
0.000000000000000000e+00 0.000000000000000000e+00 9.607806342653358092e-06
-0.000000000000000000e+00 -0.000000000000000000e+00 -8.343274530454858340e-20
0.000000000000000000e+00 0.000000000000000000e+00 -9.349890430971440335e-06
0.000000000000000000e+00 0.000000000000000000e+00 9.451795841209798546e-06
0.000000000000000000e+00 0.000000000000000000e+00 9.607806342653429243e-06
0.000000000000000000e+00 0.000000000000000000e+00 1.323394092286063422e-05
0.000000000000000000e+00 0.000000000000000000e+00 -1.960881272893705285e-19
-0.000000000000000000e+00 -0.000000000000000000e+00 0.000000000000000000e+00
1.451629789461583253e-04 5.093437857760007739e-06 3.177065910822330421e-05
0.000000000000000000e+00 -0.000000000000000000e+00 -1.778769189234030712e-20
0.000000000000000000e+00 -0.000000000000000000e+00 -1.778769189234030712e-20
0.000000000000000000e+00 0.000000000000000000e+00 -9.005903088039728189e-06
-0.000000000000000000e+00 0.000000000000000000e+00 -8.958315836622708671e-06
0.000000000000000000e+00 0.000000000000000000e+00 -9.359714067160018747e-20
-1.341181653782493663e-05 -3.831947582235634953e-06 -6.951808648521784270e-07
-1.186720336524467128e-05 -3.390629532927073078e-06 -4.564657673338883253e-07
0.000000000000000000e+00 -0.000000000000000000e+00 -8.817795413368590486e-06
0.000000000000000000e+00 -0.000000000000000000e+00 8.864265927977845063e-06
0.000000000000000000e+00 0.000000000000000000e+00 -5.082197683525802034e-21
0.000000000000000000e+00 0.000000000000000000e+00 1.736417541871315695e-20
0.000000000000000000e+00 0.000000000000000000e+00 9.660669001328333044e-06
0.000000000000000000e+00 0.000000000000000000e+00 1.100781727023328479e-05
0.000000000000000000e+00 0.000000000000000000e+00 -1.087982048296200832e-05
0.000000000000000000e+00 -0.000000000000000000e+00 4.573977915173221831e-20
-0.000000000000000000e+00 0.000000000000000000e+00 9.656175598699023865e-20
0.000000000000000000e+00 0.000000000000000000e+00 -9.020900888258298611e-20
-0.000000000000000000e+00 -0.000000000000000000e+00 6.352747104407252543e-21
-0.000000000000000000e+00 -0.000000000000000000e+00 -8.004461351553138204e-20
0.000000000000000000e+00 0.000000000000000000e+00 -7.242131699024267899e-20
0.000000000000000000e+00 0.000000000000000000e+00 9.200094875978421686e-06
-0.000000000000000000e+00 0.000000000000000000e+00 -9.349890430971440335e-06
0.000000000000000000e+00 0.000000000000000000e+00 9.503374440377536947e-06
0.000000000000000000e+00 0.000000000000000000e+00 -9.713969142970010863e-06
0.000000000000000000e+00 0.000000000000000000e+00 -1.986292261311334295e-19
-0.000000000000000000e+00 -0.000000000000000000e+00 -3.968349357886397089e-19
-0.000000000000000000e+00 -0.000000000000000000e+00 -1.914294460794718766e-19
-0.000000000000000000e+00 0.000000000000000000e+00 -8.911104768137101222e-06
-0.000000000000000000e+00 0.000000000000000000e+00 0.000000000000000000e+00
-0.000000000000000000e+00 0.000000000000000000e+00 -1.778769189234030712e-20
0.000000000000000000e+00 -0.000000000000000000e+00 0.000000000000000000e+00
0.000000000000000000e+00 0.000000000000000000e+00 -8.864265927977824734e-06
-0.000000000000000000e+00 0.000000000000000000e+00 -1.015671493751240238e-05
-1.288013282636989505e-05 -3.680037950391372994e-06 -6.184234897917643174e-07
0.000000000000000000e+00 -0.000000000000000000e+00 -8.958315836622759493e-06
0.000000000000000000e+00 -0.000000000000000000e+00 1.185846126156020475e-20
0.000000000000000000e+00 0.000000000000000000e+00 1.694065894508600678e-21
-0.000000000000000000e+00 0.000000000000000000e+00 3.388131789017201356e-21
-0.000000000000000000e+00 0.000000000000000000e+00 -1.524659305057740610e-20
-0.000000000000000000e+00 0.000000000000000000e+00 1.185846126156020475e-20
0.000000000000000000e+00 -0.000000000000000000e+00 0.000000000000000000e+00
0.000000000000000000e+00 -0.000000000000000000e+00 0.000000000000000000e+00
-0.000000000000000000e+00 0.000000000000000000e+00 2.541098841762901017e-20
-0.000000000000000000e+00 0.000000000000000000e+00 -1.075404326822105158e-05
0.000000000000000000e+00 0.000000000000000000e+00 1.056942792971333553e-05
0.000000000000000000e+00 0.000000000000000000e+00 -8.131516293641283255e-20
-0.000000000000000000e+00 -0.000000000000000000e+00 0.000000000000000000e+00
-0.000000000000000000e+00 -0.000000000000000000e+00 -1.626303258728256651e-19
-0.000000000000000000e+00 0.000000000000000000e+00 -9.249624234015429503e-06
0.000000000000000000e+00 0.000000000000000000e+00 9.400636011780069611e-06
0.000000000000000000e+00 -0.000000000000000000e+00 0.000000000000000000e+00
-0.000000000000000000e+00 0.000000000000000000e+00 -1.778769189234030712e-20
-0.000000000000000000e+00 0.000000000000000000e+00 1.289997480473661863e-05
-0.000000000000000000e+00 0.000000000000000000e+00 -1.249999999999999382e-05
0.000000000000000000e+00 0.000000000000000000e+00 -1.197055990423555015e-05
-0.000000000000000000e+00 0.000000000000000000e+00 -1.694065894508600678e-20
-0.000000000000000000e+00 0.000000000000000000e+00 -9.005903088039711248e-06
0.000000000000000000e+00 -0.000000000000000000e+00 0.000000000000000000e+00
-0.000000000000000000e+00 0.000000000000000000e+00 -9.005903088039758682e-06
0.000000000000000000e+00 0.000000000000000000e+00 -9.987203895009535165e-06
2.358284686814933202e-04 -4.491970832028414830e-05 2.774752838153415785e-05
1.237618515054256855e-05 3.536052900155019464e-06 9.481632756471835270e-06
0.000000000000000000e+00 0.000000000000000000e+00 -8.173867941003998272e-20
0.000000000000000000e+00 0.000000000000000000e+00 -8.817795413368651473e-06
0.000000000000000000e+00 -0.000000000000000000e+00 2.879912020664621153e-20
0.000000000000000000e+00 -0.000000000000000000e+00 9.200094875978391193e-06
0.000000000000000000e+00 0.000000000000000000e+00 9.400636011780172949e-06
-6.350532295829588135e-03 -2.072434781855808075e-04 2.872396190871998587e-04
-0.000000000000000000e+00 0.000000000000000000e+00 -3.896351557369781560e-20
0.000000000000000000e+00 0.000000000000000000e+00 1.087982048296201510e-05
0.000000000000000000e+00 -0.000000000000000000e+00 1.075404326822096179e-05
0.000000000000000000e+00 -0.000000000000000000e+00 1.024909866177703410e-19
0.000000000000000000e+00 0.000000000000000000e+00 1.016439536705160407e-19
-0.000000000000000000e+00 -0.000000000000000000e+00 1.270549420881450509e-20
0.000000000000000000e+00 0.000000000000000000e+00 -7.919758056827708170e-20
-0.000000000000000000e+00 -0.000000000000000000e+00 -7.750351467376848102e-20
0.000000000000000000e+00 -0.000000000000000000e+00 9.299554638516135144e-06
0.000000000000000000e+00 -0.000000000000000000e+00 -1.863472483959460746e-20
-0.000000000000000000e+00 0.000000000000000000e+00 -3.642241673193491458e-20
-1.504732368738400760e-04 6.998755203432795760e-06 -4.200469483258923109e-05
-0.000000000000000000e+00 0.000000000000000000e+00 -1.281845858035554659e-05
-0.000000000000000000e+00 0.000000000000000000e+00 -1.242223969099699084e-05
-0.000000000000000000e+00 -0.000000000000000000e+00 -1.761828530288944705e-19
0.000000000000000000e+00 0.000000000000000000e+00 -9.005903088039716331e-06
-0.000000000000000000e+00 0.000000000000000000e+00 0.000000000000000000e+00
-0.000000000000000000e+00 0.000000000000000000e+00 4.743384504624081899e-20
0.000000000000000000e+00 -0.000000000000000000e+00 2.964615315390051187e-20
0.000000000000000000e+00 0.000000000000000000e+00 -8.682087709356578475e-20
-1.382045989289405244e-05 -3.948702826541104839e-06 -7.427573364898333694e-07
1.214999389063061709e-05 3.471426825894510971e-06 9.331548019821172348e-06
0.000000000000000000e+00 0.000000000000000000e+00 8.771689372550119316e-06
-0.000000000000000000e+00 0.000000000000000000e+00 -8.817795413368607427e-06
1.254119908749362291e-05 3.583199739283890144e-06 3.353261788106993416e-09
-0.000000000000000000e+00 0.000000000000000000e+00 -9.200094875978394581e-06
0.000000000000000000e+00 -0.000000000000000000e+00 9.660669001328322879e-06
0.000000000000000000e+00 -0.000000000000000000e+00 -3.896351557369781560e-20
0.000000000000000000e+00 0.000000000000000000e+00 1.094353818268868282e-05
-0.000000000000000000e+00 0.000000000000000000e+00 5.929230630780102373e-21
-0.000000000000000000e+00 0.000000000000000000e+00 0.000000000000000000e+00
-0.000000000000000000e+00 -0.000000000000000000e+00 -1.867707648695732248e-19
-0.000000000000000000e+00 -0.000000000000000000e+00 -8.216219588366713289e-20
0.000000000000000000e+00 0.000000000000000000e+00 0.000000000000000000e+00
0.000000000000000000e+00 0.000000000000000000e+00 0.000000000000000000e+00
0.000000000000000000e+00 0.000000000000000000e+00 -9.200094875978320042e-06
-0.000000000000000000e+00 0.000000000000000000e+00 6.606856988583542645e-20
0.000000000000000000e+00 -0.000000000000000000e+00 9.503374440377520006e-06
0.000000000000000000e+00 -0.000000000000000000e+00 9.660669001328194130e-06
-0.000000000000000000e+00 -0.000000000000000000e+00 -1.922764790267261770e-19
-0.000000000000000000e+00 -0.000000000000000000e+00 -1.952410943421162282e-19
0.000000000000000000e+00 0.000000000000000000e+00 -1.850766989750646241e-19
0.000000000000000000e+00 0.000000000000000000e+00 -8.911104768137229971e-06
-0.000000000000000000e+00 0.000000000000000000e+00 0.000000000000000000e+00
0.000000000000000000e+00 -0.000000000000000000e+00 -1.778769189234030712e-20
-0.000000000000000000e+00 0.000000000000000000e+00 0.000000000000000000e+00
0.000000000000000000e+00 0.000000000000000000e+00 -8.911104768137229971e-06
0.000000000000000000e+00 0.000000000000000000e+00 -1.015671493751240238e-05
-1.316012651007294164e-05 -3.760036145735100227e-06 -6.570009682454493274e-07
-1.388570730357784229e-05 2.082856095536678037e-05 1.628600403399639972e-05
-0.000000000000000000e+00 -0.000000000000000000e+00 0.000000000000000000e+00
-0.000000000000000000e+00 0.000000000000000000e+00 -8.864265927977845063e-06
0.000000000000000000e+00 0.000000000000000000e+00 -9.102222222222226930e-06
0.000000000000000000e+00 0.000000000000000000e+00 -9.349890430971513180e-06
0.000000000000000000e+00 0.000000000000000000e+00 -9.607806342653415691e-06
0.000000000000000000e+00 0.000000000000000000e+00 -1.094353818268868960e-05
-0.000000000000000000e+00 0.000000000000000000e+00 0.000000000000000000e+00
-0.000000000000000000e+00 0.000000000000000000e+00 8.978549240895583594e-20
0.000000000000000000e+00 -0.000000000000000000e+00 5.166900978251232068e-20
0.000000000000000000e+00 0.000000000000000000e+00 -9.613823951336308848e-20
-0.000000000000000000e+00 -0.000000000000000000e+00 6.352747104407252543e-21
-0.000000000000000000e+00 -0.000000000000000000e+00 -1.842296660278103237e-19
0.000000000000000000e+00 0.000000000000000000e+00 6.352747104407252543e-21
0.000000000000000000e+00 0.000000000000000000e+00 -9.249624234015439668e-06
0.000000000000000000e+00 -0.000000000000000000e+00 9.400636011780189890e-06
0.000000000000000000e+00 -0.000000000000000000e+00 9.555376392248344917e-06
0.000000000000000000e+00 -0.000000000000000000e+00 0.000000000000000000e+00
0.000000000000000000e+00 -0.000000000000000000e+00 1.298227108604817979e-05
0.000000000000000000e+00 0.000000000000000000e+00 -1.250000000000000738e-05
0.000000000000000000e+00 0.000000000000000000e+00 -1.204411155858361609e-05
0.000000000000000000e+00 -0.000000000000000000e+00 8.958315836622708671e-06
-0.000000000000000000e+00 0.000000000000000000e+00 0.000000000000000000e+00
-0.000000000000000000e+00 0.000000000000000000e+00 -1.778769189234030712e-20
-0.000000000000000000e+00 0.000000000000000000e+00 0.000000000000000000e+00
-0.000000000000000000e+00 0.000000000000000000e+00 -8.864265927977824734e-06
0.000000000000000000e+00 0.000000000000000000e+00 -4.404571325722361763e-20
-1.267532860520105334e-05 -3.621522458628863851e-06 -5.843820330969389093e-07
0.000000000000000000e+00 0.000000000000000000e+00 -3.515186731105346407e-20
0.000000000000000000e+00 -0.000000000000000000e+00 0.000000000000000000e+00
0.000000000000000000e+00 0.000000000000000000e+00 -8.958315836622718836e-06
0.000000000000000000e+00 0.000000000000000000e+00 9.102222222222198131e-06
-0.000000000000000000e+00 0.000000000000000000e+00 -9.349890430971497933e-06
-0.000000000000000000e+00 0.000000000000000000e+00 -9.607806342653397056e-06
0.000000000000000000e+00 -0.000000000000000000e+00 -1.948175778684890780e-20
-0.000000000000000000e+00 0.000000000000000000e+00 -1.948175778684890780e-20
0.000000000000000000e+00 0.000000000000000000e+00 1.081665765278528195e-05
0.000000000000000000e+00 -0.000000000000000000e+00 1.069197099802872152e-05
-0.000000000000000000e+00 -0.000000000000000000e+00 0.000000000000000000e+00
-0.000000000000000000e+00 0.000000000000000000e+00 1.009973488195959754e-05
-0.000000000000000000e+00 -0.000000000000000000e+00 -9.190307477709158679e-20
0.000000000000000000e+00 0.000000000000000000e+00 -7.792703114739563119e-20
0.000000000000000000e+00 0.000000000000000000e+00 -9.299554638516135144e-06
0.000000000000000000e+00 0.000000000000000000e+00 -9.451795841209823957e-06
-0.000000000000000000e+00 0.000000000000000000e+00 -9.555376392248167040e-06
-0.000000000000000000e+00 0.000000000000000000e+00 -9.713969142969827904e-06
0.000000000000000000e+00 0.000000000000000000e+00 -1.281845858035553304e-05
0.000000000000000000e+00 0.000000000000000000e+00 -1.242223969099670116e-05
-0.000000000000000000e+00 0.000000000000000000e+00 -1.197055990423557048e-05
-0.000000000000000000e+00 0.000000000000000000e+00 -8.958315836622696813e-06
0.000000000000000000e+00 -0.000000000000000000e+00 9.053870529651358140e-06
-0.000000000000000000e+00 0.000000000000000000e+00 0.000000000000000000e+00
0.000000000000000000e+00 0.000000000000000000e+00 -8.958315836622579922e-06
-0.000000000000000000e+00 0.000000000000000000e+00 -9.987203895009535165e-06
-1.050320854595332420e-19 7.623296525288703052e-20 -8.131516293641283255e-20
1.234353030845671752e-05 3.526722945273331345e-06 9.456615255795132040e-06
1.214999389063061709e-05 3.471426825894453796e-06 9.192319671189053471e-06
0.000000000000000000e+00 -0.000000000000000000e+00 2.879912020664621153e-20
-0.000000000000000000e+00 0.000000000000000000e+00 -8.958315836622696813e-06
-0.000000000000000000e+00 0.000000000000000000e+00 -1.778769189234030712e-20
-0.000000000000000000e+00 -0.000000000000000000e+00 -1.482307657695025593e-20
0.000000000000000000e+00 -0.000000000000000000e+00 1.100781727023329156e-05
0.000000000000000000e+00 -0.000000000000000000e+00 -3.896351557369781560e-20
0.000000000000000000e+00 0.000000000000000000e+00 -1.081665765278531414e-05
-0.000000000000000000e+00 0.000000000000000000e+00 0.000000000000000000e+00
0.000000000000000000e+00 0.000000000000000000e+00 1.069197099802854873e-05
-0.000000000000000000e+00 -0.000000000000000000e+00 -8.893845946170153560e-20
0.000000000000000000e+00 0.000000000000000000e+00 -8.682087709356578475e-20
0.000000000000000000e+00 0.000000000000000000e+00 -7.877406409464993153e-20
0.000000000000000000e+00 0.000000000000000000e+00 -9.249624234015429503e-06
-0.000000000000000000e+00 0.000000000000000000e+00 -9.299554638516194436e-06
-0.000000000000000000e+00 0.000000000000000000e+00 -9.451795841209835816e-06
0.000000000000000000e+00 0.000000000000000000e+00 9.607806342653454654e-06
0.000000000000000000e+00 0.000000000000000000e+00 -1.998997755520148800e-19
-0.000000000000000000e+00 -0.000000000000000000e+00 1.397604362969595559e-20
0.000000000000000000e+00 0.000000000000000000e+00 0.000000000000000000e+00
1.887747778725911002e-05 5.393565082074054061e-06 1.435423797979249372e-05
0.000000000000000000e+00 -0.000000000000000000e+00 2.879912020664621153e-20
0.000000000000000000e+00 -0.000000000000000000e+00 -1.778769189234030712e-20
-0.000000000000000000e+00 0.000000000000000000e+00 -9.053870529651486890e-06
0.000000000000000000e+00 0.000000000000000000e+00 8.958315836622708671e-06
0.000000000000000000e+00 -0.000000000000000000e+00 1.009973488195932818e-05
-1.348490545628714390e-05 -3.852830130367694050e-06 -6.989693164317979926e-07
0.000000000000000000e+00 0.000000000000000000e+00 -8.725944003981184568e-06
-1.218196755876385670e-05 -3.480562159646816199e-06 -3.057124784609511394e-07
0.000000000000000000e+00 -0.000000000000000000e+00 8.864265927977833204e-06
0.000000000000000000e+00 0.000000000000000000e+00 -9.150962280877338620e-06
0.000000000000000000e+00 0.000000000000000000e+00 -8.046812998915853221e-21
0.000000000000000000e+00 0.000000000000000000e+00 9.660669001328322879e-06
0.000000000000000000e+00 0.000000000000000000e+00 1.100781727023331697e-05
0.000000000000000000e+00 0.000000000000000000e+00 -1.087982048296204051e-05
0.000000000000000000e+00 -0.000000000000000000e+00 5.929230630780102373e-21
0.000000000000000000e+00 -0.000000000000000000e+00 0.000000000000000000e+00
-0.000000000000000000e+00 0.000000000000000000e+00 1.069197099802842676e-05
0.000000000000000000e+00 0.000000000000000000e+00 6.352747104407252543e-21
0.000000000000000000e+00 0.000000000000000000e+00 -8.639736061993863458e-20
-0.000000000000000000e+00 0.000000000000000000e+00 9.503374440377379399e-06
-0.000000000000000000e+00 0.000000000000000000e+00 -9.200094875978320042e-06
-0.000000000000000000e+00 0.000000000000000000e+00 -9.349890430971489463e-06
0.000000000000000000e+00 0.000000000000000000e+00 9.503374440377597933e-06
-0.000000000000000000e+00 0.000000000000000000e+00 -9.660669001328114509e-06
-0.000000000000000000e+00 -0.000000000000000000e+00 0.000000000000000000e+00
0.000000000000000000e+00 0.000000000000000000e+00 -1.257849274279957461e-05
0.000000000000000000e+00 -0.000000000000000000e+00 1.211834319526637468e-05
0.000000000000000000e+00 0.000000000000000000e+00 8.911104768137184231e-06
0.000000000000000000e+00 -0.000000000000000000e+00 0.000000000000000000e+00
-0.000000000000000000e+00 0.000000000000000000e+00 -3.557538378468061424e-20
0.000000000000000000e+00 -0.000000000000000000e+00 4.658681209898651865e-20
-0.000000000000000000e+00 0.000000000000000000e+00 -8.911104768137218112e-06
0.000000000000000000e+00 0.000000000000000000e+00 1.015671493751240238e-05
-1.294938085231834680e-05 -3.699823100662359086e-06 -6.217483472637635763e-07
0.000000000000000000e+00 0.000000000000000000e+00 9.005903088039799340e-06
1.196048240964590340e-05 3.417280688470254182e-06 2.544686288071808686e-07
0.000000000000000000e+00 0.000000000000000000e+00 -8.911104768137218112e-06
0.000000000000000000e+00 -0.000000000000000000e+00 -3.134021904840911255e-20
-0.000000000000000000e+00 0.000000000000000000e+00 0.000000000000000000e+00
0.000000000000000000e+00 -0.000000000000000000e+00 -3.642241673193491458e-20
-0.000000000000000000e+00 0.000000000000000000e+00 0.000000000000000000e+00
0.000000000000000000e+00 -0.000000000000000000e+00 2.541098841762901017e-20
0.000000000000000000e+00 -0.000000000000000000e+00 4.489274620447791797e-20
0.000000000000000000e+00 0.000000000000000000e+00 1.075404326822094824e-05
-0.000000000000000000e+00 0.000000000000000000e+00 1.056942792971315766e-05
0.000000000000000000e+00 0.000000000000000000e+00 -1.015671493751237697e-05
0.000000000000000000e+00 0.000000000000000000e+00 -8.597384414631148442e-20
-0.000000000000000000e+00 0.000000000000000000e+00 9.400636011780383013e-06
0.000000000000000000e+00 -0.000000000000000000e+00 0.000000000000000000e+00
-0.000000000000000000e+00 0.000000000000000000e+00 -9.400636011780237324e-06
0.000000000000000000e+00 -0.000000000000000000e+00 7.877406409464993153e-20
0.000000000000000000e+00 -0.000000000000000000e+00 1.956646108157433783e-19
-0.000000000000000000e+00 0.000000000000000000e+00 -1.298227108604817979e-05
0.000000000000000000e+00 0.000000000000000000e+00 1.249999999999998705e-05
-0.000000000000000000e+00 0.000000000000000000e+00 -1.204411155858352631e-05
-0.000000000000000000e+00 0.000000000000000000e+00 0.000000000000000000e+00
0.000000000000000000e+00 0.000000000000000000e+00 9.005903088039711248e-06
0.000000000000000000e+00 -0.000000000000000000e+00 -3.557538378468061424e-20
-0.000000000000000000e+00 0.000000000000000000e+00 -9.005903088039758682e-06
-2.288989238109727771e-05 8.323597229489978306e-06 7.838981374751528521e-06
-1.705162111862072261e-04 -1.065726319913803803e-05 -2.291311587814658863e-05
-1.247484353676573127e-05 -3.564241010504478010e-06 -5.513137498868963546e-07
-0.000000000000000000e+00 -0.000000000000000000e+00 -3.515186731105346407e-20
-0.000000000000000000e+00 0.000000000000000000e+00 -8.771689372550078658e-06
-0.000000000000000000e+00 0.000000000000000000e+00 0.000000000000000000e+00
0.000000000000000000e+00 0.000000000000000000e+00 -9.200094875978396275e-06
0.000000000000000000e+00 0.000000000000000000e+00 5.929230630780102373e-21
-2.443395713106056959e-04 -3.688144472612818535e-05 2.902564769271874067e-05
-0.000000000000000000e+00 0.000000000000000000e+00 6.776263578034402713e-21
0.000000000000000000e+00 -0.000000000000000000e+00 -3.811648262644351526e-20
0.000000000000000000e+00 0.000000000000000000e+00 -1.075404326822091775e-05
0.000000000000000000e+00 -0.000000000000000000e+00 6.437450399132682577e-20
-0.000000000000000000e+00 -0.000000000000000000e+00 1.270549420881450509e-20
-0.000000000000000000e+00 0.000000000000000000e+00 1.004323297946646033e-05
-0.000000000000000000e+00 0.000000000000000000e+00 9.660669001328334738e-06
0.000000000000000000e+00 0.000000000000000000e+00 -9.299554638516135144e-06
0.000000000000000000e+00 -0.000000000000000000e+00 6.013933925505532407e-20
-0.000000000000000000e+00 0.000000000000000000e+00 0.000000000000000000e+00
-0.000000000000000000e+00 -0.000000000000000000e+00 0.000000000000000000e+00
-2.459648022152740731e-04 -8.630343937377734146e-06 -6.127428816608799329e-05
-0.000000000000000000e+00 0.000000000000000000e+00 -1.281845858035555336e-05
-0.000000000000000000e+00 0.000000000000000000e+00 -1.242223969099672148e-05
0.000000000000000000e+00 0.000000000000000000e+00 2.032879073410320814e-20
0.000000000000000000e+00 0.000000000000000000e+00 -9.005903088039763764e-06
0.000000000000000000e+00 -0.000000000000000000e+00 0.000000000000000000e+00
0.000000000000000000e+00 -0.000000000000000000e+00 0.000000000000000000e+00
-0.000000000000000000e+00 0.000000000000000000e+00 2.964615315390051187e-20
-0.000000000000000000e+00 -0.000000000000000000e+00 -8.682087709356578475e-20
-1.385842818930307414e-05 -3.959550911229414300e-06 -7.447978786230323091e-07
0.000000000000000000e+00 0.000000000000000000e+00 -4.065758146820641628e-20
1.196048240964590340e-05 3.417280688470282558e-06 3.229969848594273540e-07
-0.000000000000000000e+00 0.000000000000000000e+00 -8.817795413368590486e-06
1.247484353676573127e-05 3.564241010504492409e-06 3.335519662226689777e-09
0.000000000000000000e+00 0.000000000000000000e+00 9.200094875978396275e-06
0.000000000000000000e+00 0.000000000000000000e+00 -9.660669001328329655e-06
-0.000000000000000000e+00 0.000000000000000000e+00 0.000000000000000000e+00
0.000000000000000000e+00 0.000000000000000000e+00 1.094353818268868282e-05
0.000000000000000000e+00 -0.000000000000000000e+00 5.929230630780102373e-21
0.000000000000000000e+00 -0.000000000000000000e+00 6.437450399132682577e-20
0.000000000000000000e+00 0.000000000000000000e+00 -1.075404326822096179e-05
-0.000000000000000000e+00 0.000000000000000000e+00 1.033057851239699144e-05
-0.000000000000000000e+00 0.000000000000000000e+00 9.931642367765616957e-06
0.000000000000000000e+00 0.000000000000000000e+00 -9.555376392248167040e-06
-0.000000000000000000e+00 0.000000000000000000e+00 -9.249624234015493878e-06
0.000000000000000000e+00 0.000000000000000000e+00 -9.349890430971489463e-06
0.000000000000000000e+00 0.000000000000000000e+00 -9.503374440377343823e-06
0.000000000000000000e+00 0.000000000000000000e+00 -9.660669001328372007e-06
0.000000000000000000e+00 0.000000000000000000e+00 -3.985290016831483095e-19
0.000000000000000000e+00 0.000000000000000000e+00 -1.265772714686936493e-05
-0.000000000000000000e+00 0.000000000000000000e+00 1.219326322206968328e-05
1.187134614293371360e-04 7.419591339333506625e-06 1.639848716869823279e-05
-0.000000000000000000e+00 0.000000000000000000e+00 4.658681209898651865e-20
-0.000000000000000000e+00 0.000000000000000000e+00 -3.557538378468061424e-20
0.000000000000000000e+00 0.000000000000000000e+00 -9.005903088039758682e-06
0.000000000000000000e+00 -0.000000000000000000e+00 8.911104768137229971e-06
-0.000000000000000000e+00 0.000000000000000000e+00 -1.009973488195936545e-05
